85.74,85.74,85.79,85.81,85.78,85.71,85.66,85.63,85.61,85.61,85.65,85.78,85.81,85.75,85.62,85.53,85.46,85.39,85.33,85.25,85.22,85.16,85.09,85.01,85.00,84.95,84.88,84.82,84.84,84.76,84.69,84.63,84.61,84.62,84.63,84.64,84.64,84.61,84.56,84.56,84.59,84.50,84.42,84.31,84.18,84.10,84.08,84.04,83.98,83.89,83.84,83.81,83.76,83.69,83.63,83.54,83.42,83.33,83.30,83.25,83.15,83.05,82.95,82.90,82.85,82.83,82.82,82.79,82.73,82.73,82.76,82.76,82.73,82.77,82.78,82.75,82.76,82.79,82.82,82.84,82.84,82.84,82.85,82.86,82.87,82.91,82.96,82.99,83.00,83.00,83.00,82.99,82.99,83.02,83.06,83.12,83.18,83.22,83.24,83.27,83.32,83.39,83.48,83.50,83.51,83.49,83.44,83.35,83.26,83.21,83.21,83.26,83.34,83.37,83.38,83.40,83.38,83.31,83.19,83.06,82.99,82.93,82.86,82.82,82.86,82.87,82.82,82.73,82.61,82.54,82.50,82.46,82.43,82.41,82.39,82.39,82.39,82.36,82.28,82.23,82.21,82.22,82.24,82.28,82.33,82.38,82.44,82.41,82.35,82.31,82.31,82.37,82.44,82.46,82.42,82.33,82.27,82.27,82.30,82.33,82.34,82.37,82.39,82.41,82.39,82.34,82.36,82.45,82.57,82.56,82.48,82.37,82.27,82.28,82.31,82.35,82.38,82.40,82.43,82.47,82.50,82.52,82.51,82.47,82.44,82.43,82.42,82.36,82.30,82.26,82.28,82.33,82.36,82.36,82.32,82.27,82.19,82.10,82.02,81.94,81.90,81.88,81.88,81.89,81.88,81.85,81.80,81.77,81.74,81.70,81.66,81.63,81.63,81.64,81.66,81.68,81.71,81.71,81.70,81.70,81.69,81.65,81.60,81.56,81.51,81.48,81.46,81.46,81.47,81.47,81.42,81.37,81.33,81.32,81.31,81.31,81.31,81.30,81.28,81.24,81.19,81.17,81.19,81.20,81.14,81.06,80.97,80.89,80.92,80.97,80.99,80.99,81.01,81.05,81.08,81.10
85.81,85.81,85.85,85.84,85.78,85.72,85.71,85.67,85.62,85.60,85.60,85.70,85.75,85.72,85.62,85.53,85.47,85.42,85.38,85.31,85.24,85.17,85.09,85.01,85.00,84.95,84.89,84.84,84.89,84.80,84.72,84.69,84.64,84.66,84.68,84.69,84.69,84.62,84.60,84.60,84.58,84.49,84.41,84.30,84.18,84.10,84.06,84.04,83.99,83.90,83.86,83.82,83.76,83.69,83.66,83.57,83.46,83.38,83.34,83.30,83.25,83.15,83.01,82.91,82.87,82.85,82.84,82.79,82.72,82.70,82.72,82.74,82.75,82.78,82.80,82.81,82.83,82.82,82.85,82.89,82.89,82.86,82.82,82.81,82.83,82.90,82.94,82.98,83.00,83.00,82.99,82.98,82.97,83.00,83.01,83.05,83.09,83.13,83.16,83.20,83.25,83.30,83.37,83.41,83.46,83.46,83.41,83.31,83.19,83.13,83.12,83.16,83.26,83.29,83.28,83.27,83.30,83.24,83.12,83.00,82.92,82.85,82.78,82.72,82.70,82.72,82.67,82.58,82.50,82.50,82.48,82.43,82.38,82.35,82.36,82.38,82.39,82.36,82.28,82.24,82.24,82.26,82.31,82.38,82.45,82.51,82.56,82.51,82.43,82.34,82.29,82.36,82.47,82.52,82.49,82.41,82.33,82.29,82.29,82.30,82.33,82.36,82.39,82.41,82.41,82.36,82.34,82.36,82.44,82.43,82.36,82.26,82.19,82.28,82.39,82.43,82.41,82.40,82.41,82.44,82.48,82.51,82.48,82.44,82.43,82.44,82.41,82.32,82.25,82.21,82.22,82.27,82.31,82.32,82.31,82.25,82.18,82.10,82.02,81.95,81.88,81.84,81.84,81.87,81.85,81.82,81.80,81.78,81.74,81.70,81.66,81.62,81.60,81.60,81.60,81.61,81.62,81.67,81.69,81.65,81.58,81.59,81.59,81.57,81.51,81.43,81.42,81.41,81.41,81.41,81.40,81.35,81.31,81.30,81.30,81.35,81.37,81.36,81.31,81.29,81.24,81.20,81.20,81.20,81.14,81.07,80.97,80.84,80.88,80.90,80.91,80.92,80.98,81.00,81.04,81.09
85.86,85.84,85.84,85.82,85.79,85.76,85.76,85.72,85.66,85.63,85.59,85.63,85.66,85.65,85.61,85.57,85.53,85.47,85.40,85.32,85.26,85.18,85.09,85.01,85.00,84.95,84.90,84.88,84.90,84.84,84.78,84.73,84.70,84.68,84.68,84.70,84.70,84.62,84.60,84.60,84.59,84.51,84.41,84.29,84.18,84.10,84.08,84.05,84.01,83.93,83.84,83.79,83.73,83.66,83.66,83.62,83.52,83.44,83.44,83.36,83.28,83.19,83.08,82.95,82.86,82.82,82.80,82.76,82.71,82.70,82.73,82.77,82.78,82.80,82.82,82.85,82.87,82.87,82.87,82.87,82.89,82.84,82.81,82.81,82.83,82.89,82.93,82.96,83.00,83.00,82.99,82.96,82.96,83.00,83.00,83.01,83.02,83.03,83.08,83.11,83.16,83.22,83.29,83.32,83.36,83.35,83.30,83.21,83.14,83.08,83.06,83.07,83.15,83.20,83.20,83.18,83.19,83.15,83.05,82.93,82.85,82.77,82.70,82.63,82.58,82.56,82.52,82.48,82.45,82.47,82.46,82.42,82.36,82.32,82.33,82.34,82.34,82.33,82.29,82.29,82.34,82.41,82.46,82.51,82.57,82.61,82.64,82.60,82.51,82.41,82.32,82.33,82.42,82.51,82.55,82.49,82.43,82.38,82.34,82.32,82.36,82.37,82.36,82.35,82.35,82.33,82.30,82.29,82.30,82.30,82.28,82.27,82.28,82.39,82.51,82.52,82.44,82.38,82.42,82.46,82.49,82.50,82.46,82.40,82.37,82.36,82.31,82.26,82.23,82.24,82.23,82.26,82.29,82.31,82.30,82.25,82.18,82.10,82.03,81.98,81.92,81.88,81.86,81.85,81.82,81.81,81.80,81.79,81.77,81.75,81.71,81.64,81.60,81.63,81.63,81.61,81.61,81.63,81.61,81.57,81.54,81.58,81.57,81.54,81.49,81.43,81.40,81.39,81.38,81.36,81.34,81.32,81.30,81.30,81.30,81.35,81.39,81.39,81.36,81.35,81.30,81.25,81.22,81.21,81.16,81.08,80.99,80.88,80.89,80.89,80.89,80.89,80.93,80.98,81.04,81.09
85.89,85.85,85.82,85.80,85.80,85.79,85.79,85.74,85.69,85.65,85.58,85.58,85.59,85.60,85.60,85.60,85.59,85.53,85.43,85.34,85.29,85.21,85.10,85.03,85.01,84.95,84.90,84.89,84.88,84.86,84.82,84.76,84.75,84.68,84.67,84.69,84.70,84.62,84.59,84.58,84.58,84.53,84.43,84.31,84.19,84.12,84.10,84.07,84.02,83.96,83.85,83.77,83.69,83.64,83.67,83.66,83.58,83.49,83.50,83.41,83.31,83.22,83.14,82.99,82.87,82.81,82.79,82.75,82.74,82.75,82.78,82.82,82.82,82.82,82.84,82.88,82.90,82.90,82.86,82.83,82.87,82.82,82.80,82.81,82.83,82.89,82.91,82.95,82.99,83.00,82.99,82.95,82.94,82.99,83.00,82.99,82.97,82.96,82.99,83.01,83.07,83.14,83.19,83.22,83.25,83.25,83.19,83.13,83.09,83.05,83.01,83.00,83.04,83.09,83.10,83.06,83.06,83.04,82.96,82.85,82.78,82.71,82.64,82.56,82.48,82.42,82.40,82.39,82.38,82.40,82.43,82.41,82.36,82.30,82.31,82.32,82.33,82.32,82.30,82.33,82.42,82.53,82.59,82.62,82.66,82.68,82.69,82.66,82.57,82.45,82.34,82.28,82.35,82.46,82.57,82.56,82.52,82.45,82.39,82.34,82.37,82.35,82.31,82.28,82.28,82.27,82.26,82.23,82.21,82.21,82.24,82.30,82.39,82.50,82.60,82.60,82.50,82.39,82.42,82.46,82.49,82.48,82.43,82.36,82.30,82.26,82.21,82.19,82.20,82.24,82.23,82.24,82.26,82.28,82.29,82.25,82.18,82.11,82.04,82.01,81.96,81.92,81.88,81.83,81.81,81.80,81.80,81.80,81.80,81.78,81.73,81.66,81.59,81.63,81.63,81.62,81.60,81.58,81.54,81.52,81.53,81.59,81.55,81.52,81.49,81.43,81.37,81.36,81.35,81.32,81.30,81.30,81.30,81.30,81.30,81.34,81.39,81.41,81.41,81.40,81.35,81.29,81.25,81.24,81.19,81.10,81.01,80.93,80.91,80.89,80.87,80.88,80.90,80.95,81.02,81.07
85.88,85.83,85.81,85.80,85.79,85.77,85.75,85.69,85.67,85.67,85.59,85.55,85.57,85.59,85.60,85.61,85.64,85.61,85.52,85.39,85.33,85.25,85.15,85.08,85.02,84.96,84.89,84.84,84.84,84.83,84.81,84.78,84.74,84.66,84.63,84.65,84.70,84.62,84.56,84.53,84.53,84.52,84.48,84.37,84.25,84.17,84.12,84.09,84.05,83.99,83.94,83.79,83.67,83.62,83.69,83.69,83.63,83.53,83.45,83.46,83.39,83.28,83.17,83.06,82.93,82.87,82.85,82.79,82.84,82.89,82.90,82.87,82.87,82.88,82.88,82.89,82.89,82.84,82.78,82.76,82.82,82.81,82.80,82.81,82.83,82.89,82.90,82.92,82.95,83.00,82.99,82.94,82.91,82.94,82.99,83.00,82.98,82.94,82.87,82.92,82.98,83.03,83.04,83.08,83.15,83.18,83.12,83.11,83.08,83.04,83.00,82.98,82.95,82.94,82.94,82.91,82.88,82.89,82.85,82.77,82.71,82.68,82.62,82.53,82.43,82.34,82.31,82.30,82.28,82.27,82.34,82.40,82.40,82.31,82.33,82.36,82.37,82.35,82.31,82.34,82.43,82.57,82.66,82.68,82.69,82.69,82.69,82.66,82.56,82.44,82.31,82.20,82.21,82.32,82.49,82.60,82.56,82.48,82.39,82.32,82.33,82.29,82.24,82.20,82.17,82.17,82.19,82.21,82.19,82.20,82.25,82.35,82.48,82.57,82.63,82.65,82.62,82.46,82.41,82.43,82.46,82.43,82.36,82.30,82.24,82.16,82.09,82.10,82.14,82.18,82.21,82.18,82.20,82.23,82.26,82.24,82.17,82.12,82.08,82.04,81.97,81.92,81.88,81.83,81.81,81.80,81.80,81.80,81.79,81.74,81.70,81.66,81.57,81.57,81.59,81.62,81.62,81.56,81.53,81.54,81.58,81.62,81.59,81.54,81.49,81.43,81.32,81.31,81.32,81.31,81.30,81.30,81.30,81.30,81.30,81.31,81.37,81.43,81.43,81.41,81.35,81.32,81.31,81.32,81.26,81.17,81.06,80.96,80.92,80.88,80.85,80.85,80.89,80.93,80.98,81.01
85.88,85.82,85.80,85.78,85.76,85.74,85.72,85.69,85.68,85.68,85.61,85.57,85.56,85.56,85.56,85.56,85.61,85.60,85.52,85.38,85.30,85.23,85.17,85.10,85.03,84.96,84.88,84.82,84.85,84.85,84.84,84.80,84.76,84.69,84.66,84.67,84.70,84.62,84.55,84.51,84.51,84.51,84.50,84.44,84.35,84.24,84.17,84.12,84.08,84.04,83.99,83.81,83.68,83.65,83.69,83.67,83.62,83.56,83.50,83.53,83.47,83.36,83.22,83.10,82.99,82.90,82.85,82.84,82.88,82.92,82.93,82.90,82.89,82.89,82.87,82.84,82.81,82.77,82.75,82.74,82.76,82.76,82.77,82.78,82.82,82.88,82.90,82.93,82.96,82.98,82.94,82.89,82.87,82.92,82.98,83.00,82.99,82.94,82.84,82.85,82.88,82.92,82.94,82.97,83.01,83.03,83.00,83.02,83.01,82.98,82.94,82.93,82.91,82.89,82.86,82.80,82.72,82.68,82.63,82.56,82.56,82.55,82.51,82.43,82.30,82.20,82.18,82.20,82.22,82.22,82.32,82.40,82.44,82.38,82.37,82.38,82.38,82.34,82.31,82.32,82.38,82.48,82.60,82.64,82.65,82.65,82.65,82.61,82.50,82.38,82.27,82.18,82.16,82.21,82.32,82.48,82.53,82.50,82.43,82.36,82.31,82.24,82.17,82.12,82.11,82.14,82.17,82.19,82.17,82.19,82.25,82.35,82.48,82.58,82.63,82.66,82.66,82.56,82.45,82.42,82.41,82.37,82.30,82.24,82.16,82.07,82.00,82.02,82.09,82.16,82.20,82.18,82.17,82.17,82.19,82.21,82.17,82.12,82.09,82.04,81.97,81.91,81.87,81.82,81.81,81.79,81.78,81.78,81.77,81.72,81.69,81.67,81.58,81.56,81.58,81.61,81.63,81.58,81.55,81.55,81.57,81.60,81.55,81.50,81.45,81.41,81.34,81.32,81.32,81.31,81.28,81.29,81.30,81.30,81.32,81.31,81.33,81.38,81.42,81.39,81.33,81.31,81.33,81.34,81.30,81.22,81.12,81.00,80.93,80.89,80.87,80.87,80.92,80.93,80.95,80.98
85.87,85.83,85.81,85.76,85.71,85.70,85.70,85.69,85.69,85.68,85.62,85.60,85.56,85.51,85.49,85.50,85.55,85.56,85.49,85.35,85.25,85.20,85.17,85.11,85.03,84.95,84.88,84.82,84.88,84.90,84.86,84.81,84.80,84.74,84.71,84.70,84.70,84.63,84.56,84.52,84.50,84.50,84.50,84.50,84.47,84.33,84.25,84.17,84.12,84.11,84.02,83.83,83.71,83.70,83.68,83.62,83.59,83.58,83.58,83.59,83.54,83.42,83.27,83.12,83.04,82.94,82.85,82.89,82.90,82.91,82.92,82.91,82.89,82.88,82.84,82.77,82.71,82.70,82.72,82.73,82.69,82.71,82.73,82.75,82.80,82.85,82.89,82.95,82.99,82.95,82.89,82.84,82.83,82.90,82.96,82.98,82.98,82.95,82.85,82.80,82.79,82.82,82.85,82.87,82.87,82.87,82.87,82.90,82.91,82.89,82.87,82.87,82.89,82.88,82.82,82.69,82.56,82.47,82.38,82.32,82.36,82.38,82.36,82.28,82.13,82.03,82.04,82.10,82.16,82.21,82.31,82.41,82.47,82.47,82.42,82.40,82.38,82.32,82.30,82.29,82.30,82.35,82.47,82.55,82.59,82.59,82.59,82.52,82.41,82.30,82.23,82.18,82.14,82.11,82.13,82.30,82.46,82.50,82.47,82.40,82.30,82.19,82.10,82.06,82.08,82.13,82.17,82.19,82.16,82.18,82.24,82.32,82.42,82.55,82.62,82.65,82.66,82.65,82.52,82.41,82.34,82.31,82.25,82.18,82.09,82.00,81.93,81.96,82.05,82.15,82.19,82.19,82.15,82.11,82.11,82.17,82.15,82.12,82.09,82.04,81.97,81.90,81.86,81.82,81.81,81.78,81.75,81.75,81.75,81.72,81.69,81.67,81.60,81.57,81.57,81.59,81.62,81.62,81.58,81.55,81.54,81.56,81.50,81.44,81.40,81.39,81.37,81.35,81.33,81.30,81.25,81.27,81.28,81.30,81.34,81.32,81.29,81.31,81.38,81.36,81.29,81.28,81.32,81.34,81.32,81.27,81.17,81.03,80.95,80.91,80.90,80.91,80.96,80.93,80.93,80.97
85.89,85.87,85.83,85.76,85.71,85.68,85.68,85.67,85.65,85.63,85.61,85.59,85.52,85.45,85.43,85.47,85.50,85.48,85.41,85.33,85.25,85.18,85.12,85.05,84.98,84.93,84.89,84.88,84.89,84.90,84.86,84.81,84.80,84.75,84.72,84.72,84.70,84.68,84.66,84.60,84.52,84.52,84.52,84.54,84.54,84.45,84.38,84.31,84.24,84.16,84.05,83.88,83.77,83.71,83.63,83.61,83.57,83.53,83.53,83.56,83.53,83.44,83.31,83.14,83.08,83.01,82.93,82.88,82.92,82.95,82.96,82.93,82.84,82.82,82.80,82.76,82.70,82.66,82.65,82.65,82.64,82.73,82.73,82.72,82.72,82.73,82.82,82.90,82.94,82.88,82.84,82.81,82.81,82.83,82.87,82.92,82.95,82.95,82.89,82.80,82.76,82.76,82.75,82.78,82.79,82.78,82.77,82.74,82.75,82.77,82.79,82.81,82.85,82.83,82.73,82.53,82.37,82.30,82.25,82.22,82.21,82.19,82.15,82.08,81.99,81.92,81.93,81.98,82.07,82.14,82.28,82.40,82.47,82.48,82.46,82.43,82.39,82.34,82.31,82.27,82.24,82.24,82.30,82.41,82.48,82.49,82.47,82.39,82.29,82.20,82.15,82.09,82.07,82.04,82.04,82.10,82.28,82.40,82.42,82.32,82.18,82.08,82.04,82.04,82.08,82.13,82.18,82.22,82.22,82.21,82.22,82.25,82.30,82.41,82.53,82.60,82.64,82.65,82.60,82.48,82.35,82.25,82.20,82.13,82.05,81.97,81.92,81.93,82.00,82.09,82.15,82.15,82.12,82.10,82.10,82.13,82.13,82.10,82.05,81.99,81.94,81.88,81.85,81.84,81.83,81.77,81.73,81.72,81.76,81.76,81.72,81.65,81.57,81.54,81.55,81.57,81.57,81.59,81.54,81.50,81.49,81.48,81.44,81.41,81.38,81.35,81.34,81.32,81.31,81.29,81.24,81.20,81.21,81.25,81.31,81.30,81.27,81.25,81.27,81.26,81.23,81.25,81.29,81.31,81.31,81.26,81.19,81.08,81.00,80.94,80.92,80.96,80.98,80.94,80.96,81.03
85.90,85.88,85.83,85.76,85.70,85.64,85.60,85.57,85.57,85.57,85.57,85.54,85.47,85.41,85.40,85.43,85.44,85.41,85.35,85.30,85.24,85.17,85.11,85.06,84.99,84.95,84.93,84.93,84.91,84.89,84.86,84.81,84.80,84.77,84.75,84.74,84.70,84.70,84.69,84.64,84.55,84.54,84.55,84.57,84.58,84.52,84.47,84.40,84.31,84.21,84.08,83.94,83.83,83.75,83.63,83.60,83.55,83.50,83.48,83.51,83.51,83.46,83.37,83.20,83.12,83.05,82.98,82.94,82.95,82.97,82.95,82.89,82.81,82.78,82.76,82.72,82.69,82.64,82.61,82.60,82.62,82.70,82.70,82.68,82.67,82.68,82.75,82.83,82.87,82.81,82.79,82.79,82.80,82.79,82.79,82.85,82.90,82.92,82.90,82.79,82.73,82.70,82.66,82.69,82.70,82.71,82.69,82.64,82.61,82.63,82.69,82.75,82.76,82.70,82.57,82.38,82.24,82.18,82.15,82.11,82.07,82.03,81.99,81.95,81.91,81.85,81.85,81.88,81.95,82.05,82.18,82.31,82.42,82.46,82.45,82.41,82.37,82.34,82.31,82.25,82.19,82.16,82.17,82.26,82.32,82.35,82.32,82.26,82.18,82.11,82.05,82.00,82.00,81.99,81.97,81.95,82.05,82.17,82.22,82.15,82.04,82.00,82.01,82.06,82.11,82.17,82.23,82.27,82.30,82.28,82.24,82.21,82.22,82.32,82.43,82.53,82.60,82.65,82.65,82.56,82.41,82.26,82.18,82.10,82.02,81.96,81.93,81.94,81.98,82.05,82.09,82.09,82.08,82.08,82.09,82.11,82.11,82.08,82.03,81.96,81.92,81.88,81.86,81.87,81.84,81.78,81.72,81.71,81.74,81.76,81.70,81.61,81.51,81.51,81.52,81.54,81.53,81.56,81.50,81.46,81.45,81.41,81.40,81.40,81.38,81.35,81.33,81.31,81.31,81.31,81.24,81.19,81.18,81.22,81.28,81.29,81.26,81.22,81.22,81.21,81.20,81.23,81.29,81.32,81.33,81.31,81.26,81.20,81.09,80.98,80.94,80.98,80.99,80.96,80.98,81.03
85.90,85.85,85.82,85.76,85.68,85.59,85.46,85.42,85.45,85.51,85.52,85.46,85.41,85.38,85.39,85.37,85.36,85.35,85.31,85.27,85.23,85.18,85.14,85.11,85.06,85.02,84.99,84.98,84.92,84.88,84.84,84.80,84.80,84.80,84.80,84.77,84.71,84.70,84.67,84.63,84.59,84.55,84.58,84.60,84.59,84.55,84.51,84.44,84.35,84.24,84.12,84.00,83.91,83.81,83.66,83.61,83.55,83.49,83.44,83.45,83.48,83.49,83.46,83.27,83.14,83.05,83.01,83.04,83.01,82.96,82.89,82.79,82.79,82.76,82.70,82.66,82.69,82.61,82.59,82.60,82.60,82.63,82.62,82.62,82.65,82.67,82.70,82.74,82.76,82.74,82.75,82.78,82.79,82.78,82.73,82.78,82.83,82.86,82.87,82.77,82.70,82.65,82.57,82.58,82.61,82.63,82.63,82.59,82.50,82.49,82.58,82.69,82.63,82.51,82.36,82.23,82.15,82.12,82.07,82.00,81.94,81.92,81.88,81.86,81.88,81.83,81.80,81.79,81.82,81.93,82.03,82.17,82.33,82.41,82.40,82.35,82.31,82.31,82.29,82.22,82.15,82.11,82.09,82.10,82.13,82.16,82.15,82.13,82.08,82.01,81.94,81.92,81.93,81.95,81.94,81.84,81.80,81.82,81.87,81.88,81.88,81.94,82.03,82.10,82.17,82.24,82.30,82.35,82.38,82.38,82.30,82.21,82.17,82.25,82.34,82.43,82.54,82.64,82.68,82.64,82.51,82.32,82.18,82.08,82.01,81.94,81.95,81.97,81.99,82.00,82.01,82.01,82.04,82.07,82.10,82.10,82.10,82.08,82.02,81.95,81.91,81.90,81.90,81.90,81.85,81.78,81.73,81.70,81.70,81.70,81.64,81.54,81.44,81.46,81.49,81.50,81.50,81.50,81.46,81.42,81.39,81.34,81.36,81.39,81.40,81.40,81.34,81.31,81.32,81.35,81.27,81.22,81.20,81.22,81.27,81.29,81.25,81.22,81.21,81.19,81.20,81.23,81.29,81.36,81.38,81.39,81.39,81.38,81.20,81.04,80.96,80.97,80.99,80.99,81.00,81.00
85.90,85.85,85.82,85.76,85.71,85.68,85.55,85.52,85.52,85.51,85.46,85.41,85.37,85.35,85.38,85.34,85.33,85.32,85.29,85.21,85.20,85.17,85.14,85.10,85.06,85.03,85.02,85.01,84.96,84.88,84.82,84.80,84.80,84.80,84.80,84.78,84.71,84.70,84.66,84.62,84.60,84.57,84.59,84.60,84.59,84.54,84.54,84.49,84.41,84.32,84.21,84.09,83.99,83.89,83.74,83.67,83.60,83.53,83.46,83.47,83.46,83.43,83.38,83.25,83.11,83.05,83.04,83.03,83.00,82.95,82.87,82.78,82.75,82.69,82.64,82.62,82.64,82.57,82.57,82.60,82.59,82.57,82.58,82.59,82.58,82.63,82.65,82.67,82.69,82.71,82.73,82.76,82.77,82.74,82.71,82.73,82.76,82.77,82.78,82.72,82.66,82.60,82.51,82.50,82.53,82.56,82.56,82.53,82.43,82.37,82.36,82.43,82.42,82.34,82.23,82.13,82.06,82.01,81.96,81.91,81.86,81.85,81.82,81.80,81.77,81.77,81.77,81.76,81.73,81.75,81.84,81.98,82.14,82.26,82.29,82.26,82.24,82.25,82.17,82.10,82.05,82.02,81.98,81.93,81.87,81.84,81.89,81.96,81.97,81.94,81.91,81.91,81.91,81.91,81.89,81.81,81.72,81.69,81.70,81.74,81.83,81.95,82.06,82.14,82.21,82.27,82.32,82.35,82.37,82.36,82.30,82.22,82.16,82.17,82.21,82.29,82.41,82.55,82.61,82.60,82.51,82.36,82.19,82.08,82.02,82.01,82.04,82.04,82.02,82.00,82.00,82.00,82.01,82.03,82.04,82.04,82.06,82.06,82.02,81.98,81.94,81.91,81.89,81.86,81.82,81.79,81.77,81.75,81.70,81.64,81.57,81.48,81.41,81.44,81.47,81.50,81.50,81.47,81.44,81.42,81.40,81.36,81.37,81.39,81.42,81.45,81.41,81.36,81.35,81.37,81.31,81.25,81.23,81.24,81.24,81.24,81.22,81.22,81.25,81.21,81.20,81.22,81.27,81.31,81.33,81.37,81.41,81.42,81.27,81.11,80.99,80.94,80.95,80.98,81.00,81.00
85.88,85.83,85.80,85.76,85.74,85.75,85.65,85.61,85.58,85.53,85.43,85.39,85.35,85.34,85.36,85.31,85.30,85.29,85.27,85.16,85.16,85.15,85.12,85.08,85.06,85.04,85.03,85.02,84.96,84.87,84.81,84.80,84.78,84.78,84.79,84.78,84.73,84.72,84.67,84.63,84.62,84.59,84.59,84.60,84.59,84.55,84.57,84.53,84.45,84.36,84.29,84.17,84.07,83.98,83.84,83.74,83.66,83.58,83.48,83.47,83.41,83.34,83.27,83.20,83.09,83.05,83.05,83.01,82.98,82.92,82.84,82.76,82.72,82.65,82.60,82.60,82.60,82.55,82.55,82.58,82.59,82.55,82.56,82.57,82.53,82.59,82.59,82.59,82.62,82.68,82.71,82.74,82.75,82.70,82.69,82.70,82.72,82.72,82.71,82.67,82.62,82.56,82.47,82.42,82.44,82.47,82.48,82.45,82.37,82.27,82.19,82.20,82.23,82.18,82.10,82.04,81.97,81.91,81.86,81.82,81.76,81.76,81.75,81.73,81.69,81.71,81.73,81.73,81.68,81.66,81.74,81.85,81.98,82.09,82.17,82.17,82.16,82.18,82.08,82.02,81.98,81.95,81.90,81.81,81.68,81.60,81.67,81.81,81.87,81.89,81.90,81.89,81.86,81.82,81.78,81.71,81.63,81.59,81.59,81.64,81.78,81.94,82.07,82.16,82.22,82.25,82.28,82.31,82.34,82.33,82.28,82.23,82.17,82.13,82.13,82.18,82.30,82.45,82.54,82.56,82.51,82.40,82.24,82.10,82.04,82.06,82.11,82.08,82.04,82.00,81.99,81.99,82.00,82.00,82.00,82.00,82.02,82.03,82.02,82.00,81.96,81.92,81.87,81.83,81.79,81.78,81.79,81.78,81.71,81.62,81.54,81.46,81.40,81.42,81.46,81.48,81.49,81.45,81.43,81.43,81.42,81.40,81.38,81.39,81.43,81.48,81.47,81.41,81.37,81.37,81.34,81.29,81.26,81.24,81.22,81.20,81.20,81.23,81.29,81.26,81.23,81.23,81.24,81.25,81.28,81.35,81.43,81.45,81.32,81.18,81.04,80.94,80.94,80.98,81.01,81.01
85.82,85.76,85.73,85.75,85.77,85.79,85.72,85.66,85.61,85.56,85.44,85.40,85.39,85.36,85.33,85.26,85.27,85.27,85.22,85.13,85.12,85.12,85.09,85.03,85.06,85.04,85.01,84.99,84.88,84.82,84.80,84.79,84.73,84.72,84.76,84.79,84.79,84.78,84.73,84.69,84.67,84.61,84.60,84.60,84.60,84.59,84.59,84.54,84.44,84.32,84.37,84.26,84.14,84.06,83.97,83.84,83.73,83.63,83.49,83.42,83.31,83.20,83.13,83.11,83.09,83.05,83.01,83.00,82.93,82.85,82.78,82.72,82.70,82.64,82.60,82.60,82.60,82.58,82.55,82.55,82.59,82.58,82.58,82.56,82.52,82.58,82.54,82.52,82.55,82.62,82.68,82.71,82.70,82.68,82.64,82.68,82.73,82.76,82.69,82.62,82.58,82.53,82.45,82.35,82.34,82.37,82.40,82.37,82.30,82.21,82.12,82.04,82.07,82.03,81.96,81.92,81.89,81.82,81.75,81.68,81.64,81.63,81.64,81.65,81.67,81.66,81.67,81.70,81.74,81.72,81.78,81.85,81.89,81.92,82.04,82.08,82.08,82.08,82.04,82.00,81.97,81.95,81.89,81.77,81.63,81.53,81.53,81.68,81.79,81.87,81.90,81.87,81.76,81.65,81.54,81.47,81.50,81.52,81.56,81.61,81.74,81.89,82.04,82.16,82.18,82.12,82.14,82.22,82.31,82.28,82.26,82.24,82.20,82.15,82.12,82.14,82.21,82.35,82.48,82.54,82.52,82.44,82.33,82.19,82.08,82.05,82.11,82.10,82.05,81.99,81.97,81.98,81.98,81.98,81.98,82.00,81.99,81.98,81.99,82.00,81.98,81.92,81.87,81.82,81.78,81.76,81.77,81.78,81.76,81.69,81.61,81.51,81.43,81.41,81.42,81.45,81.48,81.47,81.47,81.47,81.46,81.47,81.39,81.40,81.45,81.50,81.49,81.43,81.37,81.35,81.35,81.32,81.27,81.22,81.20,81.20,81.22,81.26,81.32,81.36,81.31,81.25,81.22,81.21,81.26,81.36,81.46,81.49,81.36,81.23,81.10,80.98,80.98,81.02,81.04,81.06
85.76,85.72,85.73,85.76,85.76,85.73,85.71,85.65,85.60,85.54,85.46,85.42,85.38,85.33,85.27,85.23,85.25,85.25,85.17,85.08,85.06,85.06,85.04,85.01,85.03,85.00,84.97,84.98,84.89,84.85,84.83,84.80,84.73,84.74,84.75,84.76,84.75,84.78,84.74,84.70,84.69,84.65,84.62,84.60,84.59,84.55,84.58,84.54,84.45,84.34,84.34,84.26,84.16,84.08,83.99,83.86,83.76,83.67,83.54,83.43,83.29,83.19,83.13,83.03,83.04,83.02,82.98,82.94,82.87,82.82,82.78,82.75,82.74,82.65,82.60,82.60,82.60,82.56,82.54,82.54,82.55,82.55,82.54,82.53,82.51,82.54,82.52,82.52,82.53,82.57,82.66,82.69,82.70,82.68,82.63,82.64,82.68,82.71,82.63,82.55,82.49,82.45,82.40,82.32,82.29,82.29,82.30,82.26,82.20,82.13,82.05,81.95,81.94,81.90,81.85,81.83,81.83,81.76,81.69,81.63,81.59,81.58,81.58,81.59,81.61,81.59,81.61,81.65,81.72,81.75,81.81,81.86,81.87,81.87,81.93,81.96,81.97,81.97,81.94,81.90,81.87,81.83,81.77,81.68,81.58,81.50,81.48,81.55,81.64,81.71,81.75,81.71,81.60,81.49,81.42,81.42,81.48,81.54,81.58,81.61,81.69,81.80,81.95,82.08,82.08,82.01,82.02,82.11,82.21,82.22,82.23,82.24,82.23,82.19,82.13,82.10,82.13,82.22,82.37,82.48,82.50,82.43,82.36,82.27,82.16,82.05,82.06,82.05,82.01,81.96,81.95,81.98,81.97,81.96,81.95,81.96,81.95,81.95,81.98,82.00,81.99,81.95,81.89,81.85,81.81,81.78,81.77,81.78,81.78,81.72,81.62,81.53,81.46,81.43,81.43,81.46,81.51,81.52,81.53,81.54,81.53,81.51,81.46,81.46,81.51,81.54,81.52,81.43,81.36,81.32,81.31,81.30,81.27,81.22,81.20,81.22,81.26,81.32,81.36,81.37,81.31,81.23,81.18,81.19,81.23,81.33,81.44,81.49,81.42,81.33,81.21,81.08,81.05,81.06,81.08,81.08
85.71,85.70,85.75,85.77,85.74,85.65,85.66,85.63,85.56,85.50,85.48,85.42,85.35,85.27,85.22,85.20,85.24,85.22,85.13,85.05,85.01,85.00,85.00,85.00,84.98,84.94,84.93,84.96,84.92,84.90,84.87,84.82,84.74,84.77,84.76,84.72,84.71,84.76,84.73,84.70,84.70,84.70,84.63,84.60,84.58,84.50,84.55,84.53,84.46,84.37,84.29,84.23,84.16,84.07,83.98,83.87,83.78,83.69,83.60,83.44,83.31,83.22,83.16,82.97,82.98,82.98,82.94,82.87,82.82,82.80,82.80,82.80,82.78,82.68,82.61,82.60,82.59,82.53,82.53,82.54,82.50,82.50,82.50,82.50,82.50,82.50,82.52,82.53,82.53,82.51,82.62,82.67,82.69,82.68,82.63,82.59,82.60,82.63,82.55,82.46,82.39,82.35,82.34,82.30,82.26,82.23,82.19,82.15,82.10,82.05,81.99,81.89,81.84,81.78,81.75,81.76,81.76,81.71,81.65,81.60,81.56,81.55,81.55,81.54,81.53,81.52,81.55,81.61,81.68,81.76,81.83,81.87,81.87,81.85,81.84,81.85,81.86,81.87,81.83,81.78,81.74,81.68,81.62,81.57,81.52,81.48,81.46,81.44,81.48,81.53,81.56,81.51,81.42,81.35,81.35,81.44,81.51,81.58,81.62,81.63,81.64,81.72,81.84,81.96,81.97,81.91,81.93,82.01,82.10,82.15,82.19,82.23,82.25,82.22,82.15,82.08,82.05,82.10,82.25,82.39,82.45,82.40,82.38,82.35,82.25,82.08,82.00,81.98,81.95,81.92,81.94,81.97,81.96,81.94,81.92,81.93,81.92,81.93,81.96,81.99,82.00,81.97,81.93,81.88,81.85,81.81,81.78,81.79,81.79,81.72,81.63,81.53,81.50,81.45,81.44,81.49,81.55,81.58,81.61,81.62,81.59,81.53,81.53,81.54,81.57,81.57,81.53,81.43,81.34,81.30,81.27,81.28,81.26,81.23,81.20,81.24,81.31,81.37,81.39,81.35,81.28,81.20,81.14,81.18,81.20,81.28,81.39,81.47,81.46,81.41,81.31,81.18,81.11,81.10,81.10,81.10
85.71,85.70,85.71,85.72,85.71,85.66,85.65,85.59,85.51,85.44,85.41,85.34,85.28,85.24,85.24,85.20,85.20,85.19,85.15,85.08,85.03,85.00,85.00,84.98,84.92,84.90,84.92,84.94,84.91,84.90,84.88,84.84,84.79,84.77,84.77,84.77,84.74,84.73,84.71,84.70,84.70,84.67,84.62,84.59,84.56,84.50,84.50,84.46,84.40,84.32,84.24,84.19,84.13,84.05,83.96,83.90,83.80,83.68,83.60,83.44,83.33,83.25,83.18,83.04,82.98,82.93,82.88,82.86,82.84,82.84,82.84,82.83,82.80,82.72,82.64,82.60,82.59,82.53,82.51,82.51,82.50,82.50,82.50,82.50,82.50,82.51,82.55,82.55,82.52,82.47,82.53,82.58,82.61,82.62,82.61,82.50,82.44,82.45,82.41,82.37,82.34,82.32,82.31,82.28,82.21,82.15,82.12,82.08,82.05,81.99,81.92,81.85,81.80,81.72,81.66,81.66,81.64,81.64,81.61,81.56,81.52,81.51,81.48,81.46,81.46,81.47,81.50,81.56,81.63,81.75,81.82,81.86,81.87,81.83,81.81,81.79,81.79,81.80,81.74,81.68,81.61,81.54,81.49,81.46,81.43,81.42,81.43,81.40,81.38,81.38,81.39,81.36,81.30,81.28,81.33,81.43,81.51,81.58,81.62,81.65,81.66,81.70,81.75,81.81,81.84,81.85,81.89,81.95,82.01,82.08,82.14,82.20,82.25,82.27,82.22,82.14,82.06,82.04,82.14,82.26,82.35,82.37,82.38,82.38,82.32,82.19,82.03,81.96,81.92,81.91,81.92,81.93,81.94,81.95,81.93,81.91,81.90,81.91,81.93,81.97,81.99,81.99,81.97,81.92,81.89,81.84,81.79,81.75,81.74,81.71,81.64,81.55,81.50,81.45,81.47,81.54,81.63,81.66,81.70,81.70,81.63,81.58,81.58,81.58,81.58,81.54,81.51,81.45,81.38,81.32,81.29,81.26,81.25,81.25,81.22,81.22,81.26,81.32,81.38,81.34,81.26,81.19,81.13,81.18,81.16,81.19,81.27,81.39,81.41,81.37,81.27,81.14,81.11,81.10,81.08,81.05
85.73,85.72,85.71,85.70,85.69,85.67,85.65,85.58,85.49,85.40,85.35,85.30,85.24,85.22,85.23,85.19,85.18,85.18,85.16,85.07,85.02,85.00,84.98,84.95,84.87,84.87,84.91,84.93,84.89,84.88,84.86,84.83,84.79,84.75,84.76,84.77,84.74,84.71,84.70,84.70,84.69,84.65,84.61,84.57,84.53,84.50,84.45,84.42,84.37,84.32,84.24,84.18,84.11,84.02,83.95,83.90,83.79,83.67,83.60,83.44,83.34,83.27,83.19,83.08,82.99,82.91,82.86,82.87,82.87,82.87,82.87,82.86,82.83,82.77,82.69,82.62,82.60,82.55,82.51,82.51,82.52,82.49,82.49,82.50,82.51,82.53,82.57,82.56,82.49,82.41,82.43,82.48,82.52,82.53,82.51,82.42,82.36,82.36,82.33,82.32,82.31,82.29,82.27,82.25,82.19,82.13,82.08,82.03,82.01,81.96,81.89,81.84,81.76,81.68,81.62,81.60,81.57,81.58,81.56,81.50,81.48,81.48,81.47,81.44,81.42,81.44,81.48,81.54,81.61,81.70,81.78,81.82,81.83,81.78,81.75,81.72,81.70,81.70,81.64,81.58,81.51,81.44,81.39,81.37,81.36,81.35,81.36,81.32,81.29,81.27,81.26,81.22,81.20,81.23,81.32,81.43,81.51,81.57,81.61,81.63,81.66,81.69,81.71,81.73,81.77,81.83,81.91,81.98,82.03,82.10,82.15,82.20,82.26,82.30,82.29,82.21,82.11,82.03,82.06,82.12,82.19,82.27,82.34,82.37,82.34,82.24,82.09,81.98,81.90,81.88,81.91,81.93,81.94,81.94,81.92,81.89,81.87,81.88,81.90,81.93,81.94,81.95,81.95,81.92,81.88,81.83,81.77,81.72,81.69,81.66,81.61,81.54,81.50,81.47,81.50,81.57,81.64,81.68,81.72,81.71,81.64,81.59,81.59,81.58,81.56,81.51,81.48,81.42,81.38,81.34,81.32,81.28,81.27,81.27,81.23,81.23,81.24,81.28,81.35,81.30,81.24,81.19,81.14,81.16,81.12,81.12,81.18,81.28,81.31,81.27,81.18,81.09,81.09,81.10,81.08,81.06
85.76,85.75,85.72,85.70,85.69,85.67,85.65,85.60,85.49,85.37,85.32,85.28,85.24,85.21,85.20,85.18,85.18,85.18,85.15,85.04,85.01,84.98,84.94,84.91,84.84,84.85,84.90,84.92,84.86,84.85,84.83,84.79,84.75,84.71,84.72,84.73,84.73,84.71,84.70,84.70,84.69,84.62,84.60,84.56,84.50,84.50,84.43,84.39,84.37,84.36,84.28,84.21,84.10,83.99,83.94,83.86,83.75,83.65,83.60,83.44,83.34,83.27,83.19,83.11,83.01,82.93,82.88,82.90,82.90,82.90,82.90,82.90,82.87,82.82,82.74,82.66,82.60,82.58,82.54,82.52,82.56,82.46,82.47,82.50,82.52,82.57,82.59,82.54,82.45,82.33,82.33,82.38,82.42,82.41,82.36,82.33,82.33,82.36,82.31,82.30,82.29,82.26,82.21,82.21,82.19,82.14,82.07,82.01,81.99,81.95,81.89,81.85,81.73,81.65,81.60,81.58,81.54,81.54,81.50,81.42,81.43,81.48,81.49,81.45,81.40,81.42,81.48,81.55,81.60,81.64,81.71,81.75,81.76,81.72,81.68,81.64,81.60,81.57,81.53,81.49,81.44,81.36,81.31,81.30,81.30,81.29,81.26,81.22,81.20,81.19,81.16,81.11,81.13,81.20,81.31,81.43,81.51,81.57,81.60,81.60,81.64,81.68,81.70,81.71,81.75,81.84,81.96,82.07,82.15,82.18,82.20,82.21,82.26,82.33,82.35,82.29,82.18,82.07,81.98,81.96,82.00,82.11,82.26,82.33,82.32,82.25,82.18,82.03,81.90,81.84,81.91,81.97,81.96,81.92,81.89,81.85,81.82,81.83,81.87,81.89,81.86,81.86,81.88,81.89,81.84,81.78,81.72,81.68,81.64,81.58,81.54,81.52,81.51,81.50,81.53,81.56,81.60,81.66,81.69,81.68,81.63,81.56,81.56,81.54,81.51,81.48,81.43,81.36,81.34,81.37,81.34,81.33,81.31,81.29,81.24,81.27,81.25,81.25,81.31,81.24,81.21,81.19,81.17,81.13,81.09,81.08,81.09,81.16,81.17,81.13,81.07,81.02,81.07,81.09,81.10,81.11
85.79,85.78,85.73,85.71,85.67,85.62,85.61,85.60,85.53,85.43,85.33,85.30,85.27,85.24,85.20,85.16,85.15,85.14,85.13,85.07,85.02,84.97,84.92,84.90,84.83,84.85,84.90,84.91,84.84,84.82,84.81,84.79,84.73,84.71,84.71,84.71,84.71,84.66,84.71,84.73,84.69,84.62,84.57,84.53,84.49,84.45,84.41,84.37,84.33,84.33,84.25,84.17,84.06,83.94,83.91,83.88,83.81,83.72,83.65,83.54,83.46,83.38,83.30,83.23,83.10,82.98,82.89,82.90,82.90,82.90,82.90,82.91,82.94,82.89,82.81,82.72,82.61,82.59,82.58,82.57,82.58,82.54,82.55,82.56,82.55,82.52,82.49,82.46,82.42,82.38,82.38,82.39,82.40,82.39,82.33,82.30,82.28,82.26,82.24,82.24,82.23,82.22,82.19,82.14,82.10,82.05,82.01,81.95,81.93,81.91,81.87,81.82,81.76,81.69,81.63,81.59,81.56,81.52,81.46,81.41,81.41,81.43,81.44,81.43,81.40,81.41,81.43,81.46,81.50,81.55,81.61,81.64,81.62,81.57,81.55,81.53,81.52,81.49,81.45,81.42,81.39,81.35,81.30,81.29,81.28,81.26,81.22,81.18,81.13,81.08,81.02,81.00,81.05,81.14,81.25,81.37,81.49,81.56,81.60,81.62,81.66,81.69,81.71,81.73,81.77,81.84,81.93,82.04,82.11,82.16,82.18,82.20,82.23,82.30,82.34,82.33,82.25,82.13,82.04,82.00,82.00,82.06,82.19,82.29,82.32,82.30,82.28,82.18,82.04,81.92,81.89,81.92,81.90,81.87,81.85,81.84,81.84,81.84,81.84,81.84,81.85,81.87,81.88,81.86,81.82,81.76,81.70,81.65,81.63,81.61,81.60,81.59,81.56,81.54,81.54,81.55,81.57,81.62,81.65,81.67,81.66,81.60,81.57,81.54,81.50,81.45,81.38,81.34,81.35,81.40,81.38,81.37,81.36,81.33,81.31,81.30,81.27,81.25,81.25,81.22,81.20,81.18,81.14,81.11,81.06,81.05,81.06,81.09,81.10,81.08,81.06,81.04,81.08,81.10,81.10,81.10
85.80,85.80,85.75,85.72,85.67,85.59,85.59,85.59,85.55,85.46,85.32,85.29,85.27,85.25,85.19,85.15,85.13,85.11,85.09,85.07,85.03,84.96,84.91,84.90,84.85,84.86,84.89,84.88,84.84,84.81,84.81,84.81,84.74,84.73,84.71,84.70,84.68,84.63,84.68,84.72,84.68,84.60,84.53,84.49,84.46,84.41,84.38,84.33,84.28,84.27,84.20,84.14,84.04,83.93,83.92,83.90,83.85,83.78,83.72,83.63,83.57,83.50,83.41,83.33,83.19,83.05,82.94,82.91,82.91,82.91,82.92,82.93,82.98,82.93,82.86,82.78,82.66,82.62,82.61,82.61,82.61,82.62,82.62,82.61,82.58,82.48,82.43,82.42,82.44,82.46,82.46,82.43,82.39,82.37,82.32,82.30,82.25,82.21,82.20,82.18,82.16,82.15,82.13,82.09,82.04,82.00,81.97,81.91,81.89,81.89,81.88,81.80,81.76,81.70,81.64,81.60,81.56,81.48,81.41,81.39,81.40,81.40,81.42,81.42,81.41,81.40,81.39,81.39,81.43,81.49,81.53,81.53,81.49,81.45,81.42,81.42,81.43,81.43,81.39,81.37,81.35,81.32,81.27,81.26,81.24,81.22,81.17,81.13,81.06,80.98,80.91,80.90,80.97,81.06,81.16,81.29,81.43,81.53,81.59,81.63,81.66,81.69,81.71,81.75,81.79,81.82,81.89,81.98,82.05,82.10,82.14,82.17,82.19,82.25,82.31,82.32,82.27,82.18,82.10,82.03,82.00,82.01,82.12,82.22,82.29,82.31,82.34,82.29,82.16,82.01,81.89,81.88,81.87,81.85,81.83,81.84,81.84,81.84,81.82,81.81,81.85,81.88,81.88,81.84,81.80,81.74,81.68,81.63,81.65,81.66,81.67,81.66,81.64,81.60,81.58,81.57,81.56,81.58,81.60,81.63,81.65,81.61,81.56,81.51,81.46,81.41,81.34,81.33,81.36,81.41,81.41,81.40,81.38,81.37,81.37,81.34,81.31,81.27,81.21,81.19,81.18,81.16,81.11,81.10,81.04,81.03,81.04,81.04,81.04,81.04,81.05,81.06,81.09,81.10,81.10,81.10
85.81,85.80,85.79,85.75,85.69,85.61,85.60,85.56,85.52,85.46,85.28,85.23,85.21,85.19,85.13,85.17,85.14,85.08,85.03,85.02,85.01,84.96,84.91,84.90,84.89,84.89,84.88,84.83,84.87,84.84,84.84,84.86,84.79,84.79,84.75,84.69,84.62,84.60,84.61,84.63,84.61,84.54,84.51,84.45,84.40,84.40,84.34,84.26,84.21,84.19,84.13,84.11,84.06,83.99,83.99,83.94,83.87,83.81,83.80,83.69,83.68,83.62,83.49,83.41,83.28,83.16,83.06,82.94,82.92,82.93,82.96,82.99,82.98,82.93,82.88,82.84,82.77,82.69,82.64,82.62,82.63,82.67,82.68,82.65,82.57,82.45,82.44,82.47,82.54,82.61,82.58,82.49,82.39,82.34,82.33,82.30,82.26,82.22,82.19,82.13,82.09,82.07,82.03,82.06,82.04,82.01,81.97,81.90,81.88,81.92,81.94,81.80,81.74,81.68,81.62,81.59,81.53,81.42,81.35,81.36,81.40,81.42,81.45,81.46,81.43,81.39,81.37,81.38,81.42,81.45,81.45,81.43,81.39,81.38,81.31,81.30,81.33,81.38,81.36,81.31,81.28,81.27,81.21,81.19,81.18,81.16,81.13,81.06,80.98,80.91,80.85,80.85,80.89,80.95,81.02,81.17,81.33,81.45,81.54,81.61,81.63,81.66,81.70,81.75,81.79,81.80,81.84,81.89,81.94,82.00,82.06,82.12,82.16,82.20,82.24,82.25,82.22,82.17,82.13,82.06,81.99,81.96,82.05,82.12,82.19,82.24,82.30,82.33,82.26,82.11,81.92,81.89,81.89,81.89,81.87,81.87,81.84,81.82,81.81,81.83,81.86,81.89,81.88,81.84,81.78,81.72,81.68,81.66,81.71,81.73,81.74,81.74,81.74,81.69,81.67,81.63,81.59,81.54,81.53,81.55,81.57,81.55,81.52,81.46,81.39,81.35,81.32,81.32,81.35,81.40,81.41,81.38,81.37,81.39,81.43,81.40,81.37,81.32,81.23,81.16,81.14,81.13,81.11,81.10,81.04,81.02,81.02,81.02,81.01,81.02,81.04,81.09,81.10,81.10,81.10,81.10
85.85,85.82,85.81,85.74,85.63,85.51,85.53,85.51,85.49,85.45,85.28,85.22,85.20,85.18,85.12,85.13,85.09,85.04,85.00,85.00,84.99,84.96,84.92,84.89,84.90,84.88,84.85,84.81,84.86,84.83,84.84,84.86,84.77,84.77,84.74,84.66,84.58,84.55,84.57,84.61,84.62,84.55,84.50,84.42,84.37,84.40,84.33,84.25,84.19,84.17,84.11,84.10,84.06,84.00,84.00,83.97,83.92,83.87,83.86,83.82,83.78,83.70,83.57,83.49,83.37,83.27,83.17,83.07,83.02,83.00,83.00,82.99,82.95,82.91,82.87,82.83,82.77,82.68,82.64,82.64,82.65,82.69,82.69,82.66,82.60,82.52,82.50,82.54,82.62,82.69,82.65,82.56,82.46,82.40,82.33,82.30,82.28,82.24,82.19,82.12,82.07,82.04,82.01,82.03,82.03,82.01,81.97,81.96,81.99,82.07,82.12,81.96,81.79,81.69,81.63,81.60,81.52,81.42,81.35,81.32,81.37,81.41,81.44,81.45,81.42,81.38,81.38,81.40,81.42,81.42,81.41,81.39,81.36,81.35,81.29,81.26,81.27,81.31,81.29,81.24,81.21,81.20,81.14,81.11,81.10,81.09,81.07,81.01,80.94,80.87,80.83,80.86,80.89,80.91,80.96,81.08,81.22,81.35,81.46,81.56,81.60,81.64,81.69,81.77,81.85,81.85,81.84,81.84,81.88,81.89,81.95,82.03,82.11,82.14,82.17,82.18,82.17,82.14,82.10,82.04,81.97,81.93,81.98,82.03,82.09,82.16,82.23,82.27,82.26,82.19,82.03,81.94,81.89,81.86,81.85,81.84,81.82,81.81,81.80,81.82,81.88,81.91,81.89,81.81,81.77,81.75,81.73,81.73,81.76,81.77,81.79,81.81,81.79,81.74,81.69,81.64,81.59,81.54,81.50,81.48,81.49,81.48,81.43,81.40,81.38,81.36,81.33,81.31,81.34,81.39,81.40,81.34,81.30,81.31,81.37,81.33,81.31,81.26,81.18,81.13,81.12,81.10,81.07,81.05,81.05,81.04,81.02,81.01,81.00,81.01,81.02,81.05,81.09,81.10,81.08,81.06
85.89,85.85,85.82,85.71,85.55,85.39,85.43,85.45,85.46,85.43,85.29,85.23,85.21,85.18,85.12,85.08,85.04,85.00,84.97,84.98,84.97,84.95,84.93,84.88,84.89,84.86,84.82,84.80,84.84,84.83,84.83,84.83,84.73,84.75,84.71,84.62,84.52,84.50,84.54,84.61,84.64,84.57,84.49,84.41,84.36,84.40,84.33,84.26,84.20,84.19,84.12,84.11,84.07,84.01,84.00,84.00,83.97,83.94,83.91,83.95,83.87,83.75,83.64,83.56,83.46,83.36,83.28,83.20,83.13,83.07,83.03,82.99,82.92,82.90,82.85,82.78,82.74,82.65,82.63,82.65,82.65,82.68,82.69,82.68,82.64,82.61,82.59,82.61,82.68,82.74,82.70,82.62,82.54,82.47,82.35,82.31,82.29,82.26,82.19,82.12,82.08,82.04,82.01,82.01,82.02,82.01,82.00,82.06,82.14,82.25,82.32,82.16,81.87,81.71,81.64,81.61,81.52,81.45,81.37,81.30,81.34,81.39,81.42,81.42,81.41,81.37,81.40,81.43,81.44,81.39,81.38,81.37,81.35,81.33,81.30,81.24,81.21,81.23,81.20,81.15,81.13,81.12,81.07,81.03,81.02,81.02,81.01,80.97,80.91,80.86,80.84,80.88,80.90,80.91,80.92,80.99,81.11,81.24,81.37,81.50,81.57,81.62,81.70,81.81,81.92,81.92,81.87,81.82,81.83,81.80,81.84,81.93,82.06,82.11,82.12,82.12,82.12,82.10,82.07,82.01,81.95,81.91,81.92,81.94,82.00,82.07,82.15,82.20,82.23,82.23,82.15,81.99,81.89,81.83,81.82,81.81,81.80,81.79,81.80,81.81,81.88,81.91,81.88,81.79,81.77,81.78,81.80,81.80,81.80,81.80,81.82,81.85,81.82,81.75,81.68,81.62,81.59,81.54,81.47,81.43,81.41,81.40,81.36,81.36,81.39,81.40,81.36,81.33,81.33,81.37,81.39,81.31,81.24,81.22,81.26,81.23,81.21,81.17,81.12,81.10,81.09,81.06,81.02,81.00,81.05,81.04,81.01,80.99,81.00,81.00,81.00,81.00,81.06,81.09,81.06,81.02
85.90,85.88,85.82,85.68,85.50,85.34,85.36,85.37,85.38,85.37,85.31,85.26,85.24,85.20,85.10,85.04,85.01,84.98,84.94,84.95,84.93,84.94,84.95,84.88,84.87,84.82,84.79,84.79,84.81,84.81,84.81,84.80,84.75,84.73,84.64,84.52,84.41,84.44,84.50,84.55,84.56,84.52,84.50,84.45,84.39,84.40,84.33,84.28,84.25,84.26,84.17,84.15,84.11,84.04,84.00,84.00,83.99,83.98,83.95,83.96,83.90,83.79,83.68,83.64,83.51,83.42,83.35,83.27,83.19,83.09,83.01,82.99,82.96,82.91,82.84,82.74,82.71,82.67,82.63,82.61,82.62,82.64,82.68,82.70,82.69,82.71,82.67,82.67,82.71,82.76,82.71,82.66,82.60,82.50,82.43,82.37,82.30,82.23,82.20,82.16,82.12,82.08,82.04,82.01,82.02,82.08,82.20,82.30,82.35,82.40,82.41,82.31,81.95,81.74,81.65,81.61,81.55,81.50,81.44,81.38,81.34,81.37,81.38,81.37,81.40,81.39,81.41,81.44,81.45,81.38,81.35,81.33,81.32,81.31,81.27,81.20,81.13,81.12,81.08,81.06,81.04,81.04,81.01,80.96,80.95,80.97,80.98,80.94,80.90,80.89,80.89,80.92,80.94,80.93,80.91,80.93,81.01,81.12,81.24,81.36,81.49,81.61,81.74,81.87,81.99,82.01,81.95,81.87,81.81,81.77,81.79,81.88,82.02,82.12,82.14,82.13,82.10,82.07,82.03,81.98,81.94,81.90,81.90,81.91,81.94,81.99,82.07,82.12,82.15,82.17,82.14,82.04,81.94,81.86,81.81,81.80,81.78,81.77,81.78,81.80,81.82,81.83,81.82,81.80,81.80,81.82,81.85,81.87,81.83,81.80,81.80,81.80,81.76,81.69,81.63,81.59,81.54,81.51,81.46,81.42,81.40,81.36,81.37,81.41,81.46,81.48,81.43,81.40,81.38,81.35,81.33,81.31,81.25,81.17,81.14,81.12,81.11,81.10,81.09,81.05,81.03,81.01,81.01,81.00,81.01,81.01,80.98,80.94,80.98,80.99,80.98,80.95,81.00,81.05,81.05,81.01
85.90,85.88,85.79,85.66,85.52,85.41,85.41,85.39,85.36,85.33,85.31,85.28,85.27,85.23,85.12,85.04,84.99,84.96,84.91,84.92,84.91,84.93,84.94,84.89,84.87,84.83,84.81,84.80,84.80,84.82,84.83,84.82,84.78,84.73,84.61,84.47,84.37,84.43,84.49,84.52,84.52,84.50,84.48,84.44,84.41,84.40,84.35,84.34,84.33,84.30,84.23,84.21,84.17,84.10,84.04,84.03,84.02,84.00,83.98,83.98,83.94,83.85,83.73,83.68,83.61,83.53,83.43,83.30,83.22,83.09,83.00,83.00,82.98,82.93,82.84,82.75,82.73,82.70,82.66,82.63,82.63,82.62,82.63,82.66,82.71,82.74,82.73,82.73,82.75,82.78,82.72,82.69,82.65,82.57,82.51,82.42,82.32,82.24,82.20,82.15,82.10,82.07,82.07,82.04,82.04,82.11,82.28,82.43,82.46,82.47,82.46,82.39,82.04,81.81,81.68,81.62,81.60,81.53,81.46,81.41,81.36,81.36,81.34,81.33,81.40,81.41,81.45,81.48,81.46,81.38,81.32,81.28,81.27,81.25,81.19,81.11,81.05,81.04,80.99,80.97,80.97,80.97,80.97,80.94,80.93,80.93,80.94,80.92,80.91,80.92,80.94,80.95,80.95,80.94,80.92,80.93,80.96,81.04,81.15,81.27,81.44,81.59,81.75,81.90,82.01,82.03,81.99,81.90,81.82,81.77,81.76,81.83,81.96,82.08,82.11,82.09,82.05,81.99,81.95,81.93,81.92,81.90,81.90,81.89,81.89,81.92,82.00,82.04,82.08,82.10,82.10,82.03,81.96,81.90,81.85,81.81,81.79,81.78,81.78,81.80,81.80,81.79,81.78,81.80,81.83,81.85,81.87,81.88,81.83,81.79,81.76,81.75,81.72,81.66,81.61,81.56,81.52,81.49,81.44,81.41,81.39,81.36,81.40,81.46,81.52,81.55,81.50,81.47,81.43,81.38,81.32,81.32,81.26,81.16,81.06,81.03,81.01,81.01,81.04,81.02,80.99,80.97,80.97,80.97,80.97,80.96,80.94,80.91,80.95,80.97,80.96,80.92,80.97,81.02,81.02,81.01
85.90,85.85,85.76,85.66,85.60,85.58,85.55,85.46,85.37,85.32,85.30,85.30,85.30,85.27,85.17,85.06,84.98,84.93,84.90,84.90,84.90,84.91,84.92,84.90,84.88,84.88,84.86,84.81,84.80,84.84,84.87,84.87,84.81,84.74,84.61,84.48,84.39,84.45,84.49,84.50,84.50,84.50,84.45,84.41,84.40,84.40,84.39,84.43,84.42,84.31,84.29,84.29,84.25,84.17,84.10,84.09,84.05,84.00,84.00,84.00,83.99,83.92,83.78,83.71,83.74,83.69,83.52,83.31,83.22,83.09,83.00,83.00,83.00,82.93,82.85,82.79,82.79,82.73,82.69,82.69,82.69,82.61,82.56,82.59,82.70,82.71,82.77,82.80,82.80,82.79,82.72,82.70,82.69,82.67,82.59,82.46,82.35,82.27,82.19,82.11,82.05,82.04,82.10,82.08,82.06,82.11,82.28,82.47,82.50,82.50,82.48,82.42,82.15,81.91,81.73,81.63,81.65,81.55,81.45,81.41,81.40,81.36,81.30,81.29,81.40,81.45,81.51,81.53,81.46,81.38,81.31,81.24,81.20,81.17,81.07,80.99,80.95,80.97,80.91,80.90,80.90,80.91,80.94,80.95,80.93,80.90,80.90,80.91,80.93,80.97,81.00,80.97,80.94,80.94,80.96,80.98,80.95,80.99,81.08,81.22,81.41,81.58,81.75,81.90,82.00,82.01,81.99,81.94,81.86,81.78,81.75,81.79,81.89,81.99,82.04,82.03,81.98,81.88,81.84,81.86,81.89,81.90,81.91,81.88,81.85,81.85,81.92,81.96,82.00,82.03,82.02,81.97,81.97,81.96,81.91,81.83,81.82,81.81,81.80,81.79,81.80,81.77,81.76,81.80,81.86,81.86,81.86,81.86,81.81,81.75,81.72,81.71,81.70,81.67,81.61,81.55,81.51,81.47,81.43,81.41,81.40,81.40,81.45,81.52,81.58,81.60,81.57,81.53,81.49,81.45,81.35,81.34,81.29,81.18,81.02,80.94,80.91,80.92,80.97,81.00,80.96,80.92,80.91,80.91,80.91,80.91,80.90,80.90,80.93,80.95,80.94,80.92,80.97,80.99,81.00,81.01
85.89,85.84,85.76,85.69,85.67,85.70,85.70,85.58,85.44,85.33,85.30,85.30,85.30,85.25,85.10,85.03,84.99,84.97,84.96,84.92,84.90,84.90,84.91,84.90,84.89,84.89,84.88,84.86,84.82,84.85,84.88,84.88,84.82,84.74,84.64,84.56,84.52,84.50,84.53,84.56,84.55,84.51,84.48,84.44,84.42,84.45,84.50,84.50,84.48,84.43,84.38,84.32,84.26,84.20,84.17,84.16,84.12,84.07,84.07,84.02,83.97,83.89,83.79,83.72,83.72,83.69,83.57,83.31,83.26,83.15,83.05,83.00,82.96,82.92,82.89,82.86,82.82,82.82,82.79,82.73,82.65,82.60,82.56,82.58,82.69,82.71,82.76,82.79,82.79,82.75,82.76,82.73,82.70,82.69,82.68,82.57,82.44,82.32,82.20,82.13,82.10,82.10,82.13,82.12,82.11,82.16,82.29,82.45,82.49,82.50,82.50,82.47,82.28,82.09,81.91,81.70,81.62,81.57,81.53,81.50,81.44,81.36,81.29,81.29,81.38,81.45,81.48,81.47,81.41,81.36,81.29,81.23,81.18,81.12,81.05,81.02,81.00,80.96,80.90,80.89,80.90,80.92,80.93,80.91,80.88,80.88,80.91,80.92,80.95,80.98,80.99,80.99,80.99,81.01,81.03,81.04,81.00,81.01,81.07,81.20,81.37,81.54,81.71,81.88,82.00,82.03,82.00,81.94,81.87,81.80,81.76,81.77,81.82,81.88,81.90,81.89,81.85,81.79,81.78,81.82,81.88,81.91,81.94,81.93,81.89,81.85,81.87,81.90,81.94,81.97,81.98,81.98,82.03,82.05,82.00,81.88,81.83,81.80,81.78,81.78,81.80,81.77,81.75,81.78,81.82,81.83,81.84,81.85,81.82,81.77,81.72,81.69,81.66,81.65,81.61,81.55,81.49,81.48,81.46,81.44,81.43,81.41,81.44,81.49,81.54,81.56,81.53,81.48,81.44,81.42,81.35,81.32,81.26,81.14,80.98,80.93,80.92,80.95,80.98,80.97,80.92,80.87,80.85,80.87,80.86,80.87,80.89,80.90,80.91,80.92,80.90,80.88,80.93,80.97,80.98,80.97
85.86,85.82,85.76,85.72,85.72,85.77,85.78,85.66,85.50,85.36,85.30,85.29,85.29,85.24,85.08,85.02,85.00,85.00,84.99,84.93,84.91,84.90,84.90,84.90,84.90,84.90,84.89,84.87,84.82,84.84,84.87,84.86,84.79,84.73,84.66,84.60,84.58,84.54,84.57,84.58,84.56,84.51,84.50,84.47,84.44,84.50,84.56,84.54,84.51,84.52,84.44,84.34,84.27,84.23,84.23,84.23,84.18,84.13,84.14,84.05,83.97,83.88,83.79,83.73,83.71,83.68,83.58,83.34,83.29,83.20,83.10,83.01,82.95,82.95,82.95,82.93,82.88,82.89,82.84,82.76,82.65,82.61,82.57,82.59,82.66,82.69,82.74,82.77,82.77,82.73,82.76,82.73,82.68,82.67,82.71,82.61,82.48,82.34,82.21,82.17,82.16,82.17,82.19,82.18,82.19,82.24,82.31,82.43,82.46,82.48,82.50,82.48,82.36,82.24,82.08,81.82,81.65,81.58,81.56,81.54,81.46,81.37,81.31,81.30,81.35,81.41,81.42,81.41,81.37,81.33,81.26,81.20,81.14,81.08,81.05,81.06,81.05,80.97,80.90,80.88,80.89,80.90,80.90,80.86,80.84,80.85,80.90,80.93,80.96,80.98,80.97,81.01,81.04,81.07,81.09,81.10,81.07,81.07,81.11,81.20,81.33,81.50,81.68,81.85,81.99,82.04,82.01,81.93,81.86,81.80,81.76,81.74,81.74,81.76,81.77,81.76,81.75,81.72,81.74,81.79,81.86,81.91,81.95,81.95,81.92,81.87,81.84,81.85,81.88,81.91,81.95,82.00,82.07,82.10,82.04,81.90,81.83,81.79,81.78,81.78,81.80,81.77,81.74,81.74,81.77,81.81,81.83,81.83,81.82,81.78,81.72,81.67,81.64,81.63,81.60,81.55,81.48,81.48,81.48,81.49,81.48,81.43,81.42,81.45,81.49,81.51,81.48,81.43,81.40,81.40,81.35,81.30,81.23,81.12,80.98,80.92,80.93,80.97,80.99,80.95,80.88,80.82,80.79,80.83,80.82,80.85,80.88,80.90,80.90,80.90,80.88,80.85,80.88,80.94,80.96,80.95
85.81,85.80,85.79,85.75,85.73,85.75,85.78,85.69,85.56,85.42,85.28,85.27,85.28,85.24,85.13,85.04,85.01,85.00,84.99,84.93,84.91,84.90,84.90,84.90,84.90,84.89,84.86,84.82,84.80,84.81,84.81,84.80,84.73,84.69,84.65,84.59,84.55,84.57,84.59,84.57,84.52,84.50,84.50,84.48,84.48,84.52,84.53,84.52,84.52,84.57,84.46,84.34,84.28,84.29,84.29,84.29,84.24,84.20,84.21,84.11,84.02,83.91,83.79,83.76,83.72,83.65,83.54,83.39,83.28,83.22,83.14,83.03,83.00,83.01,83.02,83.02,82.98,82.91,82.85,82.78,82.72,82.65,82.61,82.60,82.62,82.66,82.70,82.73,82.75,82.72,82.74,82.70,82.64,82.61,82.62,82.55,82.44,82.32,82.22,82.23,82.24,82.25,82.28,82.29,82.31,82.33,82.35,82.40,82.42,82.45,82.48,82.44,82.38,82.34,82.24,82.01,81.75,81.58,81.50,81.49,81.45,81.40,81.36,81.33,81.31,81.32,81.34,81.35,81.33,81.29,81.22,81.14,81.07,81.03,81.07,81.12,81.11,81.01,80.91,80.86,80.85,80.85,80.84,80.81,80.79,80.80,80.85,80.91,80.95,80.96,80.95,81.02,81.08,81.13,81.15,81.15,81.16,81.19,81.21,81.23,81.30,81.45,81.63,81.81,81.95,82.01,81.98,81.91,81.81,81.77,81.72,81.68,81.65,81.65,81.65,81.66,81.68,81.70,81.74,81.78,81.83,81.89,81.93,81.93,81.93,81.92,81.87,81.82,81.81,81.87,81.95,82.02,82.10,82.11,82.01,81.87,81.81,81.79,81.79,81.80,81.80,81.77,81.72,81.68,81.73,81.78,81.80,81.80,81.80,81.76,81.72,81.68,81.63,81.61,81.60,81.55,81.47,81.46,81.51,81.55,81.55,81.46,81.42,81.41,81.43,81.43,81.42,81.37,81.35,81.37,81.34,81.28,81.20,81.11,81.02,80.94,80.94,80.98,80.99,80.94,80.83,80.75,80.73,80.78,80.80,80.84,80.88,80.90,80.90,80.90,80.87,80.82,80.82,80.87,80.93,80.97
85.79,85.80,85.78,85.74,85.71,85.69,85.72,85.67,85.57,85.45,85.33,85.28,85.25,85.20,85.14,85.06,85.02,85.00,84.97,84.92,84.90,84.91,84.92,84.91,84.90,84.88,84.85,84.81,84.80,84.80,84.79,84.77,84.71,84.66,84.63,84.60,84.57,84.59,84.58,84.56,84.53,84.53,84.53,84.49,84.45,84.50,84.51,84.50,84.53,84.58,84.49,84.37,84.29,84.27,84.27,84.27,84.24,84.21,84.23,84.15,84.02,83.89,83.80,83.76,83.72,83.67,83.60,83.46,83.39,83.31,83.23,83.15,83.08,83.09,83.09,83.06,83.03,82.96,82.88,82.82,82.79,82.72,82.66,82.61,82.58,82.62,82.66,82.69,82.71,82.66,82.65,82.62,82.59,82.59,82.52,82.45,82.37,82.30,82.25,82.27,82.30,82.32,82.34,82.35,82.34,82.34,82.35,82.39,82.41,82.43,82.45,82.43,82.38,82.37,82.32,82.19,82.01,81.80,81.60,81.46,81.43,81.43,81.42,81.38,81.32,81.27,81.27,81.28,81.27,81.24,81.17,81.12,81.08,81.10,81.16,81.19,81.15,81.03,80.91,80.85,80.82,80.82,80.83,80.83,80.83,80.82,80.82,80.87,80.91,80.94,80.95,81.03,81.10,81.15,81.18,81.19,81.25,81.32,81.35,81.34,81.35,81.46,81.61,81.79,81.91,81.96,81.92,81.82,81.74,81.69,81.64,81.58,81.53,81.54,81.57,81.61,81.64,81.67,81.73,81.78,81.81,81.84,81.88,81.92,81.95,81.96,81.92,81.85,81.82,81.83,81.90,81.98,82.01,81.99,81.90,81.83,81.80,81.78,81.77,81.78,81.79,81.77,81.73,81.69,81.73,81.79,81.83,81.81,81.78,81.72,81.67,81.64,81.62,81.58,81.57,81.54,81.47,81.46,81.52,81.55,81.54,81.45,81.41,81.39,81.37,81.36,81.35,81.33,81.34,81.37,81.33,81.27,81.19,81.11,81.03,80.95,80.91,80.90,80.89,80.84,80.77,80.74,80.76,80.79,80.80,80.84,80.88,80.90,80.87,80.87,80.87,80.85,80.82,80.83,80.88,80.92
85.77,85.80,85.77,85.74,85.69,85.63,85.67,85.64,85.57,85.47,85.38,85.30,85.22,85.16,85.14,85.09,85.04,84.99,84.94,84.91,84.91,84.92,84.93,84.91,84.90,84.88,84.85,84.82,84.80,84.80,84.78,84.75,84.71,84.64,84.61,84.61,84.60,84.60,84.57,84.55,84.56,84.56,84.56,84.50,84.43,84.46,84.47,84.48,84.52,84.58,84.53,84.41,84.31,84.25,84.24,84.23,84.22,84.21,84.23,84.17,84.02,83.89,83.82,83.78,83.73,83.71,83.68,83.55,83.51,83.43,83.34,83.29,83.17,83.16,83.14,83.10,83.07,83.00,82.93,82.87,82.86,82.79,82.71,82.63,82.56,82.59,82.62,82.65,82.67,82.60,82.57,82.55,82.55,82.57,82.42,82.35,82.31,82.31,82.29,82.31,82.35,82.38,82.38,82.39,82.36,82.34,82.35,82.39,82.40,82.41,82.42,82.42,82.39,82.39,82.38,82.34,82.28,82.05,81.75,81.49,81.44,81.47,81.47,81.44,81.35,81.25,81.22,81.21,81.20,81.18,81.14,81.13,81.14,81.20,81.26,81.25,81.19,81.05,80.91,80.83,80.80,80.80,80.83,80.87,80.87,80.85,80.81,80.83,80.87,80.91,80.95,81.02,81.10,81.17,81.21,81.24,81.34,81.43,81.47,81.45,81.41,81.47,81.59,81.75,81.86,81.89,81.83,81.72,81.64,81.60,81.54,81.48,81.42,81.45,81.51,81.56,81.60,81.64,81.72,81.77,81.79,81.78,81.82,81.89,81.96,81.99,81.95,81.88,81.83,81.81,81.84,81.90,81.89,81.84,81.79,81.80,81.80,81.77,81.74,81.75,81.78,81.77,81.74,81.71,81.75,81.81,81.85,81.82,81.74,81.66,81.61,81.59,81.60,81.56,81.55,81.53,81.47,81.45,81.51,81.53,81.50,81.43,81.40,81.35,81.31,81.29,81.30,81.31,81.33,81.36,81.33,81.26,81.18,81.11,81.02,80.95,80.86,80.81,80.79,80.75,80.74,80.76,80.80,80.80,80.80,80.83,80.88,80.89,80.84,80.84,80.87,80.87,80.83,80.81,80.82,80.86
85.76,85.78,85.79,85.76,85.70,85.66,85.68,85.65,85.56,85.45,85.40,85.33,85.21,85.11,85.12,85.10,85.05,84.97,84.89,84.89,84.93,84.94,84.93,84.91,84.90,84.89,84.88,84.86,84.82,84.80,84.77,84.72,84.70,84.64,84.63,84.64,84.61,84.60,84.58,84.58,84.59,84.59,84.59,84.54,84.45,84.38,84.36,84.40,84.46,84.53,84.56,84.49,84.38,84.27,84.21,84.21,84.21,84.20,84.21,84.15,84.07,83.99,83.92,83.86,83.79,83.76,83.74,83.64,83.63,83.57,83.47,83.36,83.26,83.21,83.18,83.15,83.10,83.06,83.00,82.93,82.88,82.80,82.73,82.67,82.63,82.60,82.57,82.61,82.67,82.60,82.58,82.55,82.53,82.55,82.31,82.26,82.30,82.37,82.36,82.37,82.38,82.39,82.40,82.40,82.39,82.38,82.39,82.40,82.40,82.40,82.41,82.40,82.40,82.39,82.37,82.34,82.41,82.27,81.98,81.64,81.50,81.49,81.49,81.45,81.36,81.29,81.22,81.17,81.11,81.09,81.16,81.22,81.26,81.27,81.29,81.28,81.21,81.08,80.91,80.83,80.80,80.80,80.83,80.87,80.89,80.88,80.85,80.80,80.80,80.84,80.94,81.02,81.10,81.17,81.24,81.31,81.39,81.46,81.49,81.49,81.46,81.46,81.52,81.64,81.77,81.79,81.71,81.58,81.50,81.46,81.44,81.42,81.39,81.42,81.48,81.53,81.57,81.62,81.69,81.73,81.74,81.70,81.72,81.82,81.92,81.97,81.95,81.89,81.83,81.79,81.79,81.76,81.73,81.73,81.77,81.79,81.80,81.77,81.73,81.71,81.75,81.77,81.77,81.74,81.75,81.80,81.83,81.81,81.71,81.61,81.56,81.56,81.59,81.59,81.56,81.52,81.44,81.42,81.44,81.45,81.42,81.39,81.34,81.29,81.26,81.27,81.28,81.31,81.35,81.36,81.30,81.24,81.17,81.09,80.99,80.90,80.82,80.78,80.78,80.77,80.81,80.84,80.84,80.80,80.78,80.81,80.85,80.87,80.84,80.83,80.83,80.84,80.82,80.80,80.80,80.80
85.71,85.74,85.76,85.74,85.71,85.68,85.67,85.63,85.55,85.44,85.38,85.33,85.23,85.12,85.09,85.10,85.05,84.97,84.88,84.86,84.89,84.91,84.91,84.91,84.90,84.90,84.89,84.85,84.79,84.77,84.75,84.73,84.71,84.66,84.66,84.66,84.61,84.63,84.61,84.59,84.60,84.60,84.58,84.53,84.47,84.37,84.33,84.36,84.43,84.51,84.54,84.52,84.43,84.31,84.21,84.18,84.18,84.21,84.24,84.17,84.16,84.11,84.02,83.94,83.86,83.83,83.81,83.73,83.70,83.64,83.54,83.43,83.32,83.26,83.22,83.18,83.11,83.12,83.08,83.01,82.94,82.89,82.82,82.78,82.76,82.69,82.61,82.61,82.65,82.62,82.59,82.55,82.53,82.52,82.33,82.32,82.35,82.39,82.39,82.39,82.40,82.40,82.40,82.40,82.40,82.40,82.39,82.40,82.40,82.38,82.37,82.36,82.36,82.34,82.31,82.26,82.33,82.26,82.03,81.72,81.56,81.50,81.48,81.44,81.34,81.29,81.22,81.16,81.13,81.13,81.21,81.27,81.30,81.31,81.32,81.31,81.25,81.11,80.90,80.77,80.72,80.76,80.79,80.84,80.88,80.89,80.88,80.83,80.79,80.82,80.90,80.98,81.05,81.13,81.22,81.33,81.41,81.47,81.52,81.54,81.52,81.50,81.51,81.57,81.67,81.68,81.61,81.51,81.46,81.40,81.39,81.41,81.44,81.45,81.49,81.52,81.56,81.61,81.67,81.70,81.71,81.68,81.67,81.74,81.83,81.91,81.91,81.87,81.81,81.75,81.72,81.69,81.67,81.69,81.75,81.79,81.78,81.76,81.72,81.68,81.71,81.74,81.75,81.74,81.74,81.78,81.79,81.76,81.64,81.55,81.51,81.53,81.57,81.58,81.54,81.48,81.41,81.40,81.38,81.37,81.34,81.32,81.29,81.25,81.24,81.24,81.24,81.27,81.30,81.30,81.25,81.22,81.17,81.08,80.94,80.85,80.80,80.78,80.80,80.82,80.85,80.86,80.83,80.77,80.75,80.76,80.78,80.79,80.79,80.79,80.81,80.83,80.80,80.78,80.76,80.75
85.65,85.68,85.70,85.70,85.70,85.69,85.64,85.61,85.54,85.43,85.34,85.31,85.26,85.17,85.05,85.07,85.05,84.98,84.90,84.83,84.81,84.84,84.88,84.90,84.90,84.90,84.88,84.81,84.74,84.71,84.73,84.77,84.71,84.70,84.70,84.68,84.61,84.67,84.64,84.61,84.60,84.60,84.54,84.51,84.48,84.41,84.34,84.35,84.42,84.49,84.50,84.50,84.46,84.37,84.22,84.14,84.15,84.22,84.30,84.22,84.26,84.24,84.11,84.02,83.94,83.91,83.88,83.81,83.74,83.66,83.58,83.50,83.35,83.31,83.27,83.20,83.13,83.18,83.16,83.09,83.02,83.01,82.96,82.92,82.91,82.84,82.72,82.64,82.62,82.66,82.60,82.57,82.54,82.49,82.44,82.47,82.46,82.40,82.40,82.40,82.40,82.40,82.40,82.40,82.40,82.39,82.38,82.40,82.39,82.36,82.32,82.30,82.28,82.26,82.20,82.11,82.13,82.10,81.96,81.75,81.64,81.51,81.46,81.42,81.30,81.28,81.22,81.19,81.20,81.23,81.27,81.30,81.30,81.32,81.36,81.35,81.28,81.13,80.87,80.67,80.61,80.68,80.72,80.78,80.84,80.88,80.90,80.88,80.83,80.81,80.84,80.92,80.99,81.07,81.17,81.32,81.41,81.48,81.54,81.60,81.59,81.57,81.55,81.52,81.55,81.56,81.53,81.49,81.47,81.39,81.39,81.44,81.52,81.52,81.52,81.53,81.56,81.62,81.66,81.68,81.68,81.70,81.66,81.67,81.72,81.81,81.85,81.84,81.77,81.69,81.65,81.67,81.67,81.69,81.75,81.77,81.76,81.74,81.71,81.67,81.68,81.69,81.71,81.73,81.72,81.74,81.74,81.69,81.55,81.48,81.46,81.49,81.53,81.54,81.50,81.42,81.37,81.38,81.33,81.28,81.25,81.25,81.23,81.22,81.23,81.22,81.20,81.22,81.22,81.21,81.17,81.21,81.18,81.07,80.89,80.80,80.78,80.80,80.84,80.88,80.87,80.84,80.80,80.74,80.71,80.69,80.68,80.68,80.70,80.75,80.80,80.82,80.77,80.75,80.73,80.71
85.70,85.70,85.70,85.70,85.68,85.65,85.62,85.60,85.56,85.46,85.31,85.29,85.25,85.20,85.14,85.08,85.03,84.99,84.95,84.85,84.78,84.80,84.87,84.90,84.90,84.91,84.89,84.83,84.75,84.72,84.72,84.72,84.71,84.66,84.65,84.64,84.61,84.66,84.64,84.60,84.59,84.60,84.54,84.51,84.48,84.42,84.35,84.33,84.35,84.41,84.46,84.48,84.43,84.32,84.23,84.18,84.16,84.18,84.26,84.21,84.26,84.28,84.22,84.08,84.01,83.96,83.91,83.89,83.83,83.74,83.66,83.58,83.46,83.36,83.31,83.28,83.26,83.23,83.21,83.19,83.17,83.13,83.09,83.09,83.10,83.09,83.01,82.83,82.63,82.58,82.54,82.51,82.50,82.51,82.48,82.48,82.47,82.42,82.40,82.40,82.40,82.40,82.41,82.42,82.40,82.37,82.34,82.37,82.39,82.38,82.34,82.29,82.24,82.20,82.14,82.06,82.03,82.00,81.92,81.81,81.75,81.64,81.54,81.45,81.33,81.28,81.21,81.19,81.24,81.26,81.27,81.28,81.30,81.31,81.33,81.34,81.30,81.18,80.87,80.60,80.48,80.53,80.61,80.69,80.77,80.82,80.86,80.82,80.78,80.77,80.81,80.89,80.95,81.02,81.09,81.19,81.28,81.39,81.50,81.60,81.61,81.60,81.58,81.54,81.52,81.52,81.52,81.52,81.52,81.48,81.46,81.48,81.53,81.55,81.56,81.57,81.59,81.62,81.64,81.64,81.65,81.66,81.64,81.64,81.67,81.73,81.75,81.73,81.69,81.67,81.69,81.69,81.67,81.66,81.69,81.70,81.70,81.72,81.73,81.71,81.69,81.69,81.70,81.71,81.73,81.76,81.75,81.68,81.58,81.48,81.43,81.42,81.43,81.43,81.39,81.36,81.36,81.33,81.28,81.25,81.25,81.24,81.19,81.17,81.17,81.19,81.20,81.21,81.21,81.20,81.18,81.21,81.16,81.06,80.91,80.80,80.78,80.79,80.82,80.84,80.83,80.80,80.76,80.71,80.68,80.63,80.59,80.58,80.65,80.73,80.79,80.81,80.78,80.75,80.72,80.71
85.75,85.73,85.70,85.69,85.66,85.62,85.60,85.60,85.57,85.49,85.31,85.28,85.24,85.21,85.20,85.10,85.04,85.00,84.98,84.86,84.77,84.79,84.86,84.89,84.89,84.91,84.90,84.84,84.76,84.74,84.73,84.71,84.70,84.64,84.62,84.62,84.60,84.64,84.63,84.59,84.55,84.58,84.53,84.49,84.48,84.45,84.38,84.33,84.30,84.31,84.39,84.42,84.39,84.30,84.25,84.22,84.18,84.16,84.20,84.19,84.24,84.28,84.27,84.15,84.09,84.02,83.96,83.95,83.91,83.83,83.73,83.65,83.55,83.46,83.40,83.38,83.36,83.29,83.27,83.28,83.30,83.25,83.25,83.27,83.31,83.32,83.27,83.06,82.75,82.55,82.51,82.49,82.50,82.54,82.51,82.48,82.46,82.44,82.42,82.42,82.41,82.41,82.43,82.46,82.43,82.37,82.33,82.34,82.37,82.38,82.35,82.30,82.20,82.14,82.09,82.02,81.97,81.95,81.91,81.85,81.82,81.73,81.62,81.50,81.38,81.29,81.24,81.26,81.36,81.38,81.32,81.28,81.29,81.30,81.31,81.33,81.31,81.20,80.86,80.59,80.47,80.50,80.58,80.66,80.73,80.77,80.78,80.76,80.75,80.75,80.80,80.87,80.93,80.98,81.04,81.09,81.19,81.32,81.47,81.60,81.62,81.62,81.60,81.56,81.51,81.50,81.51,81.54,81.57,81.56,81.52,81.51,81.54,81.57,81.57,81.59,81.61,81.62,81.62,81.61,81.62,81.62,81.61,81.62,81.64,81.65,81.66,81.65,81.65,81.68,81.73,81.71,81.67,81.63,81.64,81.64,81.66,81.70,81.74,81.74,81.71,81.69,81.68,81.68,81.71,81.74,81.72,81.65,81.58,81.47,81.39,81.35,81.35,81.35,81.33,81.30,81.29,81.27,81.24,81.24,81.26,81.23,81.17,81.13,81.12,81.15,81.17,81.17,81.17,81.17,81.17,81.18,81.13,81.04,80.93,80.82,80.78,80.77,80.78,80.79,80.78,80.75,80.70,80.66,80.62,80.57,80.53,80.55,80.63,80.72,80.78,80.80,80.80,80.76,80.74,80.74
85.79,85.77,85.71,85.67,85.63,85.61,85.60,85.60,85.58,85.51,85.36,85.28,85.23,85.21,85.20,85.13,85.06,85.01,84.98,84.88,84.79,84.79,84.85,84.86,84.86,84.90,84.92,84.87,84.78,84.78,84.77,84.74,84.71,84.66,84.65,84.64,84.61,84.61,84.60,84.56,84.49,84.54,84.49,84.46,84.46,84.49,84.45,84.37,84.27,84.19,84.25,84.32,84.33,84.30,84.29,84.23,84.20,84.17,84.12,84.15,84.21,84.25,84.25,84.24,84.18,84.10,84.04,83.99,83.99,83.91,83.81,83.73,83.62,83.59,83.55,83.48,83.44,83.37,83.35,83.36,83.39,83.39,83.42,83.48,83.54,83.53,83.51,83.34,83.01,82.60,82.53,82.53,82.56,82.58,82.51,82.46,82.44,82.44,82.45,82.45,82.43,82.42,82.47,82.52,82.49,82.41,82.35,82.32,82.33,82.34,82.34,82.33,82.17,82.08,82.03,82.00,81.99,81.97,81.93,81.87,81.81,81.77,81.70,81.59,81.47,81.33,81.31,81.41,81.59,81.62,81.42,81.29,81.26,81.30,81.31,81.32,81.29,81.17,80.85,80.67,80.61,80.63,80.66,80.72,80.75,80.73,80.68,80.70,80.72,80.76,80.81,80.88,80.92,80.96,81.01,81.05,81.14,81.28,81.44,81.58,81.63,81.62,81.60,81.58,81.52,81.48,81.50,81.56,81.62,81.63,81.58,81.54,81.54,81.56,81.56,81.58,81.61,81.61,81.60,81.60,81.59,81.57,81.59,81.62,81.62,81.57,81.57,81.62,81.66,81.71,81.75,81.74,81.68,81.63,81.61,81.61,81.64,81.67,81.71,81.75,81.74,81.70,81.65,81.62,81.66,81.67,81.65,81.60,81.55,81.44,81.33,81.26,81.27,81.34,81.32,81.25,81.16,81.17,81.22,81.27,81.29,81.24,81.16,81.12,81.10,81.11,81.11,81.11,81.11,81.11,81.11,81.11,81.08,81.01,80.93,80.85,80.78,80.73,80.72,80.71,80.71,80.68,80.63,80.55,80.52,80.51,80.53,80.63,80.68,80.74,80.79,80.82,80.81,80.80,80.79,80.79
85.75,85.71,85.66,85.63,85.62,85.62,85.61,85.59,85.57,85.54,85.43,85.33,85.25,85.21,85.20,85.14,85.06,85.01,84.99,84.93,84.86,84.83,84.85,84.83,84.83,84.84,84.85,84.83,84.78,84.78,84.78,84.77,84.72,84.69,84.65,84.62,84.60,84.60,84.60,84.56,84.48,84.51,84.46,84.44,84.46,84.50,84.48,84.41,84.30,84.18,84.20,84.27,84.31,84.29,84.27,84.22,84.20,84.18,84.11,84.12,84.18,84.22,84.22,84.19,84.16,84.10,84.03,84.00,84.00,83.96,83.90,83.85,83.76,83.72,83.69,83.63,83.57,83.49,83.44,83.43,83.45,83.50,83.58,83.65,83.68,83.63,83.59,83.49,83.30,82.97,82.62,82.52,82.55,82.54,82.50,82.45,82.42,82.42,82.43,82.43,82.42,82.42,82.46,82.55,82.52,82.44,82.37,82.31,82.28,82.27,82.26,82.23,82.16,82.10,82.04,82.00,82.00,81.98,81.94,81.88,81.84,81.80,81.75,81.68,81.57,81.45,81.48,81.57,81.67,81.67,81.50,81.33,81.23,81.25,81.25,81.25,81.21,81.10,80.89,80.80,80.78,80.80,80.84,80.86,80.83,80.77,80.68,80.72,80.78,80.83,80.86,80.90,80.92,80.92,80.93,80.98,81.10,81.24,81.38,81.48,81.51,81.50,81.51,81.53,81.54,81.50,81.51,81.56,81.61,81.60,81.56,81.51,81.49,81.50,81.51,81.53,81.55,81.55,81.56,81.57,81.57,81.56,81.57,81.57,81.56,81.54,81.59,81.66,81.72,81.75,81.75,81.75,81.72,81.68,81.62,81.60,81.61,81.64,81.69,81.75,81.77,81.74,81.68,81.63,81.63,81.64,81.65,81.63,81.57,81.46,81.36,81.28,81.22,81.23,81.21,81.16,81.09,81.08,81.12,81.16,81.17,81.12,81.05,81.02,81.02,81.04,81.04,81.03,81.03,81.03,81.03,81.03,81.00,80.95,80.87,80.83,80.79,80.76,80.75,80.72,80.68,80.64,80.60,80.54,80.51,80.50,80.52,80.58,80.67,80.76,80.83,80.87,80.86,80.84,80.82,80.82
85.68,85.63,85.61,85.60,85.60,85.63,85.61,85.57,85.56,85.55,85.47,85.36,85.27,85.20,85.19,85.12,85.06,85.02,85.00,84.97,84.92,84.88,84.86,84.82,84.82,84.80,84.79,84.80,84.78,84.79,84.79,84.79,84.72,84.71,84.66,84.61,84.60,84.60,84.60,84.56,84.49,84.49,84.44,84.43,84.47,84.50,84.49,84.43,84.33,84.21,84.19,84.24,84.28,84.28,84.23,84.21,84.19,84.17,84.11,84.10,84.15,84.19,84.18,84.12,84.11,84.07,84.03,84.02,84.01,84.00,83.98,83.96,83.89,83.85,83.82,83.78,83.69,83.61,83.56,83.52,83.51,83.57,83.69,83.77,83.77,83.71,83.64,83.59,83.51,83.31,82.74,82.53,82.52,82.51,82.50,82.44,82.41,82.40,82.41,82.42,82.41,82.41,82.44,82.55,82.53,82.46,82.38,82.30,82.24,82.20,82.18,82.15,82.17,82.13,82.07,82.03,82.02,82.00,81.97,81.91,81.88,81.83,81.79,81.75,81.67,81.57,81.62,81.69,81.70,81.69,81.57,81.40,81.23,81.20,81.20,81.19,81.13,81.02,80.92,80.90,80.91,80.93,80.98,80.96,80.90,80.81,80.71,80.75,80.83,80.89,80.90,80.93,80.93,80.89,80.87,80.94,81.06,81.19,81.30,81.33,81.35,81.38,81.42,81.49,81.55,81.52,81.51,81.54,81.57,81.56,81.53,81.48,81.44,81.44,81.47,81.48,81.47,81.47,81.50,81.52,81.54,81.55,81.55,81.52,81.52,81.54,81.63,81.72,81.76,81.77,81.74,81.76,81.76,81.72,81.65,81.60,81.59,81.61,81.66,81.74,81.78,81.76,81.70,81.63,81.60,81.62,81.64,81.65,81.58,81.48,81.40,81.31,81.20,81.13,81.09,81.07,81.04,81.01,81.03,81.05,81.05,81.00,80.92,80.91,80.94,80.98,80.97,80.96,80.95,80.95,80.95,80.95,80.92,80.87,80.82,80.80,80.80,80.79,80.79,80.74,80.67,80.62,80.59,80.54,80.52,80.50,80.51,80.52,80.63,80.74,80.83,80.89,80.89,80.86,80.84,80.83
85.59,85.55,85.58,85.59,85.60,85.61,85.57,85.53,85.52,85.51,85.45,85.33,85.22,85.15,85.14,85.07,85.06,85.04,85.01,84.95,84.95,84.93,84.90,84.87,84.87,84.83,84.82,84.85,84.82,84.80,84.80,84.79,84.72,84.71,84.66,84.61,84.60,84.60,84.60,84.57,84.50,84.45,84.41,84.44,84.49,84.50,84.45,84.42,84.36,84.28,84.27,84.24,84.23,84.22,84.21,84.20,84.17,84.12,84.10,84.10,84.11,84.12,84.11,84.04,84.03,84.05,84.08,84.08,84.08,84.03,83.99,83.99,83.97,83.96,83.95,83.91,83.78,83.70,83.69,83.69,83.58,83.59,83.66,83.74,83.79,83.77,83.70,83.60,83.47,83.34,82.90,82.64,82.53,82.50,82.50,82.48,82.44,82.40,82.41,82.45,82.43,82.41,82.43,82.51,82.54,82.50,82.39,82.30,82.23,82.17,82.15,82.19,82.19,82.18,82.16,82.14,82.09,82.07,82.03,81.97,81.94,81.85,81.81,81.79,81.73,81.62,81.62,81.65,81.69,81.70,81.64,81.52,81.35,81.22,81.20,81.17,81.09,80.95,80.91,80.90,80.90,80.91,80.91,80.89,80.85,80.80,80.76,80.76,80.81,80.87,80.91,80.93,80.91,80.89,80.90,80.95,81.05,81.11,81.13,81.13,81.20,81.30,81.40,81.48,81.54,81.51,81.50,81.50,81.50,81.53,81.52,81.48,81.43,81.43,81.45,81.44,81.41,81.40,81.42,81.46,81.50,81.53,81.53,81.53,81.57,81.63,81.72,81.76,81.75,81.72,81.72,81.76,81.76,81.72,81.64,81.59,81.56,81.58,81.62,81.72,81.77,81.74,81.66,81.59,81.57,81.56,81.56,81.57,81.54,81.47,81.40,81.31,81.22,81.11,81.05,81.03,81.02,81.00,81.01,81.00,80.98,80.92,80.86,80.85,80.88,80.94,80.93,80.91,80.89,80.88,80.88,80.86,80.83,80.80,80.79,80.80,80.78,80.77,80.78,80.74,80.69,80.64,80.61,80.56,80.55,80.52,80.50,80.48,80.54,80.63,80.72,80.78,80.80,80.83,80.84,80.84
85.56,85.55,85.58,85.59,85.60,85.60,85.55,85.51,85.50,85.49,85.44,85.31,85.20,85.13,85.11,85.07,85.05,85.04,85.00,84.96,84.95,84.92,84.89,84.89,84.89,84.87,84.85,84.85,84.82,84.81,84.80,84.78,84.72,84.68,84.64,84.59,84.54,84.55,84.57,84.57,84.54,84.50,84.43,84.43,84.47,84.46,84.42,84.41,84.38,84.35,84.35,84.25,84.18,84.16,84.15,84.13,84.11,84.10,84.10,84.10,84.08,84.07,84.05,84.01,84.03,84.09,84.13,84.10,84.10,84.07,84.04,84.04,84.02,84.01,83.99,83.95,83.85,83.75,83.72,83.70,83.61,83.60,83.63,83.69,83.75,83.78,83.75,83.63,83.47,83.35,83.12,82.92,82.73,82.56,82.55,82.51,82.46,82.41,82.41,82.43,82.42,82.42,82.45,82.49,82.51,82.48,82.39,82.30,82.24,82.20,82.18,82.21,82.21,82.21,82.19,82.18,82.11,82.09,82.05,81.99,81.95,81.89,81.85,81.82,81.77,81.67,81.63,81.64,81.67,81.69,81.67,81.56,81.41,81.27,81.23,81.18,81.10,80.97,80.92,80.90,80.90,80.90,80.88,80.85,80.82,80.80,80.79,80.78,80.77,80.80,80.87,80.91,80.88,80.88,80.91,80.95,81.04,81.08,81.08,81.07,81.14,81.26,81.37,81.47,81.52,81.51,81.50,81.49,81.48,81.51,81.51,81.48,81.43,81.42,81.42,81.39,81.35,81.32,81.32,81.36,81.42,81.47,81.50,81.54,81.59,81.65,81.71,81.73,81.70,81.67,81.67,81.74,81.75,81.71,81.64,81.58,81.55,81.54,81.56,81.65,81.71,81.68,81.61,81.54,81.52,81.50,81.49,81.51,81.50,81.45,81.40,81.34,81.23,81.07,80.98,80.94,80.94,80.94,80.94,80.94,80.92,80.86,80.79,80.77,80.79,80.83,80.86,80.84,80.82,80.80,80.80,80.78,80.76,80.74,80.76,80.77,80.76,80.74,80.75,80.73,80.71,80.69,80.67,80.63,80.59,80.55,80.50,80.46,80.48,80.54,80.61,80.66,80.70,80.75,80.78,80.79
85.57,85.60,85.60,85.60,85.60,85.59,85.54,85.51,85.49,85.48,85.42,85.30,85.19,85.12,85.10,85.09,85.05,85.01,84.99,84.99,84.94,84.89,84.85,84.88,84.90,84.90,84.88,84.83,84.81,84.80,84.79,84.77,84.71,84.65,84.60,84.55,84.44,84.48,84.53,84.58,84.61,84.60,84.47,84.42,84.43,84.41,84.40,84.40,84.40,84.40,84.42,84.27,84.14,84.10,84.08,84.03,84.05,84.09,84.10,84.10,84.06,84.02,84.00,84.02,84.09,84.15,84.18,84.10,84.10,84.10,84.10,84.10,84.04,84.03,83.99,83.93,83.90,83.78,83.70,83.65,83.63,83.61,83.60,83.63,83.69,83.76,83.77,83.67,83.49,83.34,83.37,83.29,83.04,82.66,82.60,82.53,82.47,82.43,82.40,82.38,82.39,82.43,82.50,82.50,82.47,82.44,82.39,82.31,82.26,82.24,82.24,82.24,82.23,82.22,82.20,82.18,82.12,82.09,82.05,81.98,81.95,81.93,81.91,81.86,81.78,81.71,81.66,81.63,81.63,81.69,81.67,81.57,81.44,81.33,81.26,81.20,81.14,81.05,80.95,80.91,80.90,80.90,80.87,80.82,80.80,80.80,80.81,80.80,80.73,80.72,80.81,80.86,80.84,80.86,80.91,80.95,81.04,81.08,81.10,81.10,81.14,81.24,81.35,81.45,81.50,81.51,81.52,81.50,81.47,81.49,81.50,81.49,81.45,81.41,81.39,81.35,81.31,81.26,81.22,81.25,81.32,81.39,81.47,81.54,81.60,81.63,81.64,81.67,81.64,81.61,81.62,81.69,81.72,81.70,81.64,81.58,81.54,81.50,81.48,81.55,81.62,81.61,81.55,81.48,81.45,81.43,81.43,81.46,81.46,81.43,81.42,81.38,81.25,81.01,80.88,80.82,80.83,80.84,80.85,80.86,80.86,80.79,80.71,80.69,80.69,80.70,80.76,80.76,80.75,80.73,80.73,80.72,80.71,80.70,80.72,80.73,80.72,80.71,80.72,80.71,80.73,80.75,80.75,80.70,80.64,80.57,80.51,80.44,80.42,80.46,80.51,80.55,80.59,80.66,80.70,80.72
85.51,85.53,85.57,85.59,85.60,85.60,85.55,85.50,85.46,85.42,85.37,85.27,85.18,85.12,85.10,85.05,85.02,84.99,84.96,84.94,84.92,84.90,84.90,84.90,84.90,84.90,84.89,84.87,84.85,84.81,84.77,84.73,84.69,84.63,84.59,84.54,84.49,84.49,84.50,84.55,84.62,84.58,84.45,84.37,84.35,84.37,84.39,84.40,84.40,84.40,84.46,84.39,84.28,84.18,84.08,84.04,84.06,84.10,84.10,84.10,84.09,84.07,84.06,84.05,84.11,84.15,84.15,84.10,84.10,84.10,84.10,84.10,84.08,84.06,84.02,83.97,83.94,83.85,83.78,83.73,83.67,83.62,83.60,83.61,83.63,83.68,83.73,83.67,83.54,83.42,83.49,83.45,83.27,82.97,82.69,82.57,82.51,82.46,82.41,82.37,82.38,82.42,82.46,82.43,82.40,82.37,82.33,82.30,82.28,82.26,82.25,82.28,82.27,82.25,82.24,82.23,82.18,82.14,82.09,82.02,81.98,81.97,81.93,81.87,81.82,81.75,81.69,81.65,81.62,81.64,81.61,81.54,81.46,81.40,81.33,81.26,81.18,81.09,81.01,80.94,80.90,80.90,80.88,80.86,80.85,80.85,80.86,80.85,80.81,80.78,80.80,80.83,80.83,80.86,80.92,80.97,81.03,81.08,81.10,81.10,81.14,81.22,81.34,81.45,81.51,81.54,81.52,81.48,81.46,81.47,81.46,81.44,81.42,81.39,81.35,81.33,81.32,81.30,81.26,81.28,81.34,81.39,81.43,81.48,81.52,81.55,81.56,81.57,81.56,81.56,81.61,81.66,81.67,81.64,81.62,81.59,81.55,81.50,81.45,81.44,81.46,81.47,81.46,81.43,81.42,81.41,81.43,81.46,81.48,81.47,81.47,81.43,81.30,80.99,80.78,80.69,80.69,80.70,80.70,80.70,80.70,80.64,80.59,80.57,80.59,80.62,80.66,80.69,80.70,80.71,80.71,80.71,80.70,80.70,80.71,80.71,80.71,80.70,80.71,80.70,80.71,80.72,80.71,80.66,80.59,80.51,80.45,80.41,80.41,80.42,80.47,80.54,80.51,80.53,80.58,80.63
85.49,85.49,85.54,85.57,85.58,85.57,85.54,85.49,85.44,85.40,85.35,85.27,85.20,85.13,85.10,85.05,85.02,84.99,84.96,84.92,84.90,84.91,84.91,84.89,84.90,84.90,84.90,84.90,84.86,84.80,84.74,84.70,84.67,84.64,84.60,84.55,84.51,84.50,84.47,84.51,84.59,84.56,84.44,84.36,84.32,84.34,84.37,84.38,84.39,84.40,84.48,84.46,84.38,84.25,84.09,84.06,84.08,84.10,84.10,84.10,84.11,84.12,84.12,84.07,84.10,84.12,84.13,84.10,84.10,84.10,84.10,84.10,84.08,84.04,84.00,83.97,83.95,83.89,83.83,83.78,83.70,83.62,83.60,83.60,83.60,83.61,83.67,83.66,83.57,83.50,83.57,83.54,83.42,83.23,82.87,82.65,82.55,82.50,82.45,82.39,82.38,82.41,82.43,82.37,82.36,82.34,82.32,82.30,82.30,82.29,82.28,82.30,82.29,82.28,82.27,82.27,82.24,82.18,82.12,82.06,82.03,82.01,81.96,81.90,81.85,81.78,81.72,81.67,81.63,81.63,81.59,81.55,81.52,81.50,81.43,81.34,81.24,81.14,81.09,80.98,80.91,80.90,80.89,80.88,80.88,80.88,80.89,80.89,80.86,80.83,80.81,80.81,80.82,80.87,80.94,80.99,81.02,81.06,81.09,81.10,81.13,81.20,81.30,81.41,81.50,81.54,81.53,81.49,81.47,81.45,81.42,81.40,81.38,81.35,81.31,81.29,81.29,81.29,81.27,81.29,81.33,81.35,81.35,81.38,81.42,81.46,81.47,81.48,81.48,81.50,81.57,81.62,81.63,81.61,81.61,81.59,81.57,81.52,81.46,81.39,81.38,81.40,81.41,81.41,81.40,81.39,81.41,81.45,81.49,81.49,81.46,81.38,81.20,80.88,80.66,80.54,80.52,80.52,80.53,80.54,80.54,80.50,80.48,80.50,80.55,80.60,80.58,80.59,80.62,80.66,80.69,80.69,80.69,80.69,80.68,80.69,80.69,80.70,80.70,80.70,80.70,80.69,80.68,80.64,80.58,80.50,80.43,80.40,80.40,80.40,80.43,80.47,80.43,80.45,80.50,80.56
85.52,85.50,85.53,85.54,85.54,85.52,85.51,85.48,85.44,85.40,85.37,85.30,85.23,85.16,85.11,85.07,85.03,85.00,84.99,84.93,84.91,84.89,84.87,84.86,84.88,84.90,84.90,84.89,84.84,84.76,84.72,84.70,84.67,84.66,84.63,84.58,84.52,84.50,84.46,84.46,84.53,84.52,84.44,84.40,84.37,84.32,84.33,84.34,84.36,84.40,84.47,84.48,84.42,84.31,84.13,84.10,84.10,84.10,84.10,84.10,84.13,84.17,84.18,84.09,84.05,84.07,84.10,84.10,84.10,84.10,84.10,84.10,84.05,83.98,83.94,83.94,83.93,83.91,83.85,83.78,83.70,83.62,83.60,83.60,83.59,83.55,83.60,83.62,83.59,83.57,83.58,83.54,83.48,83.41,83.15,82.79,82.59,82.57,82.53,82.44,82.40,82.40,82.39,82.33,82.35,82.37,82.36,82.31,82.31,82.33,82.34,82.30,82.30,82.30,82.30,82.30,82.28,82.22,82.15,82.09,82.08,82.07,82.02,81.94,81.88,81.80,81.73,81.69,81.68,81.67,81.61,81.59,81.61,81.64,81.57,81.47,81.34,81.21,81.20,81.06,80.94,80.90,80.90,80.90,80.90,80.90,80.90,80.90,80.90,80.88,80.86,80.81,80.82,80.87,80.94,81.00,81.00,81.02,81.06,81.10,81.13,81.18,81.23,81.31,81.46,81.53,81.55,81.53,81.51,81.43,81.38,81.35,81.31,81.31,81.27,81.24,81.21,81.21,81.23,81.27,81.29,81.27,81.23,81.24,81.29,81.36,81.40,81.40,81.40,81.42,81.50,81.57,81.60,81.60,81.60,81.60,81.59,81.56,81.52,81.44,81.40,81.39,81.39,81.40,81.40,81.38,81.38,81.43,81.49,81.49,81.39,81.19,80.93,80.69,80.49,80.36,80.30,80.29,80.33,80.37,80.39,80.39,80.40,80.49,80.59,80.65,80.52,80.46,80.48,80.57,80.65,80.68,80.68,80.67,80.65,80.67,80.68,80.69,80.69,80.70,80.70,80.68,80.65,80.66,80.63,80.54,80.44,80.40,80.40,80.40,80.38,80.35,80.37,80.41,80.46,80.52
85.56,85.52,85.49,85.49,85.47,85.42,85.43,85.45,85.44,85.41,85.39,85.31,85.22,85.15,85.11,85.09,85.05,85.02,85.02,84.97,84.93,84.90,84.88,84.83,84.85,84.85,84.87,84.88,84.83,84.78,84.74,84.71,84.72,84.72,84.69,84.62,84.52,84.51,84.45,84.43,84.46,84.46,84.42,84.40,84.38,84.31,84.31,84.32,84.37,84.48,84.46,84.42,84.36,84.30,84.17,84.12,84.08,84.07,84.09,84.06,84.12,84.18,84.18,84.07,84.06,84.08,84.10,84.10,84.10,84.10,84.09,84.05,83.98,83.93,83.91,83.92,83.96,83.92,83.85,83.79,83.75,83.68,83.62,83.60,83.59,83.52,83.54,83.55,83.55,83.59,83.59,83.57,83.55,83.51,83.31,83.02,82.76,82.59,82.57,82.48,82.40,82.35,82.35,82.36,82.37,82.37,82.34,82.35,82.36,82.36,82.36,82.31,82.31,82.32,82.31,82.25,82.24,82.21,82.17,82.13,82.09,82.05,82.01,81.97,81.93,81.86,81.79,81.74,81.72,81.73,81.70,81.69,81.72,81.75,81.70,81.62,81.52,81.41,81.23,81.09,80.98,80.91,80.90,80.90,80.90,80.90,80.90,80.90,80.90,80.90,80.88,80.86,80.86,80.89,80.92,80.96,80.99,81.01,81.03,81.06,81.10,81.13,81.16,81.21,81.31,81.41,81.49,81.52,81.47,81.37,81.33,81.30,81.24,81.18,81.16,81.14,81.14,81.16,81.20,81.23,81.25,81.25,81.19,81.18,81.20,81.27,81.31,81.30,81.30,81.32,81.41,81.50,81.56,81.58,81.58,81.56,81.54,81.52,81.49,81.42,81.37,81.36,81.38,81.40,81.40,81.39,81.38,81.38,81.40,81.36,81.24,81.04,80.77,80.54,80.37,80.24,80.14,80.12,80.17,80.23,80.27,80.28,80.33,80.42,80.51,80.53,80.44,80.42,80.47,80.57,80.63,80.65,80.65,80.65,80.65,80.66,80.65,80.65,80.67,80.69,80.69,80.67,80.64,80.62,80.59,80.53,80.45,80.40,80.39,80.39,80.37,80.33,80.37,80.41,80.46,80.52
85.58,85.53,85.47,85.44,85.40,85.35,85.38,85.43,85.43,85.40,85.38,85.30,85.21,85.15,85.11,85.10,85.06,85.05,85.06,85.01,84.95,84.91,84.89,84.83,84.82,84.81,84.82,84.86,84.82,84.79,84.76,84.74,84.77,84.78,84.74,84.67,84.56,84.51,84.45,84.41,84.41,84.41,84.39,84.38,84.37,84.31,84.30,84.31,84.40,84.55,84.47,84.38,84.33,84.29,84.20,84.14,84.08,84.05,84.08,84.02,84.09,84.17,84.16,84.04,84.07,84.10,84.10,84.10,84.10,84.09,84.06,84.01,83.93,83.91,83.91,83.93,83.99,83.93,83.85,83.80,83.81,83.74,83.67,83.63,83.62,83.55,83.53,83.52,83.54,83.62,83.61,83.60,83.60,83.58,83.44,83.24,82.96,82.68,82.62,82.53,82.41,82.31,82.33,82.38,82.40,82.37,82.35,82.40,82.40,82.39,82.36,82.33,82.33,82.34,82.31,82.22,82.22,82.21,82.19,82.17,82.09,82.04,82.01,82.00,81.98,81.91,81.86,81.82,81.79,81.81,81.79,81.80,81.83,81.84,81.83,81.78,81.71,81.64,81.31,81.14,81.04,80.95,80.91,80.90,80.90,80.90,80.90,80.90,80.90,80.90,80.90,80.90,80.90,80.90,80.90,80.92,80.96,80.99,81.01,81.04,81.08,81.10,81.11,81.14,81.19,81.30,81.41,81.46,81.38,81.29,81.26,81.24,81.18,81.06,81.04,81.04,81.06,81.11,81.15,81.19,81.21,81.23,81.17,81.13,81.13,81.16,81.21,81.20,81.19,81.23,81.33,81.43,81.50,81.54,81.54,81.50,81.46,81.44,81.43,81.39,81.34,81.33,81.35,81.39,81.39,81.37,81.33,81.28,81.24,81.18,81.08,80.91,80.65,80.43,80.27,80.14,80.01,79.97,80.02,80.10,80.17,80.20,80.27,80.35,80.42,80.42,80.37,80.40,80.47,80.56,80.62,80.62,80.62,80.62,80.63,80.64,80.60,80.58,80.63,80.67,80.66,80.64,80.63,80.58,80.55,80.51,80.47,80.41,80.38,80.38,80.37,80.34,80.36,80.41,80.46,80.50
85.57,85.53,85.46,85.42,85.38,85.34,85.41,85.43,85.40,85.34,85.32,85.26,85.21,85.17,85.13,85.11,85.09,85.09,85.08,85.03,84.96,84.92,84.90,84.88,84.84,84.78,84.76,84.80,84.80,84.76,84.75,84.77,84.79,84.80,84.76,84.70,84.66,84.51,84.44,84.41,84.39,84.39,84.35,84.31,84.30,84.30,84.30,84.37,84.48,84.59,84.57,84.47,84.39,84.33,84.17,84.17,84.14,84.08,84.03,84.01,84.02,84.06,84.10,84.04,84.08,84.11,84.11,84.10,84.10,84.06,84.02,84.01,83.95,83.91,83.92,83.97,83.98,83.91,83.84,83.82,83.86,83.80,83.76,83.75,83.75,83.68,83.63,83.61,83.62,83.69,83.64,83.61,83.60,83.59,83.51,83.40,83.21,82.95,82.72,82.58,82.44,82.36,82.38,82.40,82.40,82.40,82.41,82.42,82.40,82.37,82.35,82.38,82.36,82.33,82.30,82.26,82.25,82.22,82.19,82.17,82.10,82.08,82.05,82.02,81.99,81.95,81.95,81.95,81.94,81.93,81.91,81.91,81.91,81.92,81.93,81.93,81.92,81.85,81.58,81.30,81.12,81.06,80.96,80.92,80.90,80.90,80.90,80.90,80.90,80.90,80.90,80.90,80.90,80.90,80.90,80.91,80.93,80.97,81.02,81.06,81.07,81.10,81.13,81.18,81.23,81.27,81.30,81.29,81.23,81.19,81.19,81.17,81.11,80.98,80.95,80.96,80.99,81.03,81.08,81.12,81.15,81.19,81.15,81.10,81.05,81.02,81.08,81.10,81.11,81.15,81.26,81.34,81.40,81.43,81.43,81.40,81.37,81.34,81.33,81.35,81.35,81.32,81.31,81.33,81.33,81.27,81.16,81.01,80.93,80.94,80.93,80.85,80.64,80.39,80.21,80.06,79.91,79.81,79.87,80.00,80.14,80.22,80.24,80.28,80.34,80.37,80.35,80.36,80.42,80.52,80.60,80.61,80.59,80.56,80.55,80.55,80.50,80.48,80.53,80.58,80.58,80.58,80.59,80.54,80.52,80.50,80.48,80.42,80.39,80.38,80.38,80.37,80.35,80.38,80.40,80.40
85.56,85.55,85.48,85.43,85.40,85.39,85.42,85.41,85.37,85.32,85.31,85.25,85.21,85.17,85.15,85.14,85.13,85.11,85.10,85.06,85.00,84.96,84.94,84.91,84.84,84.76,84.72,84.73,84.74,84.73,84.75,84.79,84.80,84.81,84.79,84.75,84.69,84.55,84.47,84.41,84.36,84.35,84.30,84.25,84.23,84.29,84.30,84.36,84.46,84.58,84.57,84.47,84.38,84.30,84.20,84.24,84.22,84.15,84.07,84.03,84.02,84.05,84.11,84.11,84.13,84.15,84.14,84.10,84.09,84.05,84.03,84.05,84.01,83.95,83.93,83.95,83.95,83.88,83.82,83.81,83.85,83.81,83.78,83.77,83.78,83.76,83.73,83.71,83.72,83.77,83.70,83.65,83.62,83.61,83.55,83.49,83.39,83.23,82.97,82.71,82.55,82.46,82.42,82.40,82.40,82.42,82.44,82.43,82.41,82.38,82.37,82.39,82.37,82.33,82.29,82.26,82.26,82.23,82.20,82.15,82.11,82.11,82.09,82.05,82.02,82.01,82.05,82.09,82.10,82.03,82.00,81.98,81.96,81.96,81.97,81.99,81.99,81.95,81.78,81.49,81.25,81.10,81.00,80.94,80.92,80.91,80.93,80.92,80.91,80.90,80.90,80.91,80.92,80.91,80.90,80.90,80.91,80.96,81.03,81.09,81.08,81.10,81.15,81.20,81.24,81.26,81.25,81.21,81.14,81.11,81.10,81.08,81.02,80.93,80.91,80.90,80.91,80.95,81.00,81.04,81.07,81.12,81.09,81.05,80.99,80.93,80.96,81.01,81.04,81.06,81.13,81.21,81.26,81.28,81.27,81.26,81.25,81.24,81.26,81.32,81.32,81.29,81.25,81.25,81.24,81.16,81.02,80.85,80.75,80.77,80.78,80.74,80.58,80.33,80.13,79.96,79.82,79.70,79.74,79.86,80.03,80.17,80.21,80.25,80.29,80.29,80.28,80.30,80.36,80.46,80.56,80.57,80.52,80.45,80.41,80.39,80.33,80.32,80.40,80.49,80.52,80.53,80.55,80.52,80.51,80.50,80.48,80.43,80.40,80.39,80.39,80.38,80.34,80.34,80.33,80.31
85.56,85.57,85.51,85.46,85.44,85.46,85.41,85.36,85.33,85.32,85.31,85.26,85.20,85.16,85.18,85.20,85.17,85.13,85.11,85.10,85.06,85.03,84.99,84.92,84.83,84.74,84.68,84.67,84.67,84.70,84.75,84.79,84.80,84.82,84.83,84.80,84.70,84.61,84.51,84.41,84.32,84.30,84.26,84.19,84.15,84.27,84.29,84.31,84.39,84.55,84.51,84.43,84.34,84.26,84.27,84.32,84.30,84.23,84.16,84.08,84.05,84.07,84.14,84.19,84.20,84.20,84.18,84.10,84.07,84.05,84.06,84.10,84.10,84.01,83.94,83.90,83.90,83.83,83.80,83.80,83.80,83.80,83.77,83.75,83.76,83.79,83.83,83.83,83.81,83.84,83.77,83.70,83.65,83.64,83.57,83.55,83.54,83.49,83.28,82.89,82.68,82.59,82.46,82.42,82.41,82.43,82.45,82.44,82.41,82.40,82.40,82.39,82.36,82.32,82.28,82.25,82.26,82.25,82.21,82.14,82.12,82.14,82.13,82.09,82.07,82.09,82.16,82.24,82.26,82.12,82.06,82.03,82.00,81.99,81.98,81.99,82.00,82.00,81.93,81.70,81.39,81.12,81.03,80.97,80.94,80.93,80.96,80.95,80.93,80.90,80.90,80.92,80.94,80.93,80.90,80.90,80.91,80.97,81.05,81.12,81.10,81.12,81.16,81.20,81.23,81.25,81.23,81.16,81.09,81.04,81.01,80.97,80.93,80.90,80.88,80.85,80.84,80.87,80.91,80.95,80.99,81.03,81.03,80.99,80.94,80.87,80.87,80.93,80.97,80.98,80.99,81.06,81.11,81.12,81.10,81.09,81.11,81.15,81.21,81.29,81.27,81.24,81.19,81.16,81.13,81.05,80.91,80.74,80.63,80.62,80.63,80.60,80.50,80.26,80.04,79.86,79.75,79.62,79.62,79.72,79.89,80.08,80.18,80.24,80.25,80.19,80.18,80.23,80.31,80.39,80.50,80.49,80.42,80.32,80.26,80.19,80.14,80.16,80.26,80.40,80.47,80.50,80.50,80.50,80.50,80.50,80.48,80.43,80.40,80.40,80.40,80.39,80.34,80.31,80.26,80.22
85.60,85.62,85.58,85.53,85.49,85.45,85.38,85.35,85.35,85.36,85.33,85.28,85.23,85.19,85.19,85.20,85.19,85.16,85.12,85.13,85.10,85.07,85.02,84.94,84.81,84.70,84.64,84.65,84.66,84.70,84.74,84.77,84.79,84.84,84.87,84.83,84.69,84.55,84.41,84.33,84.30,84.30,84.29,84.23,84.18,84.27,84.29,84.29,84.32,84.40,84.38,84.31,84.29,84.32,84.35,84.40,84.39,84.34,84.27,84.16,84.10,84.10,84.14,84.16,84.21,84.22,84.18,84.11,84.08,84.05,84.06,84.10,84.10,84.06,84.00,83.95,83.95,83.88,83.83,83.80,83.80,83.84,83.81,83.76,83.73,83.79,83.85,83.88,83.87,83.88,83.84,83.78,83.71,83.67,83.58,83.58,83.56,83.51,83.42,83.17,82.89,82.66,82.58,82.51,82.47,82.45,82.46,82.42,82.40,82.40,82.40,82.39,82.35,82.31,82.29,82.28,82.29,82.28,82.24,82.20,82.25,82.21,82.20,82.21,82.21,82.26,82.34,82.40,82.39,82.17,82.06,82.02,82.02,82.04,82.00,82.00,82.00,82.00,81.94,81.72,81.42,81.12,81.02,80.99,80.98,80.97,80.99,80.98,80.96,80.93,80.90,80.91,80.92,80.91,80.90,80.88,80.88,80.96,81.05,81.11,81.10,81.12,81.16,81.20,81.19,81.17,81.14,81.09,81.03,80.99,80.96,80.93,80.91,80.90,80.88,80.84,80.82,80.85,80.89,80.92,80.93,80.95,80.94,80.92,80.87,80.82,80.82,80.87,80.91,80.93,80.93,80.95,80.97,80.97,80.97,80.99,81.05,81.11,81.18,81.23,81.20,81.16,81.12,81.09,81.02,80.92,80.80,80.67,80.58,80.50,80.46,80.42,80.32,80.14,79.99,79.85,79.73,79.61,79.56,79.63,79.81,80.05,80.16,80.20,80.19,80.12,80.14,80.21,80.28,80.33,80.37,80.30,80.23,80.18,80.19,80.16,80.12,80.11,80.16,80.27,80.37,80.43,80.45,80.45,80.47,80.47,80.44,80.41,80.36,80.34,80.34,80.36,80.31,80.25,80.20,80.15
85.63,85.67,85.65,85.59,85.53,85.47,85.38,85.34,85.35,85.36,85.30,85.26,85.23,85.22,85.21,85.19,85.19,85.18,85.15,85.15,85.14,85.11,85.05,84.96,84.82,84.70,84.65,84.66,84.66,84.69,84.71,84.74,84.78,84.85,84.89,84.85,84.71,84.54,84.38,84.29,84.29,84.30,84.30,84.25,84.21,84.26,84.26,84.25,84.26,84.30,84.28,84.24,84.25,84.31,84.35,84.38,84.40,84.39,84.33,84.21,84.14,84.10,84.10,84.10,84.19,84.22,84.19,84.14,84.07,84.03,84.02,84.07,84.07,84.08,84.05,84.00,83.98,83.93,83.87,83.83,83.83,83.87,83.85,83.79,83.73,83.79,83.87,83.90,83.90,83.90,83.88,83.83,83.75,83.68,83.60,83.57,83.56,83.55,83.52,83.38,83.14,82.87,82.68,82.60,82.52,82.48,82.47,82.41,82.40,82.40,82.40,82.39,82.36,82.34,82.32,82.30,82.30,82.29,82.27,82.25,82.31,82.27,82.29,82.34,82.36,82.43,82.51,82.56,82.54,82.30,82.12,82.04,82.05,82.07,82.02,82.00,81.99,81.97,81.94,81.80,81.57,81.29,81.12,81.03,81.00,80.99,81.00,81.00,80.98,80.96,80.92,80.91,80.91,80.91,80.90,80.88,80.89,80.96,81.05,81.10,81.10,81.11,81.13,81.16,81.14,81.11,81.06,81.01,80.95,80.94,80.92,80.90,80.90,80.90,80.87,80.83,80.80,80.82,80.86,80.88,80.89,80.89,80.89,80.86,80.82,80.78,80.75,80.78,80.83,80.87,80.87,80.87,80.89,80.89,80.90,80.93,80.99,81.06,81.12,81.16,81.13,81.09,81.06,81.02,80.94,80.83,80.71,80.60,80.52,80.41,80.34,80.27,80.16,80.05,79.95,79.83,79.70,79.56,79.47,79.52,79.71,79.99,80.12,80.15,80.12,80.07,80.11,80.19,80.26,80.29,80.28,80.19,80.12,80.11,80.15,80.13,80.10,80.09,80.11,80.19,80.31,80.39,80.43,80.43,80.46,80.45,80.43,80.39,80.33,80.30,80.29,80.28,80.22,80.16,80.12,80.11
85.65,85.73,85.70,85.64,85.57,85.51,85.42,85.35,85.32,85.31,85.22,85.20,85.22,85.24,85.22,85.17,85.17,85.18,85.18,85.19,85.18,85.15,85.09,85.00,84.86,84.75,84.69,84.69,84.69,84.67,84.66,84.70,84.77,84.85,84.89,84.86,84.73,84.56,84.40,84.30,84.30,84.30,84.30,84.26,84.22,84.22,84.18,84.19,84.22,84.23,84.23,84.21,84.22,84.24,84.24,84.26,84.33,84.38,84.33,84.23,84.15,84.08,84.03,84.02,84.14,84.20,84.20,84.18,84.06,83.97,83.95,84.02,84.02,84.07,84.09,84.07,84.00,83.99,83.94,83.88,83.88,83.89,83.89,83.85,83.79,83.80,83.87,83.90,83.90,83.90,83.90,83.85,83.77,83.68,83.61,83.54,83.55,83.59,83.58,83.51,83.43,83.23,82.78,82.69,82.57,82.49,82.48,82.41,82.40,82.40,82.40,82.40,82.40,82.39,82.36,82.30,82.30,82.30,82.30,82.30,82.31,82.32,82.40,82.49,82.51,82.59,82.66,82.72,82.72,82.53,82.25,82.10,82.09,82.08,82.02,81.99,81.96,81.92,81.92,81.92,81.83,81.62,81.33,81.10,81.00,81.00,81.00,81.00,81.00,80.99,80.96,80.92,80.91,80.91,80.90,80.90,80.92,80.97,81.04,81.10,81.10,81.10,81.09,81.09,81.09,81.06,81.00,80.91,80.85,80.89,80.90,80.90,80.90,80.90,80.87,80.83,80.79,80.79,80.81,80.84,80.87,80.88,80.86,80.82,80.77,80.72,80.66,80.67,80.73,80.80,80.81,80.82,80.86,80.88,80.89,80.91,80.95,81.00,81.05,81.08,81.06,81.03,81.00,80.97,80.89,80.77,80.66,80.55,80.45,80.36,80.26,80.15,80.04,79.99,79.92,79.80,79.63,79.48,79.37,79.40,79.58,79.90,80.05,80.08,80.05,80.04,80.10,80.17,80.23,80.26,80.25,80.16,80.10,80.09,80.14,80.13,80.09,80.07,80.11,80.17,80.30,80.40,80.46,80.46,80.46,80.45,80.43,80.38,80.31,80.28,80.23,80.16,80.07,80.03,80.04,80.09
85.65,85.72,85.71,85.67,85.63,85.57,85.49,85.37,85.30,85.28,85.22,85.17,85.18,85.21,85.21,85.18,85.19,85.19,85.19,85.20,85.19,85.16,85.11,85.06,84.90,84.80,84.75,84.75,84.72,84.66,84.61,84.60,84.66,84.77,84.83,84.80,84.68,84.48,84.33,84.25,84.24,84.24,84.24,84.23,84.20,84.16,84.13,84.16,84.20,84.21,84.21,84.17,84.15,84.16,84.20,84.18,84.25,84.31,84.26,84.18,84.16,84.14,84.10,83.98,84.04,84.10,84.13,84.13,84.03,83.95,83.92,83.95,83.91,83.98,84.03,84.02,83.95,83.90,83.86,83.84,83.84,83.88,83.89,83.85,83.80,83.80,83.83,83.86,83.89,83.90,83.86,83.82,83.77,83.70,83.67,83.63,83.63,83.65,83.59,83.39,83.23,83.07,82.82,82.77,82.70,82.61,82.49,82.39,82.39,82.40,82.40,82.38,82.35,82.35,82.35,82.34,82.37,82.38,82.39,82.40,82.47,82.46,82.51,82.61,82.68,82.73,82.76,82.79,82.79,82.71,82.49,82.30,82.19,82.09,82.03,82.01,82.00,81.96,81.93,81.92,81.88,81.75,81.51,81.25,81.09,81.02,81.00,81.00,81.00,81.00,80.99,80.98,80.96,80.94,80.92,80.92,80.93,80.97,81.02,81.08,81.10,81.09,81.06,81.03,81.01,81.00,80.94,80.88,80.84,80.89,80.89,80.89,80.88,80.88,80.85,80.81,80.78,80.77,80.76,80.77,80.81,80.83,80.81,80.76,80.71,80.66,80.61,80.61,80.64,80.67,80.70,80.76,80.81,80.85,80.87,80.91,80.95,80.99,81.02,81.03,81.02,81.00,80.97,80.91,80.83,80.75,80.65,80.55,80.41,80.29,80.15,80.01,79.88,79.84,79.76,79.64,79.50,79.39,79.31,79.32,79.48,79.83,80.03,80.08,80.06,80.05,80.06,80.11,80.16,80.19,80.16,80.10,80.07,80.09,80.12,80.11,80.08,80.07,80.10,80.15,80.24,80.33,80.38,80.39,80.41,80.40,80.36,80.26,80.21,80.20,80.17,80.11,80.01,80.00,80.03,80.06
85.63,85.69,85.69,85.70,85.69,85.64,85.56,85.43,85.33,85.28,85.24,85.17,85.17,85.19,85.20,85.20,85.20,85.20,85.20,85.20,85.20,85.17,85.13,85.12,84.96,84.86,84.81,84.78,84.73,84.66,84.58,84.53,84.56,84.69,84.75,84.73,84.62,84.45,84.31,84.23,84.21,84.20,84.20,84.19,84.17,84.11,84.10,84.13,84.17,84.19,84.18,84.13,84.09,84.08,84.16,84.12,84.17,84.23,84.20,84.15,84.18,84.21,84.15,83.96,83.95,84.01,84.05,84.04,83.98,83.93,83.90,83.90,83.84,83.90,83.96,83.95,83.88,83.82,83.80,83.80,83.80,83.86,83.87,83.84,83.80,83.80,83.80,83.83,83.87,83.90,83.83,83.80,83.78,83.73,83.73,83.71,83.69,83.67,83.52,83.26,83.06,82.94,82.87,82.85,82.81,82.71,82.54,82.41,82.39,82.40,82.39,82.37,82.33,82.34,82.37,82.39,82.44,82.47,82.48,82.50,82.62,82.58,82.61,82.70,82.80,82.83,82.84,82.85,82.86,82.86,82.71,82.53,82.35,82.15,82.07,82.05,82.04,82.02,81.95,81.91,81.88,81.83,81.66,81.40,81.19,81.06,81.00,80.99,81.00,81.00,81.02,81.04,81.01,80.98,80.96,80.96,80.96,80.98,81.02,81.08,81.10,81.08,81.04,80.99,80.95,80.94,80.90,80.87,80.85,80.89,80.89,80.87,80.85,80.86,80.82,80.79,80.77,80.76,80.72,80.72,80.76,80.80,80.76,80.70,80.64,80.59,80.56,80.57,80.55,80.55,80.60,80.70,80.76,80.80,80.84,80.89,80.94,80.97,80.99,80.99,80.99,80.98,80.95,80.88,80.81,80.74,80.65,80.54,80.39,80.23,80.06,79.89,79.76,79.70,79.60,79.49,79.38,79.32,79.27,79.27,79.39,79.74,79.98,80.06,80.06,80.05,80.03,80.05,80.09,80.11,80.06,80.03,80.03,80.05,80.07,80.08,80.06,80.06,80.10,80.13,80.18,80.25,80.31,80.32,80.34,80.33,80.27,80.17,80.14,80.12,80.09,80.05,79.96,79.99,80.02,80.03
85.58,85.62,85.66,85.72,85.76,85.75,85.65,85.58,85.48,85.36,85.28,85.24,85.21,85.20,85.19,85.19,85.18,85.18,85.18,85.18,85.18,85.18,85.17,85.17,85.06,84.94,84.82,84.75,84.71,84.65,84.58,84.52,84.52,84.61,84.64,84.62,84.59,84.55,84.43,84.30,84.23,84.20,84.19,84.16,84.12,84.10,84.10,84.11,84.13,84.16,84.13,84.08,84.03,84.01,84.09,84.10,84.10,84.12,84.17,84.18,84.23,84.23,84.14,83.99,83.94,83.95,83.97,83.91,83.88,83.88,83.90,83.90,83.87,83.86,83.87,83.87,83.82,83.81,83.80,83.80,83.80,83.84,83.83,83.81,83.80,83.80,83.80,83.81,83.83,83.90,83.83,83.80,83.80,83.78,83.75,83.70,83.67,83.61,83.33,83.19,83.10,83.04,82.97,82.92,82.84,82.76,82.67,82.52,82.43,82.40,82.38,82.36,82.38,82.43,82.47,82.48,82.53,82.57,82.58,82.58,82.69,82.66,82.67,82.73,82.82,82.87,82.89,82.91,82.93,82.93,82.89,82.81,82.65,82.36,82.18,82.10,82.08,82.06,81.99,81.92,81.87,81.82,81.73,81.52,81.31,81.12,80.98,80.97,80.99,81.01,81.03,81.07,81.06,81.04,81.04,81.04,81.04,81.05,81.07,81.10,81.10,81.09,81.06,80.99,80.92,80.91,80.90,80.90,80.90,80.90,80.88,80.85,80.83,80.84,80.80,80.77,80.76,80.76,80.72,80.72,80.76,80.80,80.74,80.65,80.57,80.53,80.52,80.53,80.51,80.50,80.54,80.65,80.72,80.75,80.77,80.83,80.89,80.93,80.94,80.94,80.96,80.98,80.97,80.91,80.84,80.75,80.65,80.53,80.37,80.19,80.01,79.86,79.71,79.61,79.50,79.39,79.32,79.28,79.26,79.25,79.32,79.57,79.85,79.99,80.03,80.03,80.05,80.03,80.01,80.01,79.99,79.93,79.92,79.94,79.96,80.00,80.02,80.03,80.07,80.10,80.12,80.18,80.26,80.26,80.25,80.22,80.18,80.15,80.13,80.06,79.99,79.95,79.92,79.96,80.00,80.00
85.56,85.59,85.66,85.72,85.76,85.75,85.66,85.63,85.55,85.42,85.32,85.27,85.24,85.21,85.18,85.16,85.15,85.14,85.14,85.14,85.14,85.14,85.14,85.14,85.09,84.99,84.88,84.79,84.73,84.65,84.57,84.51,84.50,84.54,84.54,84.53,84.52,84.54,84.46,84.35,84.27,84.22,84.17,84.13,84.10,84.10,84.10,84.09,84.09,84.11,84.10,84.08,84.05,84.04,84.08,84.10,84.07,84.06,84.11,84.16,84.24,84.26,84.18,84.04,83.95,83.91,83.90,83.84,83.86,83.88,83.90,83.90,83.87,83.83,83.80,83.81,83.80,83.80,83.80,83.81,83.83,83.86,83.84,83.82,83.80,83.80,83.80,83.81,83.83,83.84,83.81,83.79,83.77,83.77,83.76,83.70,83.64,83.56,83.29,83.22,83.16,83.10,83.03,83.00,82.91,82.82,82.74,82.63,82.52,82.46,82.45,82.44,82.49,82.54,82.57,82.57,82.61,82.66,82.68,82.66,82.72,82.70,82.71,82.77,82.85,82.89,82.91,82.93,82.98,83.00,83.01,83.00,82.93,82.72,82.42,82.19,82.06,82.05,81.99,81.92,81.86,81.81,81.75,81.58,81.37,81.18,81.04,80.99,80.99,81.01,81.04,81.09,81.11,81.11,81.11,81.11,81.11,81.12,81.13,81.13,81.11,81.09,81.06,81.01,80.97,80.95,80.94,80.94,80.92,80.89,80.87,80.84,80.80,80.79,80.75,80.72,80.72,80.74,80.70,80.70,80.74,80.78,80.72,80.66,80.60,80.55,80.53,80.53,80.50,80.47,80.51,80.62,80.69,80.72,80.73,80.78,80.83,80.87,80.87,80.87,80.89,80.92,80.95,80.95,80.88,80.77,80.64,80.50,80.34,80.17,80.00,79.85,79.69,79.56,79.44,79.34,79.27,79.24,79.23,79.21,79.21,79.34,79.67,79.90,79.99,79.96,79.97,79.94,79.92,79.90,79.87,79.82,79.80,79.83,79.88,79.95,79.99,80.00,80.01,80.03,80.05,80.10,80.16,80.17,80.15,80.13,80.12,80.12,80.08,79.98,79.91,79.89,79.90,79.92,79.94,79.93
85.55,85.57,85.66,85.72,85.74,85.71,85.65,85.63,85.58,85.48,85.35,85.31,85.28,85.24,85.17,85.12,85.10,85.10,85.10,85.10,85.10,85.10,85.10,85.10,85.10,85.04,84.95,84.87,84.76,84.65,84.56,84.51,84.50,84.47,84.45,84.45,84.45,84.48,84.45,84.39,84.31,84.23,84.16,84.11,84.10,84.10,84.10,84.08,84.06,84.05,84.08,84.09,84.10,84.10,84.10,84.10,84.06,84.02,84.04,84.12,84.22,84.27,84.24,84.09,83.97,83.89,83.84,83.80,83.87,83.90,83.90,83.90,83.87,83.80,83.76,83.75,83.80,83.80,83.81,83.82,83.86,83.89,83.88,83.84,83.81,83.81,83.81,83.83,83.84,83.77,83.79,83.77,83.74,83.74,83.76,83.71,83.63,83.52,83.34,83.28,83.22,83.15,83.08,83.07,82.99,82.88,82.79,82.74,82.62,82.56,82.56,82.57,82.63,82.67,82.68,82.67,82.68,82.74,82.77,82.74,82.73,82.73,82.76,82.82,82.89,82.90,82.92,82.96,83.02,83.08,83.10,83.14,83.17,83.10,82.72,82.31,82.04,82.02,81.99,81.92,81.85,81.79,81.75,81.61,81.42,81.25,81.13,81.03,81.00,81.01,81.04,81.11,81.16,81.18,81.18,81.18,81.18,81.19,81.19,81.17,81.12,81.09,81.06,81.04,81.05,81.02,81.00,80.99,80.94,80.87,80.85,80.83,80.77,80.73,80.70,80.68,80.67,80.70,80.67,80.67,80.70,80.75,80.71,80.70,80.67,80.61,80.55,80.54,80.50,80.46,80.49,80.60,80.67,80.70,80.71,80.74,80.78,80.79,80.79,80.79,80.80,80.85,80.92,80.99,80.92,80.79,80.64,80.48,80.33,80.17,80.00,79.84,79.69,79.53,79.41,79.32,79.25,79.21,79.20,79.15,79.09,79.10,79.47,79.79,79.95,79.88,79.86,79.84,79.82,79.78,79.74,79.71,79.70,79.72,79.81,79.92,79.98,79.98,79.93,79.95,79.97,80.00,80.04,80.07,80.04,80.04,80.07,80.07,80.00,79.89,79.83,79.84,79.86,79.87,79.86,79.84
85.60,85.60,85.67,85.72,85.74,85.71,85.67,85.67,85.64,85.58,85.50,85.37,85.28,85.23,85.20,85.14,85.11,85.09,85.06,85.05,85.05,85.05,85.05,85.05,85.05,85.02,84.98,84.93,84.82,84.68,84.59,84.55,84.52,84.46,84.42,84.42,84.42,84.47,84.47,84.42,84.31,84.23,84.18,84.14,84.11,84.10,84.07,84.06,84.05,84.02,84.04,84.04,84.06,84.09,84.10,84.10,84.08,84.05,84.02,84.09,84.18,84.23,84.22,84.14,84.02,83.93,83.86,83.81,83.87,83.90,83.92,83.95,83.90,83.86,83.80,83.73,83.79,83.84,83.86,83.86,83.89,83.90,83.89,83.88,83.86,83.86,83.86,83.87,83.87,83.79,83.80,83.79,83.77,83.78,83.79,83.76,83.70,83.62,83.49,83.34,83.27,83.22,83.15,83.10,83.05,82.95,82.81,82.83,82.80,82.77,82.76,82.72,82.74,82.79,82.82,82.81,82.78,82.82,82.82,82.80,82.83,82.85,82.89,82.94,82.96,82.97,82.98,83.02,83.09,83.17,83.22,83.25,83.28,83.30,83.09,82.65,82.23,82.06,81.99,81.92,81.85,81.78,81.72,81.66,81.56,81.43,81.30,81.18,81.04,80.98,81.04,81.11,81.17,81.20,81.20,81.20,81.21,81.21,81.21,81.20,81.17,81.14,81.14,81.16,81.16,81.15,81.13,81.10,81.03,80.95,80.89,80.85,80.80,80.80,80.82,80.80,80.75,80.69,80.64,80.63,80.64,80.66,80.68,80.71,80.71,80.66,80.60,80.52,80.46,80.43,80.45,80.57,80.67,80.73,80.75,80.76,80.76,80.73,80.71,80.72,80.76,80.80,80.85,80.92,80.89,80.80,80.69,80.57,80.38,80.16,79.96,79.78,79.62,79.47,79.36,79.30,79.27,79.23,79.18,79.11,79.05,79.03,79.31,79.61,79.82,79.84,79.80,79.76,79.73,79.71,79.69,79.69,79.70,79.71,79.76,79.87,79.93,79.94,79.92,79.94,79.92,79.91,79.93,79.95,79.96,79.98,79.98,79.91,79.79,79.72,79.69,79.70,79.75,79.74,79.71,79.68
85.66,85.65,85.68,85.72,85.72,85.70,85.67,85.68,85.69,85.67,85.62,85.46,85.33,85.24,85.20,85.14,85.10,85.06,85.03,85.02,85.02,85.02,85.02,85.02,85.02,85.03,85.03,85.01,84.90,84.73,84.62,84.57,84.52,84.45,84.40,84.38,84.37,84.41,84.45,84.43,84.34,84.24,84.18,84.13,84.08,84.07,84.04,84.05,84.06,84.04,84.02,84.01,84.04,84.09,84.10,84.10,84.09,84.07,84.04,84.10,84.17,84.21,84.21,84.15,84.05,83.95,83.88,83.84,83.86,83.88,83.91,83.95,83.91,83.89,83.83,83.74,83.77,83.83,83.85,83.86,83.87,83.87,83.88,83.90,83.89,83.89,83.87,83.88,83.88,83.80,83.78,83.77,83.76,83.76,83.76,83.75,83.71,83.64,83.57,83.41,83.33,83.30,83.22,83.15,83.09,82.99,82.83,82.88,82.89,82.89,82.89,82.87,82.87,82.92,82.97,82.98,82.90,82.90,82.92,82.92,82.97,82.98,83.01,83.04,83.04,83.03,83.04,83.08,83.14,83.24,83.31,83.34,83.35,83.39,83.30,82.97,82.56,82.24,82.10,82.00,81.91,81.82,81.75,81.71,81.67,81.59,81.47,81.35,81.18,81.08,81.10,81.17,81.23,81.27,81.28,81.29,81.33,81.34,81.34,81.33,81.30,81.24,81.21,81.23,81.24,81.24,81.23,81.18,81.09,81.00,80.93,80.87,80.84,80.86,80.88,80.87,80.80,80.69,80.65,80.63,80.62,80.62,80.66,80.70,80.70,80.67,80.61,80.52,80.45,80.41,80.44,80.54,80.65,80.73,80.73,80.72,80.69,80.66,80.64,80.67,80.72,80.76,80.79,80.83,80.84,80.80,80.73,80.63,80.44,80.16,79.92,79.72,79.56,79.41,79.31,79.27,79.27,79.22,79.15,79.09,79.03,78.98,79.16,79.41,79.63,79.71,79.68,79.65,79.64,79.64,79.65,79.66,79.67,79.68,79.70,79.80,79.87,79.91,79.91,79.93,79.89,79.86,79.86,79.88,79.91,79.91,79.85,79.72,79.60,79.56,79.56,79.58,79.63,79.61,79.57,79.52
85.74,85.71,85.70,85.70,85.69,85.65,85.67,85.69,85.72,85.75,85.71,85.57,85.40,85.26,85.20,85.14,85.08,85.03,85.00,85.00,85.00,85.00,85.00,85.00,85.00,85.04,85.07,85.08,85.01,84.81,84.65,84.59,84.52,84.45,84.38,84.33,84.31,84.32,84.40,84.45,84.39,84.26,84.16,84.08,84.02,84.01,84.00,84.04,84.08,84.09,84.02,84.00,84.04,84.09,84.10,84.10,84.10,84.10,84.10,84.17,84.19,84.20,84.19,84.12,84.04,83.97,83.91,83.90,83.83,83.85,83.89,83.90,83.90,83.90,83.86,83.78,83.72,83.77,83.80,83.80,83.81,83.81,83.85,83.89,83.90,83.89,83.83,83.85,83.88,83.80,83.74,83.71,83.70,83.70,83.70,83.69,83.65,83.60,83.59,83.46,83.40,83.38,83.30,83.20,83.12,82.99,82.84,82.89,82.90,82.91,82.94,83.01,83.02,83.08,83.14,83.18,83.06,83.00,83.04,83.12,83.14,83.13,83.13,83.13,83.12,83.08,83.09,83.13,83.16,83.29,83.38,83.41,83.39,83.38,83.37,83.28,83.02,82.57,82.31,82.16,82.04,81.92,81.83,81.76,81.75,81.74,81.65,81.54,81.42,81.30,81.22,81.28,81.34,81.37,81.40,81.45,81.55,81.59,81.58,81.56,81.49,81.37,81.29,81.28,81.30,81.31,81.29,81.24,81.14,81.03,80.95,80.91,80.90,80.90,80.90,80.87,80.81,80.71,80.70,80.68,80.65,80.62,80.65,80.66,80.66,80.64,80.60,80.54,80.47,80.42,80.43,80.52,80.62,80.68,80.66,80.63,80.59,80.56,80.57,80.65,80.71,80.74,80.74,80.74,80.78,80.77,80.74,80.68,80.49,80.17,79.88,79.66,79.51,79.37,79.27,79.23,79.23,79.18,79.13,79.08,79.02,78.95,79.02,79.19,79.37,79.47,79.49,79.52,79.55,79.59,79.60,79.62,79.63,79.63,79.64,79.72,79.81,79.87,79.90,79.93,79.89,79.85,79.83,79.84,79.87,79.82,79.69,79.52,79.42,79.41,79.43,79.46,79.51,79.49,79.44,79.38
85.73,85.73,85.70,85.68,85.66,85.63,85.70,85.74,85.77,85.78,85.73,85.63,85.49,85.35,85.24,85.18,85.10,85.04,85.01,85.00,85.00,84.98,84.97,84.98,84.99,85.01,85.03,85.04,85.01,84.90,84.75,84.60,84.52,84.47,84.44,84.40,84.33,84.31,84.36,84.39,84.35,84.24,84.16,84.10,84.06,84.02,84.03,84.07,84.10,84.11,84.07,84.06,84.06,84.06,84.09,84.06,84.07,84.11,84.15,84.19,84.19,84.19,84.18,84.12,84.04,83.99,83.94,83.87,83.83,83.81,83.81,83.83,83.87,83.88,83.86,83.81,83.77,83.76,83.77,83.79,83.80,83.79,83.80,83.84,83.88,83.84,83.82,83.85,83.88,83.82,83.80,83.76,83.71,83.70,83.65,83.64,83.62,83.60,83.61,83.52,83.48,83.45,83.35,83.19,83.10,83.01,82.93,82.92,82.94,82.97,83.03,83.15,83.16,83.22,83.29,83.30,83.25,83.23,83.25,83.31,83.31,83.27,83.26,83.27,83.28,83.25,83.23,83.22,83.24,83.31,83.41,83.43,83.39,83.36,83.36,83.31,83.18,82.93,82.62,82.38,82.22,82.11,81.95,81.86,81.83,81.81,81.73,81.68,81.65,81.60,81.52,81.48,81.50,81.54,81.59,81.67,81.75,81.79,81.77,81.73,81.64,81.49,81.36,81.31,81.35,81.37,81.33,81.24,81.16,81.07,80.98,80.92,80.88,80.89,80.87,80.83,80.77,80.72,80.72,80.69,80.65,80.61,80.62,80.63,80.65,80.67,80.69,80.66,80.57,80.45,80.39,80.47,80.56,80.63,80.63,80.60,80.58,80.57,80.58,80.63,80.66,80.67,80.67,80.67,80.70,80.69,80.67,80.62,80.46,80.16,79.87,79.61,79.42,79.33,79.27,79.24,79.20,79.15,79.10,79.06,79.01,78.95,78.98,79.07,79.18,79.28,79.37,79.45,79.50,79.52,79.53,79.56,79.57,79.58,79.56,79.60,79.68,79.76,79.81,79.78,79.76,79.76,79.77,79.77,79.79,79.73,79.59,79.40,79.29,79.28,79.31,79.33,79.39,79.37,79.31,79.25
