70.35,70.39,70.49,70.53,70.51,70.46,70.46,70.46,70.43,70.37,70.34,70.36,70.39,70.42,70.46,70.49,70.49,70.44,70.38,70.32,70.24,70.20,70.20,70.21,70.15,70.13,70.15,70.20,70.18,70.20,70.22,70.22,70.15,70.13,70.17,70.24,70.28,70.19,70.17,70.21,70.29,70.36,70.38,70.35,70.30,70.27,70.25,70.19,70.12,70.06,70.00,69.95,69.92,69.91,69.91,69.91,69.89,69.88,69.90,69.88,69.89,69.86,69.77,69.62,69.56,69.53,69.51,69.50,69.44,69.42,69.40,69.39,69.45,69.42,69.39,69.35,69.16,69.09,69.10,69.14,69.11,69.10,69.08,69.08,69.10,69.07,69.12,69.13,69.11,69.07,69.09,69.10,69.15,69.27,69.34,69.35,69.35,69.37,69.45,69.41,69.40,69.36,69.21,69.21,69.29,69.38,69.42,69.31,69.30,69.34,69.41,69.44,69.43,69.33,69.22,69.18,69.11,69.09,69.05,68.97,68.87,68.92,68.95,68.95,68.94,68.89,68.88,68.88,68.84,68.79,68.72,68.68,68.69,68.76,68.74,68.72,68.68,68.61,68.66,68.65,68.64,68.65,68.67,68.64,68.69,68.77,68.81,68.80,68.79,68.75,68.68,68.73,68.63,68.52,68.45,68.48,68.56,68.56,68.53,68.52,68.51,68.48,68.45,68.42,68.38,68.34,68.30,68.24,68.17,68.12,68.08,68.04,67.96,67.90,67.90,67.90,67.89,67.86,67.84,67.80,67.76,67.74,67.71,67.64,67.56,67.48,67.44,67.41,67.41,67.42,67.46,67.50,67.52,67.50,67.45,67.38,67.31,67.26,67.25,67.27,67.26,67.22,67.15,67.09,67.03,66.99,66.95,66.90,66.88,66.89,66.90,66.90,66.90,66.89,66.88,66.86,66.85,66.84,66.84,66.83,66.79,66.72,66.65,66.62,66.62,66.61,66.45,66.34,66.31,66.33,66.28,66.31,66.40,66.52,66.57,66.59,66.60,66.60,66.59,66.52,66.35,66.16,66.00,65.96,65.96,65.95,65.95,65.94,65.93,65.94,65.95,65.96,65.99,66.00,66.00,66.00
70.33,70.37,70.48,70.53,70.51,70.44,70.45,70.47,70.46,70.42,70.39,70.39,70.39,70.41,70.45,70.48,70.46,70.40,70.34,70.35,70.30,70.27,70.26,70.24,70.17,70.15,70.21,70.31,70.26,70.26,70.25,70.22,70.14,70.15,70.18,70.20,70.21,70.15,70.16,70.23,70.35,70.40,70.40,70.37,70.34,70.37,70.34,70.20,70.06,70.00,70.00,69.95,69.91,69.90,69.90,69.89,69.86,69.83,69.87,69.82,69.85,69.80,69.65,69.61,69.60,69.57,69.52,69.50,69.44,69.41,69.37,69.30,69.23,69.20,69.19,69.18,69.12,69.06,69.06,69.08,69.08,69.08,69.04,69.03,69.07,69.02,69.06,69.05,69.01,69.00,69.07,69.10,69.13,69.20,69.27,69.28,69.29,69.31,69.39,69.45,69.43,69.34,69.20,69.22,69.27,69.32,69.36,69.30,69.30,69.34,69.40,69.38,69.37,69.32,69.25,69.17,69.11,69.08,69.03,68.94,68.80,68.85,68.87,68.88,68.89,68.85,68.87,68.86,68.79,68.77,68.70,68.64,68.63,68.70,68.65,68.63,68.62,68.59,68.63,68.60,68.62,68.67,68.65,68.61,68.65,68.73,68.81,68.77,68.73,68.67,68.61,68.67,68.54,68.43,68.39,68.40,68.47,68.49,68.49,68.51,68.44,68.42,68.39,68.36,68.33,68.28,68.25,68.22,68.14,68.05,68.05,68.03,67.95,67.89,67.90,67.90,67.87,67.83,67.80,67.76,67.73,67.72,67.71,67.63,67.56,67.52,67.47,67.42,67.40,67.42,67.43,67.43,67.45,67.45,67.42,67.37,67.31,67.28,67.28,67.30,67.27,67.23,67.19,67.15,67.08,67.00,66.94,66.90,66.89,66.89,66.89,66.89,66.89,66.87,66.87,66.87,66.84,66.79,66.80,66.83,66.82,66.73,66.62,66.56,66.54,66.54,66.42,66.33,66.31,66.35,66.30,66.33,66.42,66.52,66.52,66.55,66.58,66.60,66.60,66.50,66.32,66.13,65.99,65.95,65.93,65.93,65.95,65.96,65.96,65.97,65.99,66.00,66.00,66.00,66.00,66.00
70.40,70.46,70.52,70.54,70.51,70.44,70.42,70.42,70.42,70.41,70.40,70.40,70.40,70.39,70.37,70.36,70.35,70.33,70.32,70.35,70.35,70.35,70.34,70.31,70.26,70.23,70.24,70.31,70.27,70.26,70.27,70.26,70.20,70.18,70.20,70.22,70.21,70.15,70.19,70.29,70.40,70.41,70.40,70.39,70.38,70.39,70.37,70.27,70.13,69.99,69.99,69.95,69.91,69.90,69.89,69.85,69.81,69.80,69.81,69.75,69.79,69.77,69.65,69.62,69.61,69.58,69.53,69.50,69.47,69.43,69.37,69.30,69.23,69.17,69.13,69.13,69.10,69.13,69.10,69.04,68.98,68.95,68.96,68.99,69.02,69.01,69.00,69.02,69.04,69.02,69.08,69.11,69.14,69.17,69.20,69.21,69.23,69.29,69.36,69.36,69.33,69.28,69.20,69.28,69.32,69.32,69.31,69.30,69.32,69.36,69.39,69.35,69.33,69.28,69.20,69.09,69.08,69.04,68.97,68.86,68.75,68.80,68.83,68.85,68.90,68.88,68.89,68.85,68.76,68.71,68.63,68.58,68.57,68.56,68.53,68.53,68.55,68.56,68.59,68.56,68.55,68.58,68.54,68.52,68.58,68.67,68.72,68.67,68.63,68.59,68.54,68.56,68.51,68.46,68.42,68.40,68.42,68.43,68.43,68.42,68.35,68.31,68.29,68.27,68.23,68.19,68.18,68.16,68.11,68.04,68.02,68.00,67.93,67.91,67.94,67.95,67.91,67.86,67.80,67.74,67.71,67.69,67.66,67.62,67.58,67.54,67.47,67.41,67.37,67.34,67.33,67.33,67.34,67.33,67.29,67.26,67.24,67.24,67.26,67.30,67.29,67.28,67.28,67.29,67.23,67.12,66.98,66.85,66.83,66.84,66.84,66.82,66.80,66.79,66.81,66.84,66.84,66.77,66.75,66.76,66.79,66.74,66.67,66.61,66.57,66.53,66.41,66.33,66.31,66.36,66.32,66.34,66.44,66.55,66.56,66.56,66.58,66.61,66.63,66.52,66.31,66.10,65.96,65.95,65.96,65.97,65.98,65.99,65.99,65.99,66.00,66.00,65.97,65.97,65.97,65.96
70.43,70.49,70.52,70.52,70.49,70.43,70.40,70.40,70.40,70.39,70.39,70.39,70.38,70.35,70.30,70.27,70.28,70.29,70.29,70.30,70.32,70.34,70.34,70.32,70.28,70.24,70.23,70.28,70.24,70.24,70.25,70.23,70.18,70.14,70.15,70.18,70.17,70.16,70.22,70.31,70.41,70.40,70.39,70.39,70.39,70.39,70.37,70.30,70.17,70.01,69.99,69.96,69.93,69.91,69.88,69.81,69.77,69.75,69.75,69.69,69.72,69.72,69.67,69.66,69.65,69.61,69.54,69.50,69.47,69.42,69.36,69.30,69.23,69.15,69.11,69.11,69.12,69.18,69.15,69.06,68.98,68.91,68.94,68.98,69.00,68.99,68.95,68.97,69.02,69.03,69.09,69.14,69.15,69.14,69.15,69.16,69.19,69.25,69.31,69.27,69.24,69.22,69.20,69.29,69.33,69.33,69.30,69.33,69.35,69.36,69.36,69.34,69.31,69.25,69.17,69.06,69.04,69.01,68.92,68.80,68.72,68.76,68.79,68.82,68.88,68.89,68.88,68.82,68.73,68.69,68.59,68.54,68.52,68.47,68.45,68.48,68.53,68.57,68.59,68.54,68.52,68.54,68.51,68.52,68.56,68.62,68.66,68.59,68.56,68.53,68.49,68.50,68.49,68.46,68.44,68.42,68.40,68.39,68.39,68.38,68.31,68.29,68.26,68.23,68.19,68.16,68.14,68.12,68.10,68.04,68.01,67.98,67.92,67.90,67.97,68.01,67.99,67.96,67.90,67.84,67.80,67.78,67.74,67.72,67.70,67.66,67.56,67.46,67.39,67.35,67.35,67.32,67.29,67.26,67.20,67.18,67.18,67.20,67.23,67.28,67.28,67.30,67.33,67.37,67.34,67.23,67.05,66.84,66.76,66.77,66.77,66.75,66.74,66.74,66.76,66.79,66.80,66.74,66.72,66.72,66.72,66.69,66.65,66.61,66.57,66.50,66.38,66.31,66.30,66.34,66.31,66.33,66.44,66.57,66.58,66.56,66.60,66.65,66.65,66.49,66.26,66.07,65.97,65.97,65.98,65.99,65.99,66.00,66.00,66.00,66.00,65.99,65.95,65.95,65.94,65.93
70.43,70.47,70.47,70.47,70.45,70.41,70.40,70.41,70.40,70.38,70.37,70.37,70.35,70.31,70.24,70.21,70.24,70.27,70.27,70.21,70.23,70.25,70.27,70.28,70.23,70.19,70.18,70.20,70.19,70.20,70.19,70.15,70.09,70.05,70.05,70.07,70.10,70.18,70.24,70.31,70.37,70.37,70.37,70.36,70.36,70.36,70.33,70.27,70.18,70.04,70.01,69.99,69.97,69.94,69.88,69.77,69.72,69.70,69.70,69.64,69.64,69.66,69.69,69.73,69.72,69.65,69.56,69.51,69.44,69.39,69.35,69.30,69.23,69.15,69.12,69.14,69.15,69.21,69.20,69.13,69.05,68.95,68.96,69.00,68.99,68.96,68.89,68.89,68.96,69.04,69.12,69.17,69.17,69.11,69.10,69.14,69.18,69.21,69.24,69.19,69.16,69.16,69.20,69.26,69.31,69.34,69.34,69.37,69.39,69.35,69.30,69.34,69.31,69.24,69.14,69.06,69.01,68.99,68.89,68.73,68.70,68.73,68.77,68.81,68.84,68.88,68.85,68.78,68.70,68.68,68.57,68.50,68.48,68.44,68.42,68.46,68.53,68.60,68.61,68.55,68.53,68.57,68.55,68.59,68.60,68.60,68.62,68.54,68.51,68.49,68.46,68.50,68.47,68.45,68.44,68.47,68.39,68.38,68.39,68.38,68.32,68.33,68.30,68.24,68.19,68.17,68.13,68.10,68.09,68.07,68.02,67.97,67.93,67.89,67.98,68.06,68.10,68.13,68.10,68.05,68.01,67.98,67.93,67.92,67.91,67.87,67.74,67.57,67.47,67.44,67.47,67.37,67.29,67.22,67.16,67.12,67.11,67.15,67.20,67.26,67.25,67.29,67.35,67.40,67.43,67.35,67.14,66.84,66.68,66.67,66.67,66.67,66.70,66.70,66.71,66.71,66.71,66.70,66.70,66.68,66.64,66.57,66.57,66.56,66.53,66.45,66.33,66.28,66.28,66.30,66.26,66.29,66.42,66.57,66.59,66.57,66.64,66.70,66.66,66.42,66.19,66.05,66.00,66.00,66.00,66.00,66.00,66.00,66.00,66.00,66.00,65.99,65.94,65.91,65.90,65.90
70.44,70.45,70.44,70.43,70.39,70.36,70.37,70.38,70.36,70.32,70.30,70.29,70.29,70.26,70.23,70.21,70.22,70.24,70.21,70.16,70.17,70.18,70.19,70.18,70.15,70.13,70.13,70.14,70.11,70.11,70.09,70.07,70.04,70.01,70.00,70.05,70.16,70.26,70.29,70.32,70.35,70.34,70.35,70.36,70.36,70.34,70.33,70.27,70.16,70.04,70.01,70.03,70.04,70.01,69.95,69.85,69.81,69.79,69.72,69.61,69.61,69.63,69.66,69.71,69.71,69.67,69.60,69.52,69.44,69.40,69.36,69.31,69.23,69.17,69.14,69.15,69.21,69.26,69.22,69.13,69.05,69.02,69.04,69.04,69.00,68.94,68.89,68.89,68.93,68.97,69.05,69.12,69.13,69.06,69.05,69.10,69.16,69.20,69.17,69.15,69.11,69.08,69.10,69.17,69.23,69.25,69.22,69.28,69.30,69.25,69.20,69.26,69.22,69.16,69.10,69.03,69.01,68.96,68.83,68.67,68.70,68.72,68.76,68.80,68.82,68.84,68.82,68.77,68.69,68.64,68.55,68.52,68.51,68.42,68.41,68.46,68.51,68.53,68.50,68.47,68.46,68.50,68.54,68.66,68.67,68.61,68.53,68.43,68.43,68.43,68.41,68.39,68.38,68.39,68.40,68.36,68.30,68.31,68.34,68.33,68.31,68.31,68.30,68.27,68.24,68.20,68.18,68.17,68.18,68.09,68.03,67.98,67.93,67.88,67.96,68.02,68.04,68.05,68.04,68.01,67.98,67.95,67.96,67.96,67.95,67.90,67.79,67.64,67.55,67.52,67.56,67.45,67.36,67.29,67.22,67.17,67.18,67.22,67.27,67.29,67.29,67.31,67.35,67.39,67.39,67.31,67.13,66.86,66.68,66.70,66.73,66.75,66.76,66.74,66.73,66.72,66.70,66.66,66.65,66.65,66.63,66.61,66.63,66.59,66.52,66.43,66.33,66.27,66.27,66.29,66.22,66.27,66.41,66.58,66.61,66.59,66.64,66.67,66.58,66.36,66.17,66.05,66.00,66.00,66.00,66.00,66.00,66.00,66.00,66.00,66.00,65.99,65.94,65.91,65.90,65.90
70.46,70.45,70.45,70.42,70.39,70.36,70.36,70.36,70.33,70.28,70.25,70.25,70.26,70.26,70.25,70.23,70.24,70.23,70.18,70.13,70.14,70.14,70.13,70.10,70.10,70.12,70.13,70.13,70.10,70.07,70.04,70.02,70.02,69.99,69.99,70.06,70.21,70.31,70.33,70.33,70.33,70.31,70.32,70.34,70.35,70.32,70.32,70.26,70.15,70.06,70.03,70.05,70.07,70.07,70.00,69.93,69.90,69.88,69.76,69.61,69.58,69.60,69.63,69.69,69.71,69.69,69.65,69.56,69.47,69.42,69.38,69.31,69.24,69.20,69.17,69.16,69.24,69.26,69.20,69.11,69.03,69.07,69.09,69.08,69.02,68.93,68.89,68.88,68.89,68.93,69.01,69.07,69.08,69.02,69.03,69.07,69.12,69.16,69.10,69.09,69.06,69.02,69.04,69.10,69.15,69.15,69.11,69.20,69.20,69.16,69.13,69.20,69.14,69.10,69.06,69.01,68.98,68.92,68.79,68.64,68.68,68.70,68.74,68.79,68.80,68.81,68.80,68.77,68.70,68.62,68.57,68.57,68.56,68.42,68.40,68.44,68.48,68.45,68.41,68.41,68.42,68.43,68.49,68.62,68.63,68.54,68.41,68.33,68.35,68.37,68.34,68.30,68.30,68.35,68.39,68.33,68.29,68.30,68.33,68.32,68.31,68.31,68.30,68.28,68.26,68.21,68.19,68.20,68.21,68.10,68.03,67.98,67.93,67.87,67.94,67.98,67.97,67.96,67.95,67.92,67.89,67.87,67.91,67.91,67.89,67.85,67.76,67.65,67.58,67.56,67.58,67.48,67.41,67.35,67.27,67.22,67.23,67.27,67.31,67.31,67.31,67.32,67.34,67.37,67.35,67.29,67.14,66.90,66.70,66.73,66.78,66.80,66.80,66.76,66.74,66.72,66.70,66.65,66.64,66.64,66.64,66.65,66.67,66.62,66.53,66.43,66.33,66.27,66.26,66.28,66.20,66.26,66.41,66.58,66.62,66.61,66.64,66.63,66.52,66.31,66.14,66.04,66.00,66.00,66.00,66.00,66.00,66.00,66.00,66.00,66.00,65.99,65.95,65.92,65.90,65.90
70.51,70.51,70.53,70.51,70.48,70.46,70.40,70.34,70.30,70.29,70.27,70.30,70.32,70.34,70.34,70.30,70.30,70.27,70.19,70.15,70.16,70.15,70.12,70.06,70.10,70.17,70.23,70.24,70.19,70.13,70.09,70.07,70.07,70.03,70.03,70.10,70.24,70.30,70.34,70.35,70.33,70.30,70.28,70.28,70.30,70.30,70.27,70.23,70.19,70.15,70.10,70.06,70.05,70.07,70.02,69.98,69.98,69.94,69.82,69.67,69.57,69.55,69.60,69.67,69.70,69.73,69.74,69.68,69.55,69.46,69.39,69.32,69.29,69.24,69.20,69.19,69.21,69.17,69.13,69.09,69.02,69.07,69.09,69.10,69.07,68.94,68.90,68.87,68.85,68.97,69.05,69.05,69.02,69.01,69.07,69.04,69.05,69.09,69.03,69.01,69.01,69.02,69.08,69.10,69.07,69.03,69.04,69.17,69.14,69.10,69.11,69.18,69.12,69.05,69.01,69.00,68.93,68.86,68.77,68.67,68.63,68.68,68.72,68.75,68.79,68.80,68.80,68.79,68.75,68.64,68.65,68.67,68.62,68.46,68.37,68.40,68.43,68.35,68.35,68.42,68.43,68.37,68.33,68.36,68.36,68.32,68.24,68.25,68.28,68.29,68.25,68.25,68.28,68.37,68.47,68.45,68.45,68.43,68.41,68.40,68.35,68.33,68.29,68.25,68.23,68.19,68.15,68.12,68.12,68.08,68.03,67.97,67.92,67.85,67.90,67.94,67.93,67.88,67.82,67.78,67.75,67.74,67.74,67.72,67.68,67.64,67.58,67.55,67.52,67.51,67.50,67.44,67.41,67.36,67.30,67.23,67.24,67.28,67.33,67.33,67.31,67.30,67.30,67.31,67.32,67.32,67.22,67.00,66.76,66.77,66.80,66.80,66.80,66.76,66.73,66.70,66.70,66.69,66.69,66.69,66.68,66.65,66.64,66.61,66.55,66.47,66.33,66.25,66.24,66.27,66.20,66.27,66.42,66.57,66.60,66.62,66.64,66.62,66.50,66.28,66.12,66.03,66.00,66.00,66.00,66.00,66.00,66.00,66.00,66.00,66.00,66.00,65.97,65.93,65.91,65.89
70.59,70.61,70.62,70.58,70.53,70.49,70.41,70.35,70.31,70.29,70.27,70.30,70.33,70.36,70.35,70.31,70.31,70.27,70.19,70.16,70.16,70.13,70.08,70.06,70.14,70.25,70.34,70.37,70.34,70.27,70.22,70.21,70.22,70.16,70.13,70.16,70.26,70.32,70.36,70.37,70.35,70.32,70.29,70.27,70.26,70.25,70.25,70.23,70.20,70.18,70.13,70.11,70.09,70.07,70.05,70.02,69.98,69.92,69.82,69.71,69.64,69.61,69.64,69.65,69.68,69.71,69.73,69.70,69.60,69.50,69.42,69.36,69.28,69.23,69.21,69.21,69.21,69.15,69.12,69.10,69.05,69.06,69.08,69.09,69.06,69.01,68.97,68.92,68.88,68.98,69.06,69.04,68.98,68.96,69.03,69.00,69.00,69.04,69.00,68.96,68.97,69.00,69.03,69.07,69.03,68.99,69.01,69.12,69.08,69.03,69.01,69.09,69.06,69.00,68.97,68.98,68.91,68.84,68.75,68.67,68.63,68.68,68.73,68.76,68.77,68.79,68.80,68.79,68.76,68.67,68.66,68.66,68.62,68.45,68.35,68.35,68.37,68.34,68.35,68.39,68.38,68.32,68.27,68.29,68.29,68.26,68.21,68.25,68.29,68.31,68.31,68.33,68.35,68.40,68.48,68.51,68.51,68.48,68.46,68.47,68.41,68.38,68.35,68.30,68.25,68.20,68.15,68.12,68.12,68.11,68.06,67.99,67.91,67.85,67.90,67.95,67.98,67.93,67.82,67.76,67.74,67.72,67.73,67.72,67.69,67.64,67.61,67.59,67.56,67.52,67.46,67.40,67.38,67.37,67.33,67.29,67.27,67.28,67.31,67.32,67.30,67.27,67.27,67.31,67.35,67.37,67.27,67.05,66.81,66.79,66.79,66.78,66.77,66.73,66.70,66.69,66.71,66.71,66.71,66.70,66.69,66.67,66.64,66.60,66.54,66.44,66.31,66.24,66.23,66.26,66.19,66.27,66.42,66.57,66.60,66.62,66.61,66.55,66.42,66.24,66.10,66.02,66.00,66.00,66.00,66.00,66.00,66.00,66.00,66.00,66.00,66.00,65.97,65.93,65.91,65.89
70.66,70.70,70.70,70.65,70.57,70.50,70.41,70.37,70.33,70.28,70.27,70.30,70.34,70.36,70.34,70.31,70.30,70.26,70.18,70.16,70.14,70.09,70.03,70.06,70.19,70.32,70.42,70.46,70.46,70.40,70.36,70.36,70.38,70.28,70.22,70.22,70.29,70.35,70.39,70.40,70.38,70.34,70.33,70.29,70.23,70.20,70.24,70.24,70.21,70.18,70.13,70.15,70.14,70.08,70.08,70.03,69.95,69.86,69.79,69.73,69.71,69.70,69.70,69.64,69.65,69.68,69.69,69.67,69.63,69.54,69.46,69.42,69.26,69.21,69.21,69.23,69.23,69.17,69.14,69.12,69.10,69.05,69.06,69.07,69.04,69.08,69.05,68.98,68.93,68.99,69.04,69.01,68.95,68.91,68.98,68.96,68.96,69.00,69.00,68.93,68.93,68.96,68.96,69.04,69.01,68.97,69.00,69.05,69.02,68.96,68.92,69.00,69.00,68.97,68.94,68.95,68.91,68.84,68.74,68.65,68.64,68.69,68.74,68.77,68.75,68.78,68.79,68.78,68.75,68.70,68.64,68.62,68.59,68.44,68.34,68.31,68.33,68.36,68.36,68.35,68.32,68.28,68.25,68.28,68.29,68.26,68.22,68.29,68.34,68.37,68.40,68.41,68.41,68.41,68.43,68.51,68.50,68.47,68.46,68.49,68.43,68.41,68.40,68.36,68.29,68.22,68.18,68.16,68.14,68.13,68.09,68.01,67.92,67.87,67.91,67.99,68.05,68.01,67.86,67.79,67.77,67.76,67.77,67.77,67.74,67.70,67.70,67.67,67.62,67.55,67.43,67.37,67.37,67.38,67.37,67.35,67.32,67.30,67.30,67.33,67.29,67.26,67.26,67.32,67.38,67.40,67.31,67.09,66.87,66.83,66.81,66.79,66.77,66.73,66.71,66.72,66.76,66.75,66.73,66.71,66.70,66.68,66.65,66.60,66.52,66.41,66.29,66.24,66.23,66.24,66.17,66.26,66.42,66.56,66.60,66.61,66.55,66.46,66.34,66.20,66.10,66.04,66.01,66.01,66.01,66.01,66.01,66.01,66.00,66.00,66.00,65.99,65.96,65.92,65.90,65.88
70.65,70.69,70.70,70.68,70.63,70.53,70.43,70.37,70.32,70.28,70.31,70.35,70.38,70.38,70.35,70.31,70.30,70.27,70.22,70.18,70.12,70.04,70.00,70.05,70.19,70.28,70.31,70.30,70.31,70.32,70.32,70.31,70.29,70.18,70.17,70.24,70.33,70.37,70.39,70.39,70.36,70.37,70.41,70.37,70.28,70.23,70.23,70.21,70.19,70.14,70.09,70.13,70.15,70.14,70.08,70.00,69.88,69.78,69.73,69.71,69.70,69.71,69.72,69.67,69.64,69.64,69.66,69.63,69.61,69.57,69.52,69.47,69.28,69.22,69.24,69.29,69.29,69.24,69.20,69.17,69.13,69.07,69.06,69.06,69.04,69.03,69.04,69.00,68.96,69.00,68.99,68.95,68.93,68.94,68.99,68.99,68.97,68.96,68.96,68.92,68.91,68.92,68.92,68.97,68.95,68.93,68.97,68.98,68.97,68.94,68.92,69.00,68.97,68.97,68.95,68.88,68.90,68.86,68.75,68.62,68.64,68.68,68.69,68.70,68.78,68.76,68.76,68.74,68.71,68.69,68.59,68.55,68.54,68.47,68.38,68.34,68.35,68.37,68.39,68.34,68.29,68.25,68.24,68.28,68.27,68.24,68.22,68.30,68.36,68.39,68.37,68.26,68.23,68.21,68.19,68.20,68.21,68.22,68.23,68.24,68.19,68.21,68.26,68.30,68.28,68.23,68.21,68.19,68.11,68.04,68.02,67.99,67.93,67.87,67.90,67.98,68.03,68.02,67.87,67.80,67.79,67.79,67.78,67.75,67.73,67.73,67.78,67.78,67.72,67.61,67.45,67.39,67.40,67.42,67.42,67.39,67.37,67.37,67.39,67.41,67.34,67.26,67.24,67.30,67.36,67.36,67.30,67.20,67.05,66.98,66.96,66.97,66.96,66.95,66.94,66.94,66.93,66.88,66.82,66.77,66.72,66.70,66.68,66.63,66.54,66.43,66.31,66.26,66.24,66.24,66.16,66.24,66.39,66.54,66.60,66.55,66.46,66.36,66.27,66.18,66.13,66.11,66.09,66.07,66.07,66.07,66.07,66.07,66.04,66.01,66.00,65.99,65.95,65.89,65.85,65.82
70.64,70.69,70.72,70.71,70.64,70.52,70.42,70.38,70.34,70.32,70.35,70.39,70.42,70.41,70.37,70.33,70.32,70.30,70.25,70.17,70.09,70.03,70.03,70.07,70.18,70.24,70.25,70.22,70.23,70.25,70.25,70.23,70.19,70.13,70.16,70.25,70.33,70.37,70.39,70.39,70.38,70.41,70.45,70.42,70.34,70.30,70.26,70.23,70.19,70.13,70.07,70.09,70.14,70.15,70.04,69.92,69.80,69.71,69.65,69.65,69.66,69.69,69.72,69.67,69.63,69.63,69.66,69.65,69.62,69.58,69.53,69.49,69.34,69.29,69.30,69.35,69.33,69.30,69.25,69.20,69.17,69.09,69.06,69.05,69.03,69.00,69.00,68.98,68.95,68.97,68.96,68.94,68.94,68.97,68.99,69.00,68.98,68.94,68.93,68.91,68.90,68.90,68.90,68.93,68.91,68.91,68.94,68.96,68.94,68.92,68.91,68.97,68.92,68.92,68.90,68.81,68.86,68.87,68.76,68.58,68.60,68.61,68.59,68.60,68.72,68.72,68.71,68.69,68.66,68.64,68.57,68.55,68.56,68.52,68.44,68.41,68.42,68.44,68.46,68.37,68.28,68.23,68.25,68.28,68.26,68.22,68.22,68.33,68.41,68.40,68.29,68.10,68.07,68.05,68.02,68.00,68.00,68.01,68.03,68.04,68.00,68.06,68.14,68.22,68.24,68.24,68.25,68.22,68.11,68.00,67.96,67.96,67.96,67.86,67.90,67.97,68.02,68.01,67.91,67.85,67.83,67.82,67.79,67.74,67.72,67.73,67.76,67.75,67.68,67.57,67.44,67.42,67.45,67.49,67.52,67.45,67.41,67.40,67.42,67.43,67.35,67.27,67.25,67.31,67.35,67.33,67.30,67.25,67.15,67.06,67.04,67.05,67.06,67.05,67.04,67.03,67.02,66.98,66.91,66.84,66.77,66.72,66.72,66.66,66.57,66.44,66.32,66.27,66.25,66.24,66.16,66.24,66.39,66.54,66.59,66.52,66.42,66.31,66.22,66.11,66.09,66.10,66.11,66.10,66.09,66.10,66.10,66.10,66.06,66.03,66.01,65.99,65.93,65.83,65.75,65.69
70.62,70.70,70.75,70.74,70.63,70.46,70.39,70.39,70.38,70.38,70.40,70.42,70.44,70.44,70.42,70.38,70.36,70.33,70.27,70.15,70.06,70.05,70.09,70.12,70.17,70.21,70.22,70.20,70.20,70.18,70.17,70.14,70.09,70.11,70.18,70.26,70.30,70.36,70.39,70.41,70.44,70.46,70.48,70.47,70.43,70.42,70.33,70.28,70.22,70.13,70.05,70.06,70.09,70.10,69.97,69.80,69.71,69.66,69.56,69.56,69.60,69.65,69.70,69.64,69.61,69.64,69.70,69.73,69.65,69.57,69.51,69.49,69.43,69.40,69.40,69.39,69.37,69.37,69.30,69.21,69.20,69.11,69.08,69.05,69.01,68.98,68.95,68.93,68.93,68.93,68.96,68.97,68.98,69.00,69.00,69.00,68.97,68.91,68.90,68.90,68.90,68.90,68.90,68.90,68.90,68.90,68.91,68.97,68.93,68.90,68.90,68.92,68.85,68.83,68.81,68.73,68.80,68.86,68.75,68.52,68.52,68.48,68.45,68.47,68.57,68.66,68.65,68.62,68.61,68.55,68.57,68.62,68.64,68.57,68.51,68.49,68.52,68.57,68.56,68.44,68.30,68.22,68.28,68.29,68.25,68.21,68.23,68.37,68.47,68.41,68.15,67.95,67.92,67.91,67.91,67.89,67.84,67.83,67.85,67.89,67.86,67.95,68.06,68.12,68.16,68.25,68.29,68.24,68.14,67.99,67.91,67.92,68.00,67.86,67.89,67.96,68.00,68.00,67.98,67.93,67.89,67.86,67.79,67.73,67.70,67.70,67.68,67.61,67.53,67.46,67.40,67.43,67.51,67.59,67.64,67.54,67.44,67.40,67.40,67.40,67.34,67.29,67.27,67.34,67.35,67.32,67.29,67.25,67.17,67.09,67.05,67.06,67.10,67.07,67.03,67.02,67.05,67.05,66.99,66.91,66.84,66.76,66.76,66.71,66.60,66.46,66.33,66.27,66.25,66.24,66.16,66.26,66.41,66.56,66.59,66.51,66.41,66.30,66.19,66.02,66.00,66.04,66.09,66.10,66.10,66.10,66.10,66.09,66.08,66.05,66.02,65.98,65.89,65.74,65.61,65.51
70.63,70.73,70.80,70.78,70.67,70.52,70.45,70.43,70.42,70.41,70.40,70.42,70.42,70.42,70.42,70.40,70.39,70.35,70.27,70.13,70.06,70.07,70.13,70.16,70.18,70.20,70.21,70.20,70.17,70.15,70.12,70.08,70.04,70.12,70.21,70.28,70.30,70.33,70.38,70.44,70.47,70.48,70.47,70.47,70.49,70.48,70.42,70.38,70.32,70.23,70.14,70.11,70.10,70.08,69.93,69.81,69.74,69.66,69.51,69.51,69.56,69.63,69.68,69.63,69.61,69.66,69.74,69.73,69.65,69.59,69.56,69.55,69.45,69.42,69.40,69.39,69.34,69.34,69.28,69.24,69.29,69.20,69.15,69.13,69.11,69.06,69.03,69.00,68.96,68.92,68.97,68.99,68.99,69.00,69.00,69.00,68.94,68.86,68.89,68.90,68.90,68.89,68.84,68.79,68.84,68.90,68.90,68.93,68.87,68.86,68.90,68.91,68.92,68.87,68.80,68.76,68.70,68.70,68.66,68.57,68.57,68.51,68.51,68.56,68.64,68.68,68.64,68.59,68.55,68.57,68.63,68.67,68.68,68.65,68.63,68.63,68.64,68.66,68.64,68.49,68.35,68.30,68.38,68.44,68.42,68.34,68.27,68.31,68.37,68.32,68.11,67.98,67.93,67.91,67.93,67.94,67.89,67.87,67.88,67.90,67.89,67.93,67.99,68.05,68.06,68.11,68.15,68.14,68.04,67.97,67.92,67.90,67.92,67.84,67.88,67.95,68.00,68.00,67.99,67.97,67.95,67.93,67.85,67.80,67.76,67.74,67.71,67.61,67.57,67.54,67.49,67.47,67.53,67.60,67.63,67.54,67.45,67.41,67.42,67.41,67.33,67.29,67.29,67.32,67.29,67.29,67.27,67.23,67.16,67.11,67.08,67.08,67.10,67.09,67.06,67.05,67.06,67.05,66.99,66.92,66.87,66.83,66.80,66.71,66.60,66.48,66.36,66.28,66.25,66.24,66.16,66.25,66.41,66.56,66.57,66.50,66.42,66.33,66.22,66.03,65.96,65.98,66.05,66.09,66.10,66.09,66.08,66.05,66.03,66.02,66.00,65.96,65.87,65.73,65.58,65.44
70.63,70.75,70.81,70.78,70.68,70.56,70.49,70.47,70.45,70.43,70.40,70.41,70.41,70.41,70.40,70.39,70.38,70.35,70.26,70.12,70.08,70.11,70.17,70.18,70.19,70.20,70.20,70.20,70.17,70.14,70.11,70.07,70.05,70.14,70.23,70.27,70.28,70.30,70.36,70.42,70.47,70.49,70.47,70.48,70.52,70.52,70.50,70.46,70.41,70.32,70.24,70.18,70.13,70.05,69.89,69.80,69.74,69.66,69.49,69.49,69.53,69.59,69.63,69.60,69.61,69.68,69.75,69.71,69.65,69.62,69.62,69.61,69.50,69.44,69.41,69.38,69.31,69.30,69.26,69.25,69.34,69.26,69.23,69.23,69.21,69.15,69.14,69.10,69.03,68.96,69.00,69.02,69.02,69.00,68.98,68.96,68.91,68.84,68.89,68.90,68.90,68.88,68.82,68.76,68.83,68.89,68.90,68.91,68.85,68.84,68.88,68.90,68.95,68.89,68.81,68.79,68.64,68.60,68.59,68.58,68.60,68.55,68.56,68.62,68.67,68.69,68.65,68.59,68.54,68.58,68.66,68.71,68.70,68.70,68.73,68.75,68.75,68.74,68.71,68.57,68.44,68.39,68.48,68.56,68.54,68.44,68.29,68.29,68.32,68.27,68.08,67.99,67.95,67.94,67.95,67.98,67.94,67.92,67.91,67.91,67.92,67.92,67.94,67.99,67.99,67.99,68.02,68.03,67.96,67.94,67.92,67.90,67.87,67.82,67.87,67.94,68.00,68.00,68.00,68.00,67.99,67.97,67.90,67.87,67.84,67.80,67.74,67.64,67.61,67.61,67.55,67.50,67.54,67.59,67.59,67.53,67.46,67.43,67.42,67.40,67.32,67.28,67.28,67.28,67.24,67.24,67.23,67.20,67.14,67.11,67.10,67.10,67.10,67.10,67.09,67.07,67.07,67.05,66.99,66.93,66.89,66.87,66.80,66.70,66.58,66.48,66.37,66.29,66.25,66.24,66.16,66.25,66.41,66.57,66.58,66.51,66.45,66.37,66.27,66.07,65.96,65.96,66.02,66.06,66.08,66.08,66.05,66.02,66.01,66.01,66.00,65.96,65.86,65.73,65.56,65.40
70.63,70.75,70.77,70.72,70.64,70.55,70.50,70.49,70.47,70.44,70.40,70.40,70.40,70.39,70.36,70.32,70.31,70.29,70.23,70.15,70.14,70.17,70.19,70.20,70.20,70.20,70.20,70.20,70.19,70.19,70.16,70.13,70.14,70.18,70.21,70.22,70.22,70.26,70.30,70.34,70.40,70.46,70.48,70.49,70.50,70.50,70.54,70.53,70.48,70.41,70.33,70.27,70.16,70.02,69.87,69.77,69.72,69.65,69.53,69.51,69.52,69.53,69.53,69.53,69.61,69.70,69.75,69.66,69.67,69.68,69.68,69.68,69.61,69.49,69.42,69.38,69.25,69.27,69.26,69.25,69.30,69.28,69.31,69.32,69.29,69.26,69.25,69.22,69.16,69.10,69.09,69.09,69.06,69.00,68.92,68.86,68.85,68.88,68.90,68.90,68.90,68.89,68.87,68.87,68.89,68.90,68.91,68.95,68.90,68.85,68.83,68.90,68.89,68.87,68.84,68.79,68.66,68.61,68.56,68.51,68.59,68.59,68.59,68.60,68.62,68.68,68.69,68.65,68.58,68.56,68.67,68.73,68.72,68.68,68.79,68.82,68.82,68.81,68.76,68.69,68.59,68.52,68.57,68.59,68.55,68.45,68.31,68.36,68.35,68.26,68.09,67.99,67.98,67.99,67.99,68.00,67.98,67.96,67.93,67.93,67.94,67.93,67.93,67.96,67.96,67.93,67.92,67.92,67.91,67.91,67.92,67.93,67.90,67.82,67.84,67.92,68.00,68.00,68.00,68.00,67.99,67.97,67.93,67.92,67.91,67.87,67.78,67.71,67.67,67.64,67.57,67.51,67.52,67.53,67.54,67.51,67.47,67.43,67.40,67.37,67.29,67.25,67.23,67.22,67.18,67.17,67.16,67.14,67.11,67.10,67.10,67.10,67.10,67.10,67.10,67.10,67.09,67.06,66.99,66.93,66.89,66.85,66.76,66.65,66.55,66.44,66.33,66.29,66.27,66.24,66.16,66.26,66.43,66.59,66.62,66.57,66.52,66.46,66.35,66.15,66.01,65.97,65.99,66.03,66.04,66.03,66.02,66.00,66.03,66.05,66.03,65.96,65.87,65.74,65.58,65.43
70.55,70.64,70.68,70.67,70.62,70.55,70.53,70.54,70.53,70.50,70.44,70.41,70.40,70.39,70.34,70.33,70.30,70.25,70.18,70.13,70.16,70.20,70.24,70.25,70.25,70.24,70.22,70.21,70.21,70.20,70.17,70.14,70.17,70.24,70.30,70.33,70.30,70.30,70.30,70.33,70.38,70.43,70.42,70.42,70.43,70.46,70.50,70.51,70.48,70.42,70.39,70.34,70.18,69.95,69.83,69.76,69.69,69.61,69.51,69.53,69.57,69.58,69.53,69.53,69.62,69.70,69.72,69.66,69.68,69.69,69.68,69.68,69.63,69.51,69.43,69.38,69.26,69.28,69.29,69.28,69.29,69.29,69.31,69.32,69.31,69.26,69.24,69.23,69.20,69.17,69.12,69.10,69.07,69.00,68.90,68.84,68.85,68.90,68.90,68.89,68.88,68.87,68.84,68.89,68.91,68.91,68.90,68.91,68.87,68.82,68.81,68.85,68.82,68.82,68.82,68.77,68.66,68.63,68.57,68.48,68.57,68.59,68.60,68.60,68.61,68.66,68.65,68.63,68.59,68.54,68.65,68.71,68.69,68.62,68.69,68.72,68.72,68.71,68.68,68.65,68.61,68.57,68.60,68.59,68.55,68.47,68.33,68.37,68.31,68.19,68.06,67.96,67.98,68.00,68.00,68.00,68.02,67.99,67.97,67.96,67.93,67.91,67.91,67.93,67.93,67.91,67.90,67.90,67.90,67.92,67.95,67.96,67.92,67.82,67.83,67.91,68.00,68.00,68.00,68.00,67.99,67.97,67.92,67.92,67.91,67.87,67.79,67.74,67.70,67.65,67.57,67.52,67.53,67.55,67.56,67.54,67.51,67.47,67.43,67.40,67.33,67.27,67.25,67.23,67.18,67.17,67.16,67.13,67.10,67.10,67.10,67.10,67.10,67.10,67.10,67.10,67.10,67.06,66.99,66.93,66.89,66.84,66.74,66.63,66.52,66.42,66.32,66.29,66.27,66.22,66.18,66.29,66.44,66.57,66.60,66.60,66.60,66.56,66.46,66.22,66.05,65.98,65.99,66.01,66.02,66.02,66.03,66.02,66.04,66.07,66.06,65.99,65.88,65.74,65.59,65.45
70.45,70.51,70.58,70.61,70.59,70.54,70.54,70.58,70.58,70.55,70.47,70.42,70.40,70.38,70.34,70.34,70.30,70.21,70.12,70.12,70.17,70.23,70.28,70.30,70.30,70.28,70.25,70.23,70.22,70.20,70.16,70.14,70.19,70.31,70.42,70.46,70.42,70.36,70.33,70.34,70.37,70.39,70.35,70.34,70.36,70.41,70.44,70.45,70.44,70.41,70.39,70.36,70.16,69.87,69.78,69.74,69.66,69.57,69.48,69.54,69.62,69.63,69.57,69.56,69.63,69.68,69.69,69.67,69.68,69.68,69.66,69.65,69.61,69.52,69.45,69.39,69.28,69.32,69.33,69.32,69.31,69.30,69.30,69.31,69.33,69.24,69.21,69.20,69.20,69.20,69.13,69.10,69.07,69.00,68.90,68.86,68.87,68.90,68.90,68.87,68.85,68.84,68.81,68.88,68.92,68.93,68.89,68.85,68.82,68.80,68.79,68.79,68.76,68.76,68.77,68.73,68.66,68.64,68.57,68.47,68.54,68.58,68.60,68.60,68.60,68.63,68.60,68.57,68.57,68.50,68.60,68.66,68.65,68.56,68.58,68.58,68.58,68.58,68.57,68.57,68.58,68.59,68.59,68.58,68.55,68.48,68.36,68.36,68.25,68.12,68.02,67.94,67.97,68.00,68.00,68.01,68.05,68.04,68.00,67.98,67.92,67.91,67.91,67.90,67.89,67.89,67.90,67.90,67.91,67.93,67.96,67.97,67.93,67.82,67.83,67.90,67.99,67.99,67.99,67.98,67.98,67.96,67.91,67.90,67.89,67.86,67.80,67.77,67.72,67.65,67.57,67.53,67.55,67.57,67.58,67.58,67.56,67.52,67.47,67.45,67.38,67.32,67.28,67.26,67.21,67.19,67.18,67.15,67.12,67.12,67.12,67.12,67.11,67.10,67.10,67.10,67.10,67.05,66.98,66.92,66.88,66.84,66.73,66.62,66.51,66.40,66.31,66.30,66.28,66.22,66.20,66.33,66.45,66.53,66.57,66.63,66.66,66.64,66.54,66.28,66.10,66.02,66.02,66.01,66.01,66.03,66.05,66.04,66.05,66.08,66.07,66.00,65.89,65.74,65.59,65.47
70.42,70.43,70.46,70.49,70.49,70.49,70.52,70.55,70.54,70.48,70.42,70.41,70.40,70.38,70.34,70.32,70.25,70.17,70.10,70.14,70.22,70.27,70.29,70.30,70.30,70.29,70.28,70.28,70.24,70.18,70.14,70.15,70.25,70.39,70.49,70.52,70.51,70.48,70.42,70.36,70.33,70.35,70.33,70.32,70.32,70.33,70.36,70.37,70.38,70.35,70.20,70.09,69.95,69.80,69.76,69.71,69.64,69.57,69.54,69.55,69.58,69.59,69.55,69.53,69.59,69.65,69.69,69.67,69.68,69.66,69.63,69.61,69.57,69.53,69.48,69.44,69.36,69.40,69.39,69.36,69.35,69.39,69.41,69.41,69.38,69.28,69.23,69.20,69.20,69.20,69.13,69.08,69.04,69.00,68.95,68.94,68.93,68.91,68.90,68.85,68.82,68.82,68.85,68.89,68.92,68.92,68.89,68.82,68.80,68.78,68.74,68.73,68.72,68.70,68.69,68.66,68.62,68.59,68.54,68.49,68.51,68.54,68.57,68.60,68.60,68.64,68.55,68.49,68.52,68.40,68.43,68.53,68.61,68.57,68.57,68.55,68.52,68.51,68.47,68.47,68.50,68.54,68.54,68.54,68.52,68.47,68.38,68.33,68.23,68.11,68.01,67.98,67.99,68.00,68.00,68.02,68.11,68.10,68.03,67.98,67.93,67.95,67.96,67.92,67.84,67.84,67.87,67.90,67.90,67.90,67.89,67.89,67.89,67.81,67.82,67.87,67.93,67.93,67.92,67.90,67.89,67.92,67.90,67.90,67.89,67.86,67.80,67.78,67.72,67.65,67.57,67.52,67.51,67.53,67.56,67.59,67.59,67.57,67.53,67.49,67.44,67.39,67.32,67.26,67.23,67.23,67.22,67.19,67.20,67.21,67.21,67.20,67.18,67.12,67.10,67.10,67.09,67.03,66.95,66.89,66.85,66.81,66.73,66.63,66.51,66.40,66.32,66.32,66.31,66.27,66.24,66.35,66.45,66.52,66.57,66.60,66.62,66.59,66.51,66.33,66.20,66.13,66.11,66.08,66.05,66.05,66.05,66.05,66.05,66.04,66.01,65.96,65.87,65.74,65.62,65.53
70.48,70.44,70.43,70.42,70.42,70.42,70.45,70.48,70.46,70.42,70.39,70.40,70.39,70.37,70.33,70.29,70.22,70.15,70.12,70.19,70.27,70.31,70.32,70.31,70.30,70.30,70.30,70.30,70.25,70.18,70.15,70.20,70.31,70.43,70.51,70.55,70.56,70.55,70.52,70.46,70.38,70.32,70.31,70.30,70.30,70.28,70.29,70.29,70.27,70.22,70.03,69.91,69.82,69.75,69.71,69.67,69.62,69.58,69.57,69.55,69.52,69.49,69.47,69.49,69.55,69.61,69.66,69.67,69.67,69.64,69.61,69.60,69.57,69.53,69.50,69.47,69.40,69.44,69.44,69.42,69.41,69.46,69.47,69.46,69.43,69.36,69.32,69.28,69.24,69.23,69.17,69.10,69.07,69.09,69.08,69.03,68.96,68.91,68.90,68.84,68.82,68.84,68.88,68.90,68.89,68.88,68.86,68.81,68.80,68.78,68.74,68.70,68.70,68.69,68.66,68.62,68.60,68.54,68.48,68.46,68.46,68.48,68.50,68.54,68.56,68.56,68.48,68.44,68.48,68.31,68.33,68.44,68.58,68.61,68.56,68.50,68.46,68.46,68.45,68.44,68.47,68.55,68.55,68.55,68.53,68.48,68.43,68.35,68.26,68.14,68.00,67.97,67.96,67.97,67.98,68.04,68.19,68.18,68.07,67.95,67.94,68.01,68.07,68.03,67.90,67.88,67.89,67.90,67.90,67.89,67.88,67.88,67.90,67.82,67.82,67.86,67.91,67.91,67.90,67.88,67.87,67.91,67.90,67.90,67.90,67.88,67.84,67.81,67.76,67.71,67.64,67.56,67.52,67.52,67.53,67.56,67.58,67.57,67.53,67.48,67.47,67.43,67.37,67.31,67.29,67.29,67.28,67.25,67.25,67.24,67.23,67.20,67.16,67.09,67.06,67.06,67.05,67.01,66.94,66.88,66.83,66.78,66.72,66.64,66.54,66.42,66.34,66.32,66.31,66.25,66.23,66.36,66.48,66.57,66.62,66.62,66.63,66.62,66.58,66.47,66.40,66.36,66.33,66.30,66.27,66.25,66.24,66.22,66.18,66.14,66.08,66.03,65.97,65.86,65.75,65.67
70.60,70.52,70.44,70.39,70.35,70.32,70.35,70.37,70.36,70.35,70.37,70.39,70.38,70.35,70.32,70.27,70.20,70.16,70.17,70.25,70.31,70.35,70.36,70.33,70.31,70.30,70.30,70.30,70.25,70.18,70.18,70.27,70.37,70.45,70.50,70.54,70.57,70.59,70.63,70.61,70.48,70.31,70.28,70.29,70.29,70.25,70.23,70.19,70.13,70.03,69.87,69.80,69.76,69.71,69.65,69.62,69.61,69.60,69.60,69.54,69.44,69.37,69.35,69.45,69.49,69.55,69.62,69.68,69.65,69.62,69.60,69.60,69.59,69.55,69.51,69.49,69.43,69.46,69.48,69.49,69.49,69.50,69.50,69.50,69.49,69.48,69.47,69.40,69.31,69.29,69.22,69.15,69.14,69.25,69.27,69.12,68.98,68.91,68.90,68.84,68.85,68.89,68.90,68.90,68.85,68.81,68.81,68.80,68.80,68.80,68.77,68.70,68.70,68.70,68.67,68.60,68.60,68.48,68.40,68.40,68.40,68.40,68.41,68.43,68.50,68.42,68.40,68.43,68.45,68.25,68.27,68.39,68.54,68.67,68.54,68.45,68.40,68.41,68.48,68.45,68.49,68.60,68.60,68.60,68.56,68.51,68.49,68.41,68.32,68.18,67.99,67.92,67.90,67.91,67.95,68.06,68.29,68.27,68.10,67.91,67.95,68.11,68.22,68.21,68.02,67.98,67.94,67.90,67.90,67.90,67.91,67.93,67.94,67.82,67.82,67.86,67.90,67.91,67.91,67.90,67.90,67.90,67.90,67.90,67.91,67.92,67.89,67.85,67.83,67.81,67.76,67.64,67.56,67.52,67.51,67.52,67.55,67.54,67.49,67.44,67.48,67.47,67.43,67.39,67.37,67.34,67.34,67.34,67.28,67.23,67.19,67.14,67.06,67.02,67.00,67.00,66.99,66.97,66.93,66.87,66.80,66.75,66.71,66.66,66.58,66.45,66.36,66.32,66.27,66.20,66.20,66.37,66.54,66.66,66.70,66.67,66.68,66.70,66.71,66.68,66.67,66.67,66.66,66.63,66.59,66.57,66.55,66.51,66.42,66.33,66.25,66.19,66.15,66.06,65.96,65.88
70.68,70.63,70.53,70.47,70.42,70.35,70.31,70.28,70.27,70.26,70.28,70.31,70.31,70.29,70.25,70.21,70.15,70.15,70.20,70.28,70.33,70.37,70.38,70.34,70.31,70.30,70.30,70.29,70.22,70.17,70.19,70.27,70.36,70.44,70.49,70.54,70.61,70.68,70.73,70.71,70.62,70.41,70.29,70.24,70.22,70.18,70.19,70.12,70.01,69.90,69.79,69.77,69.74,69.68,69.66,69.60,69.56,69.51,69.44,69.36,69.30,69.28,69.31,69.40,69.46,69.51,69.55,69.62,69.58,69.55,69.53,69.54,69.57,69.54,69.51,69.50,69.48,69.49,69.48,69.45,69.44,69.48,69.47,69.44,69.44,69.43,69.42,69.40,69.34,69.26,69.25,69.18,69.16,69.27,69.33,69.23,69.11,69.02,68.93,68.88,68.88,68.90,68.90,68.90,68.82,68.75,68.74,68.74,68.78,68.77,68.74,68.76,68.75,68.72,68.68,68.66,68.57,68.46,68.40,68.38,68.30,68.32,68.37,68.41,68.44,68.46,68.46,68.46,68.47,68.31,68.34,68.40,68.45,68.49,68.44,68.41,68.43,68.49,68.51,68.56,68.61,68.65,68.67,68.70,68.67,68.59,68.51,68.43,68.34,68.23,68.08,67.98,67.93,67.92,67.94,68.04,68.27,68.32,68.20,67.99,67.97,68.07,68.17,68.19,68.01,67.95,67.91,67.90,67.90,67.90,67.91,67.92,67.92,67.82,67.81,67.85,67.89,67.91,67.91,67.90,67.88,67.89,67.89,67.91,67.94,67.94,67.93,67.91,67.89,67.87,67.85,67.76,67.69,67.65,67.61,67.55,67.52,67.50,67.48,67.45,67.45,67.41,67.36,67.33,67.32,67.29,67.27,67.26,67.24,67.21,67.16,67.11,67.04,67.00,66.98,66.96,66.95,66.93,66.90,66.86,66.81,66.75,66.71,66.66,66.58,66.43,66.34,66.31,66.27,66.20,66.20,66.37,66.53,66.64,66.67,66.68,66.72,66.74,66.73,66.73,66.74,66.75,66.75,66.75,66.73,66.70,66.67,66.61,66.58,66.56,66.53,66.48,66.45,66.41,66.35,66.28
70.76,70.72,70.61,70.55,70.49,70.40,70.33,70.27,70.24,70.23,70.22,70.24,70.24,70.22,70.18,70.15,70.13,70.15,70.23,70.30,70.35,70.37,70.36,70.31,70.29,70.29,70.29,70.27,70.18,70.17,70.22,70.30,70.38,70.44,70.47,70.51,70.59,70.68,70.73,70.74,70.69,70.52,70.40,70.32,70.24,70.15,70.13,70.03,69.90,69.80,69.75,69.75,69.72,69.66,69.65,69.57,69.51,69.43,69.32,69.24,69.21,69.23,69.29,69.36,69.42,69.47,69.52,69.59,69.52,69.49,69.48,69.51,69.52,69.51,69.50,69.50,69.52,69.52,69.49,69.45,69.44,69.49,69.46,69.42,69.43,69.39,69.40,69.40,69.36,69.25,69.26,69.20,69.18,69.30,69.37,69.31,69.20,69.09,68.95,68.91,68.90,68.91,68.91,68.91,68.83,68.75,68.73,68.71,68.77,68.76,68.72,68.79,68.76,68.70,68.67,68.68,68.56,68.45,68.40,68.38,68.26,68.29,68.35,68.40,68.40,68.47,68.47,68.47,68.48,68.37,68.38,68.40,68.39,68.37,68.37,68.41,68.47,68.55,68.56,68.63,68.66,68.67,68.69,68.75,68.73,68.64,68.53,68.46,68.37,68.25,68.10,68.01,67.96,67.93,67.94,68.01,68.20,68.27,68.21,68.04,67.98,68.03,68.10,68.14,68.00,67.94,67.91,67.91,67.90,67.90,67.91,67.91,67.89,67.81,67.81,67.84,67.88,67.90,67.90,67.88,67.88,67.89,67.89,67.93,67.95,67.94,67.94,67.94,67.93,67.91,67.91,67.84,67.79,67.75,67.71,67.62,67.57,67.53,67.51,67.49,67.45,67.38,67.32,67.30,67.29,67.28,67.25,67.23,67.22,67.20,67.16,67.10,67.04,67.00,66.97,66.95,66.93,66.91,66.89,66.87,66.83,66.77,66.72,66.66,66.56,66.41,66.32,66.30,66.27,66.21,66.23,66.38,66.52,66.61,66.64,66.68,66.73,66.77,66.76,66.77,66.79,66.81,66.81,66.83,66.81,66.79,66.75,66.70,66.70,66.72,66.71,66.68,66.66,66.66,66.63,66.58
70.83,70.79,70.71,70.64,70.56,70.49,70.44,70.38,70.32,70.26,70.22,70.21,70.19,70.15,70.12,70.11,70.13,70.19,70.27,70.33,70.37,70.35,70.28,70.22,70.25,70.27,70.27,70.22,70.15,70.18,70.27,70.36,70.43,70.47,70.46,70.45,70.47,70.56,70.61,70.64,70.66,70.67,70.67,70.56,70.37,70.20,70.05,69.91,69.80,69.73,69.75,69.73,69.70,69.67,69.60,69.53,69.45,69.36,69.27,69.22,69.20,69.22,69.27,69.34,69.37,69.43,69.52,69.61,69.50,69.44,69.45,69.51,69.44,69.44,69.46,69.48,69.54,69.56,69.55,69.52,69.52,69.52,69.48,69.46,69.47,69.40,69.40,69.39,69.35,69.28,69.23,69.19,69.21,69.32,69.38,69.34,69.23,69.10,68.98,68.92,68.92,68.94,68.94,68.94,68.88,68.83,68.80,68.74,68.78,68.76,68.71,68.76,68.70,68.64,68.63,68.66,68.57,68.46,68.40,68.39,68.33,68.34,68.37,68.40,68.40,68.44,68.43,68.44,68.49,68.41,68.40,68.40,68.39,68.36,68.36,68.43,68.52,68.59,68.63,68.65,68.64,68.63,68.66,68.72,68.70,68.62,68.54,68.49,68.40,68.23,68.01,67.99,67.96,67.95,67.95,67.98,68.05,68.08,68.07,68.06,68.00,67.98,68.00,68.04,67.99,67.96,67.95,67.93,67.90,67.90,67.90,67.88,67.84,67.81,67.81,67.84,67.86,67.87,67.87,67.87,67.88,67.89,67.90,67.94,67.94,67.89,67.88,67.92,67.93,67.91,67.90,67.84,67.82,67.82,67.82,67.75,67.70,67.67,67.63,67.59,67.50,67.40,67.33,67.29,67.30,67.31,67.30,67.27,67.24,67.22,67.17,67.11,67.07,67.03,66.99,66.96,66.94,66.91,66.89,66.88,66.85,66.79,66.72,66.64,66.53,66.38,66.32,66.30,66.28,66.24,66.29,66.42,66.52,66.58,66.61,66.65,66.72,66.77,66.79,66.81,66.83,66.84,66.84,66.85,66.82,66.80,66.79,66.77,66.77,66.76,66.75,66.75,66.76,66.76,66.75,66.73
70.83,70.79,70.76,70.71,70.64,70.55,70.52,70.51,70.47,70.41,70.31,70.23,70.18,70.14,70.12,70.12,70.17,70.24,70.30,70.33,70.33,70.30,70.25,70.21,70.22,70.23,70.22,70.18,70.13,70.19,70.28,70.37,70.42,70.44,70.43,70.42,70.43,70.50,70.55,70.60,70.65,70.71,70.76,70.71,70.57,70.38,70.06,69.85,69.74,69.69,69.70,69.67,69.61,69.53,69.45,69.35,69.30,69.27,69.26,69.23,69.21,69.21,69.24,69.29,69.32,69.38,69.46,69.55,69.46,69.43,69.43,69.44,69.37,69.38,69.41,69.44,69.49,69.49,69.48,69.50,69.53,69.55,69.53,69.50,69.49,69.45,69.44,69.39,69.33,69.25,69.22,69.22,69.26,69.33,69.36,69.31,69.22,69.09,68.98,68.94,68.96,69.00,69.00,69.00,68.93,68.89,68.90,68.82,68.80,68.77,68.74,68.76,68.69,68.65,68.63,68.62,68.49,68.43,68.42,68.47,68.47,68.48,68.47,68.49,68.54,68.53,68.51,68.50,68.50,68.47,68.45,68.42,68.40,68.41,68.42,68.49,68.57,68.61,68.67,68.69,68.65,68.57,68.60,68.65,68.63,68.57,68.52,68.52,68.42,68.23,67.98,67.96,67.94,67.93,67.95,67.97,67.97,67.97,67.98,68.00,68.00,67.98,67.98,67.99,67.96,67.95,67.96,67.97,67.93,67.91,67.90,67.88,67.84,67.80,67.79,67.83,67.88,67.87,67.86,67.87,67.89,67.91,67.93,67.94,67.92,67.89,67.89,67.94,67.93,67.88,67.85,67.81,67.79,67.80,67.84,67.80,67.74,67.69,67.66,67.62,67.58,67.50,67.40,67.34,67.35,67.39,67.44,67.48,67.45,67.39,67.31,67.23,67.18,67.15,67.10,67.04,66.99,66.94,66.91,66.89,66.87,66.82,66.75,66.66,66.53,66.36,66.29,66.29,66.28,66.25,66.30,66.43,66.55,66.65,66.70,66.70,66.73,66.77,66.82,66.86,66.87,66.87,66.87,66.87,66.86,66.84,66.81,66.79,66.77,66.74,66.73,66.73,66.74,66.76,66.76,66.75
70.83,70.78,70.78,70.77,70.71,70.61,70.59,70.62,70.61,70.54,70.39,70.25,70.18,70.15,70.13,70.15,70.22,70.30,70.35,70.33,70.30,70.27,70.25,70.22,70.21,70.20,70.18,70.14,70.13,70.20,70.29,70.36,70.39,70.40,70.40,70.40,70.40,70.45,70.51,70.57,70.62,70.69,70.76,70.78,70.72,70.55,70.10,69.82,69.68,69.63,69.60,69.55,69.47,69.36,69.26,69.17,69.15,69.19,69.25,69.23,69.21,69.19,69.20,69.23,69.26,69.32,69.40,69.47,69.43,69.42,69.41,69.36,69.32,69.32,69.35,69.39,69.42,69.40,69.40,69.44,69.51,69.56,69.56,69.54,69.51,69.50,69.48,69.41,69.31,69.22,69.20,69.24,69.30,69.33,69.33,69.27,69.19,69.09,69.00,68.98,69.02,69.07,69.07,69.07,68.99,68.95,68.98,68.90,68.85,68.81,68.79,68.77,68.70,68.67,68.64,68.58,68.41,68.40,68.46,68.55,68.62,68.63,68.60,68.60,68.70,68.66,68.64,68.60,68.53,68.55,68.53,68.49,68.46,68.49,68.50,68.56,68.62,68.63,68.69,68.73,68.67,68.55,68.55,68.59,68.57,68.52,68.51,68.53,68.43,68.22,67.97,67.92,67.91,67.91,67.94,67.98,67.92,67.90,67.91,67.93,68.00,68.00,67.99,67.97,67.95,67.95,67.98,67.99,67.95,67.90,67.89,67.87,67.85,67.79,67.76,67.81,67.88,67.87,67.84,67.86,67.89,67.90,67.94,67.92,67.90,67.89,67.90,67.94,67.92,67.86,67.82,67.78,67.76,67.77,67.84,67.83,67.75,67.68,67.65,67.63,67.63,67.58,67.48,67.39,67.40,67.46,67.56,67.66,67.63,67.55,67.45,67.36,67.32,67.29,67.22,67.14,67.06,66.99,66.94,66.92,66.90,66.86,66.79,66.69,66.55,66.36,66.27,66.27,66.28,66.25,66.29,66.43,66.58,66.71,66.78,66.75,66.73,66.76,66.83,66.87,66.89,66.90,66.90,66.90,66.89,66.86,66.82,66.79,66.75,66.71,66.70,66.70,66.70,66.73,66.74,66.72
70.82,70.78,70.78,70.78,70.74,70.67,70.64,70.67,70.65,70.56,70.39,70.27,70.20,70.16,70.13,70.20,70.29,70.36,70.38,70.37,70.32,70.29,70.26,70.24,70.21,70.20,70.18,70.14,70.17,70.24,70.30,70.34,70.38,70.40,70.40,70.40,70.40,70.41,70.43,70.47,70.55,70.60,70.65,70.68,70.66,70.55,70.17,69.87,69.64,69.47,69.35,69.31,69.25,69.16,69.10,69.09,69.11,69.14,69.18,69.20,69.18,69.17,69.19,69.21,69.23,69.29,69.38,69.43,69.38,69.38,69.38,69.33,69.31,69.31,69.32,69.34,69.35,69.33,69.35,69.39,69.44,69.50,69.53,69.52,69.50,69.50,69.49,69.44,69.36,69.27,69.18,69.22,69.29,69.31,69.27,69.20,69.14,69.10,69.11,69.08,69.10,69.14,69.10,69.09,69.06,69.02,68.99,68.97,68.94,68.93,68.90,68.80,68.72,68.66,68.60,68.52,68.41,68.44,68.51,68.61,68.73,68.74,68.73,68.75,68.84,68.82,68.81,68.76,68.63,68.60,68.67,68.70,68.66,68.57,68.62,68.66,68.68,68.68,68.70,68.71,68.69,68.64,68.59,68.60,68.59,68.56,68.50,68.50,68.42,68.23,67.98,67.92,67.90,67.91,67.93,67.98,67.92,67.89,67.88,67.88,68.04,68.07,68.04,68.01,68.05,68.05,68.02,67.96,67.89,67.83,67.82,67.82,67.81,67.78,67.75,67.77,67.82,67.82,67.81,67.82,67.82,67.81,67.84,67.87,67.88,67.86,67.84,67.87,67.89,67.87,67.84,67.79,67.77,67.78,67.82,67.82,67.71,67.62,67.57,67.59,67.58,67.55,67.49,67.41,67.43,67.47,67.52,67.57,67.59,67.57,67.53,67.48,67.44,67.40,67.33,67.24,67.16,67.12,67.06,66.99,66.94,66.89,66.83,66.71,66.55,66.36,66.27,66.26,66.24,66.22,66.29,66.44,66.57,66.67,66.72,66.67,66.64,66.65,66.70,66.76,66.82,66.87,66.90,66.89,66.86,66.82,66.78,66.75,66.72,66.70,66.69,66.69,66.70,66.71,66.71,66.68
70.80,70.79,70.79,70.79,70.76,70.71,70.69,70.71,70.66,70.55,70.38,70.29,70.23,70.19,70.16,70.24,70.34,70.41,70.41,70.39,70.35,70.32,70.29,70.26,70.23,70.20,70.17,70.15,70.21,70.27,70.30,70.32,70.37,70.39,70.40,70.41,70.42,70.40,70.39,70.41,70.47,70.50,70.53,70.56,70.55,70.50,70.02,69.65,69.40,69.26,69.15,69.13,69.10,69.05,69.02,69.04,69.07,69.10,69.11,69.18,69.19,69.17,69.16,69.16,69.19,69.26,69.34,69.40,69.38,69.36,69.34,69.31,69.30,69.28,69.28,69.31,69.31,69.28,69.30,69.34,69.37,69.41,69.45,69.46,69.46,69.49,69.50,69.46,69.39,69.34,69.19,69.19,69.26,69.29,69.23,69.16,69.12,69.11,69.17,69.12,69.13,69.14,69.11,69.10,69.08,69.06,69.03,69.00,68.92,68.89,68.89,68.84,68.79,68.71,68.60,68.50,68.42,68.41,68.44,68.52,68.71,68.74,68.74,68.74,68.77,68.77,68.80,68.76,68.61,68.60,68.70,68.75,68.72,68.65,68.69,68.70,68.71,68.70,68.70,68.70,68.70,68.69,68.65,68.62,68.61,68.60,68.58,68.52,68.42,68.23,67.97,67.88,67.87,67.88,67.91,67.95,67.91,67.89,67.88,67.89,68.04,68.11,68.12,68.07,68.08,68.05,67.98,67.91,67.84,67.78,67.76,67.76,67.77,67.78,67.74,67.75,67.80,67.80,67.80,67.79,67.77,67.72,67.74,67.78,67.79,67.78,67.75,67.76,67.78,67.79,67.77,67.72,67.71,67.72,67.74,67.75,67.66,67.58,67.56,67.58,67.57,67.55,67.51,67.41,67.42,67.45,67.48,67.49,67.50,67.50,67.48,67.47,67.43,67.40,67.33,67.25,67.19,67.16,67.09,67.02,66.95,66.90,66.85,66.75,66.59,66.40,66.29,66.25,66.22,66.19,66.28,66.44,66.57,66.64,66.65,66.60,66.58,66.59,66.64,66.71,66.79,66.86,66.88,66.86,66.82,66.78,66.74,66.71,66.69,66.67,66.66,66.67,66.69,66.69,66.67,66.65
70.78,70.80,70.80,70.80,70.78,70.75,70.74,70.74,70.67,70.53,70.37,70.31,70.26,70.23,70.19,70.28,70.38,70.44,70.44,70.40,70.39,70.37,70.33,70.29,70.25,70.19,70.15,70.17,70.24,70.28,70.30,70.31,70.36,70.39,70.40,70.41,70.45,70.39,70.37,70.37,70.40,70.41,70.41,70.41,70.41,70.39,69.73,69.27,69.05,69.02,69.00,69.00,69.00,69.00,69.00,69.00,69.03,69.06,69.03,69.18,69.22,69.19,69.13,69.10,69.15,69.22,69.30,69.38,69.40,69.36,69.31,69.30,69.30,69.25,69.24,69.28,69.30,69.24,69.25,69.28,69.30,69.30,69.34,69.39,69.41,69.47,69.49,69.46,69.41,69.40,69.22,69.17,69.21,69.27,69.22,69.16,69.11,69.11,69.18,69.14,69.12,69.11,69.11,69.08,69.08,69.09,69.08,69.02,68.83,68.75,68.80,68.86,68.88,68.79,68.64,68.50,68.43,68.34,68.30,68.35,68.61,68.65,68.66,68.64,68.57,68.58,68.68,68.67,68.51,68.58,68.66,68.70,68.70,68.72,68.72,68.72,68.71,68.70,68.70,68.70,68.71,68.72,68.71,68.65,68.63,68.65,68.70,68.55,68.42,68.23,67.95,67.84,67.81,67.85,67.90,67.90,67.90,67.90,67.91,67.93,68.02,68.15,68.19,68.13,68.06,67.98,67.91,67.84,67.78,67.73,67.72,67.72,67.73,67.77,67.74,67.75,67.80,67.80,67.80,67.78,67.73,67.63,67.64,67.66,67.67,67.67,67.65,67.63,67.64,67.66,67.65,67.61,67.60,67.61,67.63,67.65,67.60,67.57,67.58,67.59,67.58,67.56,67.52,67.42,67.39,67.40,67.42,67.41,67.39,67.36,67.36,67.37,67.36,67.33,67.27,67.21,67.17,67.14,67.09,67.02,66.95,66.90,66.87,66.79,66.65,66.46,66.31,66.26,66.22,66.16,66.26,66.44,66.57,66.62,66.60,66.55,66.54,66.57,66.63,66.69,66.78,66.85,66.86,66.82,66.78,66.75,66.71,66.67,66.65,66.63,66.62,66.63,66.67,66.67,66.65,66.61
70.75,70.77,70.74,70.74,70.73,70.72,70.71,70.69,70.62,70.49,70.36,70.29,70.22,70.19,70.21,70.31,70.40,70.44,70.44,70.40,70.37,70.34,70.30,70.26,70.23,70.18,70.16,70.20,70.27,70.30,70.31,70.31,70.32,70.33,70.32,70.31,70.33,70.32,70.31,70.31,70.32,70.33,70.31,70.21,70.01,69.67,69.29,69.07,68.98,68.98,68.99,68.99,68.99,68.99,68.99,68.99,69.00,69.01,69.01,69.06,69.13,69.15,69.13,69.14,69.18,69.26,69.37,69.49,69.45,69.38,69.32,69.28,69.23,69.21,69.23,69.27,69.30,69.24,69.25,69.28,69.30,69.30,69.32,69.34,69.37,69.44,69.46,69.44,69.40,69.37,69.27,69.20,69.16,69.17,69.19,69.18,69.15,69.12,69.17,69.17,69.17,69.16,69.15,69.00,69.01,69.04,69.03,68.99,68.84,68.75,68.73,68.74,68.77,68.71,68.60,68.50,68.45,68.37,68.32,68.32,68.43,68.51,68.53,68.51,68.49,68.52,68.56,68.55,68.48,68.52,68.61,68.65,68.66,68.69,68.71,68.72,68.70,68.67,68.67,68.67,68.70,68.74,68.74,68.69,68.69,68.71,68.73,68.59,68.44,68.21,67.91,67.85,67.84,67.86,67.90,67.90,67.90,67.90,67.92,67.96,68.04,68.14,68.15,68.06,67.99,67.93,67.86,67.80,67.75,67.72,67.73,67.74,67.76,67.80,67.74,67.72,67.75,67.77,67.79,67.76,67.71,67.64,67.63,67.60,67.59,67.59,67.58,67.57,67.56,67.56,67.57,67.54,67.55,67.57,67.58,67.58,67.52,67.49,67.50,67.52,67.53,67.52,67.48,67.40,67.37,67.37,67.36,67.35,67.34,67.30,67.29,67.29,67.28,67.26,67.22,67.17,67.12,67.07,67.03,66.98,66.93,66.88,66.86,66.80,66.67,66.46,66.32,66.27,66.22,66.19,66.28,66.47,66.60,66.65,66.61,66.57,66.57,66.58,66.60,66.67,66.78,66.85,66.85,66.81,66.77,66.72,66.67,66.63,66.62,66.60,66.58,66.60,66.63,66.63,66.61,66.57
70.66,70.69,70.69,70.68,70.68,70.68,70.69,70.67,70.60,70.49,70.37,70.28,70.21,70.19,70.24,70.35,70.42,70.44,70.43,70.40,70.36,70.32,70.29,70.26,70.21,70.17,70.17,70.22,70.28,70.30,70.32,70.32,70.30,70.30,70.28,70.26,70.27,70.27,70.26,70.25,70.25,70.26,70.25,70.11,69.79,69.26,69.03,68.94,68.93,68.94,68.96,68.96,68.97,68.98,68.98,68.97,68.96,68.96,68.98,68.99,69.06,69.11,69.13,69.18,69.23,69.32,69.44,69.56,69.48,69.40,69.34,69.31,69.22,69.20,69.21,69.24,69.27,69.23,69.24,69.27,69.29,69.29,69.29,69.30,69.32,69.37,69.39,69.39,69.36,69.31,69.26,69.20,69.14,69.12,69.18,69.19,69.16,69.12,69.14,69.17,69.18,69.17,69.14,68.97,68.99,69.04,69.01,68.94,68.82,68.74,68.69,68.67,68.69,68.65,68.57,68.50,68.47,68.40,68.34,68.32,68.37,68.46,68.50,68.49,68.51,68.54,68.52,68.49,68.48,68.51,68.55,68.57,68.58,68.63,68.67,68.68,68.66,68.64,68.66,68.65,68.67,68.71,68.72,68.69,68.70,68.72,68.71,68.60,68.44,68.20,67.90,67.85,67.84,67.87,67.90,67.90,67.90,67.91,67.93,67.98,68.03,68.08,68.07,67.99,67.94,67.90,67.84,67.78,67.75,67.73,67.73,67.75,67.79,67.82,67.73,67.68,67.69,67.72,67.74,67.72,67.67,67.61,67.60,67.56,67.53,67.52,67.51,67.50,67.49,67.49,67.51,67.49,67.51,67.53,67.54,67.53,67.49,67.45,67.44,67.47,67.49,67.48,67.45,67.39,67.38,67.36,67.35,67.34,67.33,67.30,67.28,67.27,67.26,67.25,67.21,67.16,67.10,67.06,67.02,66.98,66.93,66.88,66.85,66.79,66.67,66.46,66.33,66.27,66.23,66.21,66.30,66.48,66.60,66.65,66.63,66.58,66.54,66.52,66.54,66.66,66.79,66.85,66.84,66.79,66.75,66.70,66.64,66.61,66.59,66.56,66.55,66.56,66.59,66.59,66.57,66.53
70.47,70.55,70.62,70.65,70.64,70.63,70.67,70.68,70.63,70.53,70.40,70.28,70.22,70.23,70.31,70.41,70.43,70.42,70.40,70.40,70.35,70.30,70.28,70.28,70.20,70.17,70.18,70.22,70.25,70.30,70.34,70.35,70.31,70.30,70.29,70.29,70.28,70.24,70.20,70.17,70.17,70.20,70.24,70.13,69.82,69.26,69.00,68.91,68.90,68.91,68.91,68.91,68.92,68.95,68.95,68.93,68.91,68.92,68.95,68.98,69.02,69.07,69.13,69.20,69.29,69.40,69.51,69.58,69.48,69.41,69.37,69.38,69.30,69.24,69.19,69.17,69.20,69.20,69.22,69.25,69.26,69.26,69.28,69.28,69.27,69.27,69.27,69.28,69.29,69.23,69.19,69.16,69.15,69.15,69.18,69.17,69.14,69.11,69.11,69.13,69.15,69.13,69.06,69.00,69.07,69.10,69.03,68.86,68.76,68.71,68.69,68.66,68.63,68.61,68.57,68.50,68.47,68.42,68.38,68.37,68.44,68.54,68.59,68.61,68.66,68.66,68.57,68.51,68.53,68.55,68.49,68.46,68.47,68.52,68.59,68.58,68.57,68.61,68.65,68.63,68.60,68.60,68.64,68.64,68.66,68.66,68.63,68.55,68.43,68.22,67.93,67.82,67.83,67.87,67.90,67.90,67.90,67.91,67.94,67.99,67.98,67.97,67.96,67.93,67.91,67.89,67.84,67.79,67.77,67.76,67.74,67.75,67.82,67.83,67.71,67.62,67.62,67.64,67.65,67.63,67.59,67.53,67.53,67.51,67.50,67.48,67.44,67.43,67.43,67.45,67.47,67.45,67.47,67.50,67.51,67.52,67.51,67.46,67.41,67.43,67.46,67.45,67.41,67.40,67.40,67.39,67.38,67.38,67.38,67.38,67.36,67.33,67.31,67.30,67.25,67.18,67.14,67.09,67.06,67.02,66.97,66.91,66.83,66.76,66.65,66.46,66.33,66.27,66.23,66.21,66.32,66.48,66.58,66.62,66.65,66.58,66.44,66.36,66.45,66.65,66.79,66.85,66.84,66.76,66.72,66.68,66.64,66.60,66.56,66.53,66.51,66.51,66.56,66.55,66.53,66.49
70.41,70.45,70.49,70.51,70.53,70.58,70.67,70.69,70.64,70.52,70.37,70.26,70.22,70.25,70.32,70.38,70.40,70.40,70.40,70.39,70.36,70.34,70.30,70.26,70.19,70.18,70.21,70.25,70.25,70.27,70.30,70.31,70.27,70.27,70.29,70.30,70.28,70.24,70.20,70.17,70.17,70.20,70.25,70.22,69.99,69.39,69.06,68.93,68.91,68.90,68.90,68.90,68.91,68.93,68.96,68.95,68.93,68.91,68.92,68.95,68.98,69.04,69.13,69.24,69.38,69.48,69.55,69.57,69.45,69.37,69.35,69.37,69.28,69.23,69.19,69.16,69.13,69.14,69.17,69.19,69.22,69.20,69.22,69.25,69.24,69.23,69.22,69.23,69.23,69.18,69.14,69.13,69.13,69.14,69.18,69.15,69.12,69.11,69.13,69.13,69.12,69.11,69.07,69.05,69.11,69.11,68.99,68.83,68.77,68.71,68.66,68.64,68.61,68.60,68.58,68.54,68.49,68.46,68.40,68.36,68.47,68.56,68.65,68.73,68.83,68.76,68.61,68.52,68.57,68.58,68.48,68.42,68.43,68.46,68.56,68.58,68.58,68.61,68.66,68.63,68.57,68.55,68.61,68.65,68.67,68.66,68.60,68.53,68.45,68.26,67.94,67.79,67.83,67.88,67.90,67.90,67.90,67.90,67.92,67.94,67.93,67.93,67.92,67.91,67.90,67.89,67.87,67.85,67.83,67.78,67.74,67.75,67.82,67.83,67.69,67.61,67.62,67.65,67.64,67.64,67.62,67.56,67.57,67.59,67.58,67.54,67.52,67.51,67.51,67.50,67.49,67.48,67.52,67.55,67.55,67.56,67.54,67.47,67.39,67.39,67.44,67.44,67.40,67.39,67.39,67.39,67.38,67.38,67.37,67.33,67.31,67.32,67.36,67.35,67.31,67.26,67.20,67.14,67.08,67.02,66.96,66.91,66.87,66.80,66.67,66.46,66.35,66.31,66.28,66.24,66.36,66.50,66.57,66.55,66.50,66.36,66.26,66.27,66.47,66.69,66.79,66.83,66.83,66.78,66.71,66.65,66.61,66.57,66.53,66.50,66.49,66.50,66.52,66.52,66.51,66.48
70.42,70.41,70.40,70.40,70.43,70.51,70.63,70.65,70.59,70.48,70.33,70.24,70.24,70.28,70.32,70.34,70.36,70.38,70.39,70.37,70.37,70.36,70.32,70.24,70.19,70.19,70.23,70.28,70.25,70.25,70.26,70.25,70.22,70.24,70.27,70.28,70.27,70.23,70.21,70.19,70.19,70.23,70.27,70.30,70.15,69.59,69.18,68.98,68.91,68.89,68.89,68.89,68.89,68.91,68.96,68.97,68.95,68.92,68.90,68.91,68.95,69.01,69.10,69.26,69.42,69.52,69.55,69.52,69.41,69.34,69.32,69.33,69.25,69.22,69.21,69.18,69.09,69.10,69.12,69.14,69.18,69.14,69.17,69.20,69.21,69.19,69.19,69.20,69.19,69.15,69.12,69.10,69.10,69.12,69.17,69.14,69.11,69.12,69.16,69.13,69.11,69.09,69.08,69.08,69.13,69.11,68.97,68.84,68.81,68.74,68.65,68.63,68.61,68.60,68.60,68.58,68.51,68.48,68.41,68.34,68.48,68.56,68.66,68.78,68.90,68.79,68.60,68.51,68.57,68.56,68.45,68.39,68.39,68.42,68.55,68.60,68.60,68.63,68.68,68.63,68.57,68.54,68.61,68.68,68.70,68.68,68.61,68.53,68.47,68.31,68.02,67.80,67.84,67.89,67.90,67.90,67.90,67.91,67.91,67.90,67.90,67.90,67.90,67.90,67.90,67.90,67.90,67.90,67.88,67.80,67.75,67.76,67.82,67.83,67.69,67.61,67.63,67.68,67.65,67.66,67.67,67.62,67.64,67.68,67.67,67.62,67.63,67.62,67.60,67.56,67.51,67.53,67.57,67.60,67.59,67.60,67.56,67.47,67.37,67.35,67.42,67.42,67.39,67.37,67.37,67.36,67.35,67.35,67.34,67.27,67.25,67.29,67.39,67.38,67.36,67.31,67.23,67.17,67.10,67.03,66.96,66.92,66.91,66.83,66.68,66.45,66.37,66.35,66.31,66.27,66.38,66.52,66.55,66.48,66.34,66.15,66.10,66.23,66.54,66.73,66.78,66.81,66.82,66.80,66.71,66.63,66.57,66.53,66.49,66.47,66.47,66.48,66.49,66.49,66.49,66.46
70.55,70.51,70.47,70.44,70.42,70.42,70.45,70.44,70.40,70.33,70.28,70.26,70.28,70.31,70.33,70.32,70.34,70.36,70.37,70.36,70.36,70.34,70.30,70.21,70.18,70.19,70.23,70.27,70.24,70.23,70.22,70.22,70.21,70.22,70.23,70.23,70.19,70.18,70.19,70.21,70.24,70.27,70.29,70.30,70.23,69.95,69.43,69.08,68.91,68.85,68.83,68.83,68.85,68.88,68.92,68.96,68.95,68.92,68.90,68.90,68.92,68.95,69.03,69.17,69.33,69.42,69.44,69.39,69.33,69.31,69.29,69.26,69.22,69.24,69.26,69.25,69.18,69.14,69.11,69.11,69.12,69.11,69.12,69.13,69.13,69.12,69.16,69.19,69.20,69.19,69.13,69.11,69.10,69.11,69.12,69.11,69.13,69.16,69.13,69.16,69.11,69.05,69.09,69.09,69.11,69.10,69.06,68.97,68.91,68.84,68.76,68.69,68.63,68.60,68.60,68.59,68.52,68.46,68.38,68.33,68.48,68.52,68.55,68.58,68.60,68.57,68.48,68.42,68.44,68.38,68.35,68.33,68.34,68.41,68.55,68.60,68.62,68.67,68.68,68.63,68.59,68.60,68.66,68.74,68.77,68.74,68.67,68.59,68.49,68.41,68.33,67.97,67.87,67.87,67.90,67.90,67.91,67.94,67.95,67.90,67.90,67.90,67.91,67.91,67.90,67.90,67.90,67.89,67.87,67.78,67.77,67.79,67.82,67.82,67.69,67.62,67.64,67.71,67.69,67.69,67.70,67.70,67.71,67.74,67.74,67.72,67.74,67.70,67.64,67.59,67.55,67.55,67.57,67.58,67.56,67.59,67.55,67.46,67.36,67.32,67.36,67.37,67.35,67.31,67.28,67.25,67.24,67.26,67.26,67.22,67.21,67.27,67.37,67.33,67.30,67.26,67.20,67.15,67.10,67.04,67.00,66.96,66.93,66.83,66.66,66.42,66.36,66.34,66.31,66.28,66.38,66.48,66.48,66.39,66.23,66.03,66.07,66.31,66.66,66.77,66.78,66.77,66.77,66.78,66.73,66.64,66.55,66.49,66.45,66.43,66.43,66.45,66.46,66.46,66.45,66.42
70.62,70.57,70.52,70.47,70.42,70.39,70.38,70.35,70.31,70.26,70.24,70.25,70.29,70.31,70.32,70.30,70.32,70.33,70.33,70.33,70.33,70.31,70.27,70.20,70.17,70.16,70.18,70.20,70.22,70.24,70.24,70.22,70.20,70.20,70.21,70.20,70.18,70.16,70.17,70.20,70.24,70.27,70.29,70.30,70.26,70.14,69.54,69.13,68.90,68.86,68.83,68.81,68.83,68.88,68.90,68.95,68.96,68.95,68.91,68.90,68.90,68.92,68.96,69.06,69.22,69.33,69.36,69.32,69.29,69.29,69.28,69.23,69.21,69.23,69.26,69.27,69.24,69.16,69.12,69.11,69.11,69.09,69.09,69.08,69.06,69.06,69.07,69.06,69.05,69.04,69.05,69.07,69.10,69.14,69.11,69.11,69.16,69.22,69.17,69.16,69.09,69.03,69.07,69.11,69.12,69.10,69.05,68.98,68.93,68.87,68.81,68.76,68.71,68.65,68.60,68.60,68.53,68.48,68.41,68.37,68.53,68.56,68.58,68.58,68.55,68.51,68.43,68.38,68.39,68.35,68.35,68.35,68.36,68.41,68.54,68.59,68.61,68.65,68.65,68.62,68.60,68.59,68.61,68.69,68.75,68.75,68.67,68.59,68.48,68.40,68.34,68.00,67.89,67.88,67.90,67.88,67.90,67.94,67.95,67.90,67.90,67.90,67.92,67.94,67.92,67.91,67.90,67.90,67.88,67.82,67.79,67.79,67.80,67.82,67.71,67.64,67.65,67.74,67.71,67.71,67.73,67.76,67.78,67.79,67.78,67.75,67.77,67.73,67.68,67.62,67.56,67.57,67.58,67.58,67.57,67.58,67.53,67.45,67.36,67.31,67.33,67.33,67.32,67.28,67.25,67.22,67.22,67.25,67.28,67.27,67.27,67.30,67.36,67.32,67.29,67.25,67.17,67.14,67.11,67.07,67.03,66.99,66.95,66.83,66.64,66.40,66.35,66.33,66.31,66.28,66.38,66.46,66.45,66.34,66.16,65.96,66.00,66.23,66.56,66.65,66.65,66.64,66.64,66.67,66.65,66.58,66.51,66.45,66.42,66.41,66.41,66.42,66.43,66.43,66.42,66.38
70.64,70.60,70.56,70.50,70.44,70.40,70.36,70.33,70.29,70.25,70.21,70.24,70.27,70.30,70.30,70.30,70.30,70.30,70.30,70.30,70.30,70.28,70.24,70.20,70.15,70.12,70.10,70.11,70.19,70.26,70.27,70.23,70.20,70.20,70.20,70.20,70.20,70.15,70.15,70.17,70.21,70.25,70.28,70.29,70.28,70.23,69.60,69.14,68.91,68.90,68.84,68.81,68.83,68.87,68.90,68.94,68.98,68.98,68.93,68.91,68.90,68.90,68.91,68.95,69.11,69.24,69.30,69.30,69.26,69.27,69.28,69.23,69.21,69.20,69.22,69.26,69.28,69.19,69.14,69.13,69.14,69.09,69.08,69.06,69.00,69.00,68.95,68.88,68.83,68.80,68.91,69.01,69.10,69.20,69.13,69.12,69.19,69.29,69.25,69.15,69.06,69.02,69.04,69.11,69.14,69.10,69.00,68.92,68.90,68.87,68.83,68.83,68.81,68.70,68.61,68.60,68.55,68.53,68.48,68.43,68.60,68.65,68.68,68.68,68.64,68.53,68.43,68.38,68.40,68.40,68.40,68.40,68.40,68.41,68.53,68.58,68.60,68.60,68.60,68.60,68.58,68.55,68.51,68.59,68.68,68.72,68.64,68.57,68.46,68.33,68.19,67.95,67.90,67.90,67.89,67.86,67.89,67.92,67.93,67.90,67.90,67.91,67.94,67.97,67.94,67.91,67.89,67.89,67.89,67.87,67.80,67.75,67.77,67.81,67.73,67.66,67.66,67.77,67.72,67.71,67.74,67.81,67.84,67.83,67.79,67.75,67.75,67.74,67.70,67.64,67.56,67.59,67.60,67.60,67.60,67.57,67.50,67.43,67.36,67.31,67.31,67.31,67.30,67.28,67.25,67.23,67.24,67.29,67.35,67.38,67.38,67.36,67.36,67.33,67.31,67.26,67.16,67.13,67.13,67.11,67.05,67.00,66.97,66.83,66.62,66.38,66.35,66.34,66.31,66.28,66.37,66.45,66.44,66.32,66.12,65.92,65.91,66.07,66.35,66.44,66.46,66.46,66.48,66.51,66.51,66.48,66.45,66.41,66.40,66.40,66.40,66.40,66.40,66.40,66.38,66.35
70.61,70.59,70.56,70.51,70.46,70.43,70.43,70.44,70.42,70.36,70.28,70.23,70.21,70.21,70.25,70.27,70.28,70.28,70.29,70.29,70.29,70.25,70.19,70.13,70.10,70.06,70.06,70.10,70.14,70.17,70.20,70.22,70.21,70.19,70.17,70.16,70.15,70.11,70.11,70.14,70.18,70.24,70.25,70.25,70.24,70.22,69.77,69.32,69.01,68.90,68.86,68.82,68.83,68.87,68.89,68.91,68.94,68.96,68.92,68.90,68.90,68.89,68.88,68.91,69.04,69.18,69.28,69.32,69.31,69.33,69.32,69.26,69.22,69.21,69.23,69.24,69.23,69.21,69.21,69.23,69.26,69.25,69.20,69.11,69.01,68.98,68.93,68.90,68.86,68.82,68.80,68.91,69.07,69.21,69.14,69.16,69.25,69.34,69.29,69.19,69.09,69.00,68.95,69.00,69.00,68.98,68.96,68.91,68.90,68.89,68.88,68.88,68.80,68.69,68.61,68.60,68.61,68.61,68.59,68.58,68.66,68.70,68.75,68.78,68.74,68.58,68.49,68.44,68.40,68.40,68.43,68.44,68.44,68.44,68.50,68.54,68.56,68.56,68.56,68.56,68.53,68.48,68.47,68.50,68.55,68.58,68.53,68.48,68.40,68.31,68.20,67.97,67.88,67.84,67.81,67.78,67.81,67.82,67.83,67.81,67.81,67.81,67.82,67.82,67.80,67.78,67.77,67.77,67.77,67.75,67.72,67.72,67.78,67.80,67.70,67.64,67.66,67.77,67.72,67.71,67.73,67.76,67.79,67.79,67.75,67.67,67.68,67.69,67.67,67.63,67.60,67.64,67.64,67.62,67.58,67.53,67.45,67.39,67.35,67.35,67.35,67.33,67.30,67.29,67.28,67.27,67.29,67.35,67.43,67.46,67.46,67.42,67.37,67.29,67.26,67.24,67.19,67.14,67.15,67.11,67.02,66.95,66.91,66.78,66.59,66.37,66.37,66.36,66.32,66.30,66.43,66.48,66.43,66.28,66.09,65.89,65.82,65.90,66.08,66.19,66.25,66.31,66.37,66.40,66.41,66.42,66.42,66.40,66.40,66.40,66.40,66.40,66.40,66.38,66.35,66.31
70.58,70.57,70.55,70.52,70.49,70.48,70.51,70.53,70.52,70.46,70.39,70.30,70.22,70.19,70.22,70.24,70.24,70.24,70.24,70.25,70.25,70.22,70.16,70.10,70.08,70.05,70.05,70.09,70.10,70.10,70.13,70.16,70.17,70.16,70.13,70.10,70.04,70.04,70.07,70.11,70.16,70.21,70.21,70.22,70.22,70.21,69.94,69.50,69.11,68.91,68.87,68.83,68.83,68.86,68.86,68.87,68.90,68.93,68.91,68.90,68.90,68.89,68.87,68.89,68.98,69.10,69.22,69.31,69.34,69.36,69.35,69.28,69.23,69.23,69.26,69.27,69.25,69.26,69.28,69.30,69.33,69.34,69.28,69.19,69.08,69.00,68.94,68.90,68.87,68.82,68.76,68.88,69.06,69.19,69.13,69.19,69.29,69.37,69.30,69.20,69.10,68.99,68.91,68.93,68.92,68.91,68.93,68.92,68.91,68.90,68.90,68.88,68.78,68.68,68.61,68.62,68.66,68.68,68.68,68.67,68.70,68.72,68.76,68.80,68.76,68.63,68.56,68.50,68.45,68.45,68.46,68.48,68.49,68.47,68.49,68.51,68.53,68.53,68.53,68.53,68.50,68.45,68.45,68.46,68.47,68.47,68.45,68.41,68.35,68.30,68.22,68.01,67.94,67.88,67.81,67.78,67.77,67.76,67.75,67.75,67.75,67.75,67.74,67.74,67.72,67.69,67.67,67.67,67.67,67.64,67.64,67.67,67.74,67.76,67.68,67.63,67.66,67.75,67.71,67.69,67.69,67.70,67.72,67.73,67.69,67.62,67.63,67.65,67.64,67.61,67.61,67.62,67.63,67.61,67.55,67.50,67.44,67.38,67.35,67.38,67.37,67.34,67.31,67.33,67.32,67.32,67.34,67.37,67.43,67.44,67.42,67.39,67.33,67.24,67.21,67.20,67.17,67.13,67.11,67.07,66.99,66.92,66.87,66.74,66.54,66.35,66.38,66.36,66.32,66.30,66.45,66.49,66.43,66.27,66.07,65.86,65.76,65.79,65.92,66.03,66.12,66.21,66.30,66.33,66.34,66.36,66.38,66.39,66.40,66.39,66.39,66.39,66.39,66.36,66.33,66.29
70.57,70.54,70.54,70.53,70.52,70.53,70.59,70.60,70.58,70.55,70.53,70.45,70.34,70.24,70.21,70.20,70.17,70.16,70.16,70.19,70.20,70.18,70.14,70.10,70.10,70.08,70.06,70.05,70.06,70.06,70.05,70.04,70.07,70.12,70.09,70.00,69.88,69.92,70.01,70.09,70.14,70.15,70.18,70.20,70.23,70.22,70.11,69.68,69.20,68.92,68.87,68.83,68.82,68.83,68.82,68.83,68.86,68.89,68.90,68.90,68.90,68.89,68.87,68.89,68.92,69.00,69.12,69.28,69.35,69.36,69.34,69.30,69.23,69.25,69.30,69.34,69.33,69.34,69.34,69.34,69.34,69.33,69.32,69.29,69.21,69.08,68.97,68.89,68.84,68.81,68.80,68.92,69.07,69.14,69.11,69.20,69.31,69.37,69.27,69.18,69.09,68.99,68.91,68.91,68.89,68.89,68.91,68.96,68.93,68.91,68.89,68.84,68.75,68.66,68.63,68.67,68.69,68.73,68.74,68.70,68.70,68.70,68.72,68.72,68.71,68.68,68.62,68.56,68.55,68.55,68.51,68.53,68.56,68.50,68.50,68.50,68.50,68.50,68.50,68.50,68.49,68.48,68.48,68.48,68.45,68.41,68.40,68.34,68.31,68.29,68.24,68.04,68.07,68.04,67.92,67.85,67.80,67.74,67.71,67.71,67.71,67.71,67.73,67.76,67.69,67.63,67.61,67.60,67.59,67.55,67.58,67.62,67.65,67.70,67.68,67.65,67.64,67.70,67.69,67.65,67.62,67.62,67.62,67.62,67.62,67.60,67.60,67.61,67.60,67.60,67.57,67.55,67.56,67.56,67.51,67.50,67.46,67.39,67.34,67.39,67.38,67.35,67.34,67.39,67.39,67.39,67.38,67.35,67.32,67.30,67.26,67.23,67.21,67.18,67.14,67.11,67.11,67.07,67.03,67.00,66.96,66.91,66.85,66.69,66.49,66.34,66.38,66.35,66.31,66.31,66.43,66.48,66.44,66.30,66.07,65.84,65.73,65.75,65.87,65.97,66.09,66.19,66.26,66.30,66.30,66.31,66.33,66.37,66.40,66.38,66.35,66.36,66.38,66.35,66.32,66.29
70.59,70.54,70.52,70.52,70.54,70.56,70.58,70.57,70.56,70.55,70.55,70.51,70.43,70.35,70.32,70.33,70.28,70.21,70.16,70.15,70.16,70.16,70.14,70.12,70.10,70.09,70.08,70.07,70.05,70.02,70.00,69.99,70.02,70.04,69.99,69.91,69.83,69.85,69.92,70.01,70.09,70.12,70.15,70.18,70.19,70.19,70.17,69.80,69.32,68.96,68.87,68.82,68.81,68.81,68.81,68.81,68.83,68.85,68.88,68.90,68.90,68.90,68.89,68.89,68.93,68.98,69.07,69.21,69.30,69.31,69.28,69.25,69.22,69.25,69.31,69.36,69.34,69.36,69.35,69.34,69.36,69.33,69.30,69.26,69.22,69.15,69.08,69.01,68.93,68.90,68.87,68.96,69.08,69.11,69.10,69.18,69.27,69.32,69.24,69.16,69.05,68.96,68.90,68.90,68.89,68.89,68.90,68.93,68.91,68.92,68.93,68.83,68.70,68.66,68.66,68.69,68.74,68.80,68.83,68.82,68.86,68.83,68.79,68.75,68.70,68.74,68.72,68.70,68.68,68.60,68.53,68.51,68.53,68.50,68.50,68.50,68.50,68.50,68.54,68.49,68.44,68.45,68.49,68.53,68.50,68.46,68.46,68.42,68.35,68.30,68.26,68.12,68.09,68.03,67.93,67.82,67.76,67.75,67.75,67.76,67.79,67.83,67.86,67.89,67.89,67.77,67.70,67.67,67.66,67.67,67.64,67.62,67.65,67.70,67.69,67.66,67.63,67.70,67.68,67.63,67.60,67.60,67.60,67.60,67.58,67.56,67.57,67.56,67.55,67.52,67.45,67.41,67.42,67.43,67.40,67.43,67.41,67.37,67.33,67.37,67.33,67.29,67.29,67.33,67.32,67.31,67.31,67.32,67.31,67.31,67.31,67.29,67.27,67.23,67.17,67.13,67.11,67.07,67.03,67.01,67.00,66.94,66.85,66.67,66.47,66.32,66.35,66.32,66.29,66.32,66.45,66.49,66.42,66.28,66.07,65.86,65.75,65.75,65.85,65.95,66.05,66.16,66.25,66.30,66.30,66.32,66.35,66.41,66.44,66.39,66.34,66.32,66.33,66.32,66.31,66.29
70.61,70.53,70.51,70.52,70.55,70.57,70.56,70.55,70.55,70.56,70.56,70.55,70.50,70.45,70.44,70.46,70.40,70.30,70.20,70.15,70.14,70.14,70.15,70.13,70.11,70.10,70.09,70.07,70.04,69.99,69.96,69.96,69.98,69.96,69.90,69.82,69.78,69.79,69.83,69.90,70.00,70.07,70.12,70.14,70.14,70.16,70.18,69.89,69.45,69.03,68.87,68.82,68.80,68.80,68.80,68.80,68.80,68.82,68.87,68.89,68.90,68.90,68.91,68.91,68.93,68.97,69.03,69.15,69.25,69.26,69.24,69.21,69.21,69.26,69.33,69.37,69.33,69.35,69.35,69.34,69.36,69.34,69.28,69.23,69.21,69.18,69.16,69.10,69.01,68.97,68.93,69.00,69.08,69.10,69.09,69.14,69.20,69.24,69.18,69.12,69.01,68.91,68.88,68.89,68.90,68.90,68.89,68.90,68.90,68.93,68.94,68.82,68.67,68.66,68.69,68.70,68.76,68.83,68.88,68.90,68.99,68.92,68.84,68.77,68.70,68.76,68.78,68.78,68.76,68.61,68.52,68.48,68.48,68.48,68.48,68.48,68.48,68.48,68.55,68.47,68.41,68.43,68.50,68.55,68.55,68.52,68.52,68.50,68.40,68.31,68.27,68.15,68.05,67.97,67.88,67.77,67.72,67.74,67.78,67.78,67.84,67.89,67.92,67.96,68.06,67.92,67.82,67.78,67.76,67.79,67.73,67.67,67.68,67.72,67.71,67.67,67.64,67.70,67.66,67.60,67.57,67.58,67.56,67.56,67.54,67.50,67.52,67.49,67.47,67.42,67.32,67.30,67.30,67.31,67.30,67.35,67.35,67.32,67.29,67.32,67.27,67.22,67.21,67.25,67.24,67.23,67.25,67.28,67.31,67.34,67.36,67.36,67.33,67.27,67.20,67.14,67.11,67.07,67.04,67.02,67.02,66.96,66.85,66.67,66.46,66.32,66.33,66.30,66.28,66.33,66.47,66.49,66.41,66.25,66.06,65.87,65.76,65.75,65.83,65.92,66.02,66.13,66.23,66.28,66.29,66.32,66.38,66.46,66.47,66.42,66.35,66.30,66.30,66.30,66.29,66.28
70.57,70.51,70.50,70.52,70.54,70.55,70.52,70.55,70.59,70.61,70.58,70.56,70.52,70.50,70.52,70.55,70.50,70.42,70.33,70.26,70.18,70.15,70.15,70.15,70.11,70.10,70.09,70.05,69.98,69.94,69.93,69.96,69.96,69.90,69.82,69.75,69.72,69.72,69.70,69.74,69.85,69.97,70.05,70.09,70.11,70.11,70.12,69.95,69.60,69.13,68.89,68.82,68.80,68.80,68.80,68.80,68.80,68.82,68.87,68.89,68.90,68.92,68.95,68.93,68.92,68.96,69.04,69.11,69.21,69.27,69.26,69.22,69.25,69.31,69.36,69.37,69.33,69.32,69.33,69.35,69.33,69.35,69.30,69.23,69.20,69.15,69.12,69.07,69.00,68.93,68.96,69.03,69.10,69.10,69.05,69.07,69.10,69.11,69.06,69.03,68.94,68.84,68.82,68.86,68.89,68.88,68.85,68.89,68.90,68.90,68.88,68.82,68.68,68.66,68.69,68.70,68.71,68.77,68.82,68.86,68.98,68.87,68.80,68.76,68.70,68.72,68.72,68.72,68.70,68.53,68.45,68.41,68.40,68.42,68.42,68.41,68.40,68.40,68.46,68.44,68.42,68.44,68.50,68.51,68.54,68.56,68.56,68.54,68.44,68.33,68.25,68.01,67.87,67.79,67.74,67.72,67.71,67.71,67.71,67.70,67.73,67.75,67.76,67.82,68.07,68.03,67.98,67.93,67.86,67.88,67.84,67.79,67.78,67.76,67.73,67.68,67.63,67.69,67.60,67.53,67.49,67.49,67.47,67.47,67.46,67.42,67.40,67.38,67.34,67.29,67.26,67.25,67.25,67.25,67.24,67.28,67.27,67.23,67.20,67.22,67.18,67.15,67.13,67.15,67.18,67.21,67.24,67.28,67.32,67.36,67.37,67.37,67.35,67.28,67.19,67.11,67.06,67.06,67.02,66.99,66.98,66.96,66.85,66.67,66.48,66.36,66.37,66.32,66.29,66.34,66.48,66.48,66.39,66.23,66.04,65.85,65.74,65.72,65.79,65.90,66.01,66.10,66.19,66.25,66.27,66.32,66.40,66.47,66.49,66.45,66.39,66.32,66.30,66.28,66.28,66.27
70.52,70.49,70.49,70.50,70.50,70.48,70.48,70.51,70.53,70.54,70.53,70.55,70.56,70.56,70.58,70.60,70.57,70.50,70.41,70.28,70.18,70.14,70.15,70.15,70.11,70.09,70.06,70.01,69.94,69.92,69.94,69.96,69.94,69.85,69.78,69.73,69.72,69.69,69.64,69.63,69.69,69.83,69.95,70.03,70.07,70.07,70.07,70.00,69.74,69.26,68.94,68.84,68.81,68.80,68.80,68.80,68.81,68.84,68.88,68.90,68.89,68.90,68.94,68.92,68.90,68.93,69.00,69.08,69.18,69.23,69.24,69.21,69.24,69.28,69.30,69.29,69.30,69.30,69.31,69.31,69.29,69.33,69.30,69.26,69.24,69.18,69.11,69.05,68.98,68.92,68.97,69.06,69.12,69.10,69.05,69.05,69.05,69.03,69.00,68.99,68.91,68.82,68.80,68.83,68.87,68.88,68.86,68.89,68.89,68.86,68.83,68.81,68.71,68.68,68.70,68.70,68.70,68.74,68.80,68.86,68.98,68.83,68.76,68.75,68.70,68.70,68.70,68.70,68.68,68.52,68.45,68.41,68.39,68.44,68.44,68.42,68.39,68.36,68.40,68.44,68.46,68.47,68.50,68.51,68.53,68.54,68.54,68.54,68.43,68.31,68.22,67.90,67.77,67.72,67.71,67.72,67.71,67.70,67.69,67.67,67.69,67.70,67.70,67.77,68.06,68.07,68.05,68.02,67.94,67.94,67.90,67.85,67.81,67.77,67.74,67.68,67.62,67.64,67.55,67.49,67.46,67.45,67.44,67.46,67.45,67.40,67.36,67.32,67.27,67.23,67.23,67.22,67.24,67.25,67.24,67.26,67.24,67.20,67.16,67.16,67.14,67.11,67.08,67.07,67.11,67.14,67.19,67.24,67.30,67.35,67.36,67.33,67.32,67.30,67.25,67.18,67.12,67.11,67.05,67.00,66.98,66.96,66.84,66.66,66.48,66.36,66.37,66.31,66.30,66.36,66.50,66.47,66.36,66.21,66.03,65.83,65.73,65.72,65.80,65.88,65.98,66.08,66.17,66.22,66.26,66.34,66.43,66.49,66.50,66.47,66.40,66.33,66.30,66.27,66.25,66.24
70.47,70.47,70.48,70.46,70.43,70.39,70.43,70.44,70.43,70.42,70.45,70.54,70.59,70.61,70.61,70.63,70.61,70.55,70.44,70.27,70.17,70.14,70.15,70.14,70.11,70.07,70.02,69.96,69.92,69.93,69.96,69.97,69.92,69.82,69.75,69.73,69.75,69.67,69.61,69.56,69.55,69.67,69.84,69.97,70.04,70.04,70.05,70.05,69.88,69.42,69.02,68.87,68.83,68.81,68.80,68.80,68.83,68.86,68.89,68.90,68.89,68.89,68.92,68.91,68.89,68.89,68.94,69.06,69.15,69.19,69.20,69.20,69.22,69.21,69.20,69.19,69.26,69.28,69.27,69.25,69.26,69.28,69.29,69.30,69.29,69.23,69.12,69.04,68.98,68.92,68.99,69.10,69.16,69.12,69.06,69.05,69.02,68.98,68.99,68.97,68.90,68.82,68.80,68.80,68.85,68.89,68.90,68.90,68.87,68.82,68.78,68.80,68.73,68.70,68.70,68.70,68.70,68.73,68.79,68.87,68.98,68.80,68.73,68.74,68.70,68.70,68.70,68.70,68.68,68.53,68.47,68.43,68.42,68.50,68.50,68.48,68.43,68.36,68.36,68.44,68.50,68.50,68.50,68.54,68.53,68.50,68.50,68.53,68.40,68.28,68.20,67.80,67.71,67.70,67.72,67.75,67.71,67.70,67.69,67.66,67.69,67.69,67.70,67.76,68.04,68.09,68.09,68.06,68.00,67.98,67.93,67.87,67.81,67.77,67.74,67.68,67.60,67.58,67.52,67.48,67.46,67.44,67.45,67.47,67.47,67.42,67.36,67.29,67.24,67.21,67.22,67.21,67.25,67.29,67.28,67.27,67.24,67.20,67.15,67.12,67.12,67.09,67.04,67.01,67.03,67.06,67.12,67.19,67.28,67.34,67.33,67.28,67.27,67.31,67.32,67.29,67.22,67.18,67.09,67.02,66.98,66.96,66.84,66.65,66.46,66.35,66.36,66.30,66.29,66.38,66.52,66.46,66.33,66.18,66.02,65.82,65.73,65.76,65.85,65.87,65.96,66.06,66.16,66.20,66.26,66.36,66.46,66.50,66.50,66.47,66.42,66.34,66.30,66.26,66.23,66.21
70.36,70.38,70.41,70.40,70.37,70.36,70.39,70.41,70.42,70.43,70.45,70.49,70.49,70.47,70.48,70.54,70.54,70.48,70.37,70.26,70.23,70.20,70.17,70.13,70.11,70.08,70.04,70.00,69.97,69.96,69.95,69.93,69.87,69.79,69.71,69.66,69.65,69.61,69.56,69.54,69.54,69.59,69.75,69.91,70.03,70.09,70.12,70.14,70.05,69.75,69.24,68.98,68.87,68.85,68.84,68.83,68.84,68.87,68.91,68.97,68.99,69.00,69.00,68.96,68.89,68.88,68.93,69.05,69.14,69.17,69.18,69.19,69.22,69.20,69.16,69.14,69.19,69.22,69.24,69.26,69.23,69.25,69.27,69.30,69.29,69.20,69.13,69.07,69.02,68.96,69.05,69.14,69.17,69.12,69.09,69.08,69.06,69.01,68.97,68.94,68.88,68.82,68.84,68.81,68.83,68.85,68.85,68.85,68.83,68.82,68.81,68.80,68.73,68.68,68.67,68.70,68.73,68.73,68.78,68.91,68.99,68.80,68.74,68.76,68.70,68.70,68.70,68.68,68.64,68.58,68.51,68.48,68.49,68.56,68.53,68.54,68.52,68.43,68.40,68.45,68.50,68.51,68.55,68.57,68.55,68.50,68.50,68.47,68.35,68.25,68.20,67.74,67.65,67.67,67.71,67.73,67.71,67.70,67.70,67.69,67.70,67.70,67.71,67.80,68.11,68.14,68.09,68.03,68.00,67.98,67.93,67.86,67.80,67.79,67.76,67.68,67.58,67.55,67.55,67.55,67.54,67.52,67.50,67.54,67.55,67.53,67.48,67.38,67.30,67.24,67.21,67.21,67.28,67.35,67.40,67.36,67.34,67.31,67.26,67.18,67.17,67.14,67.08,67.00,67.01,67.02,67.06,67.15,67.28,67.31,67.30,67.27,67.25,67.28,67.26,67.22,67.18,67.11,67.05,67.00,66.96,66.90,66.79,66.62,66.45,66.34,66.36,66.30,66.30,66.39,66.53,66.47,66.35,66.21,66.06,65.84,65.79,65.88,66.06,66.02,66.01,66.07,66.16,66.20,66.27,66.37,66.47,66.53,66.53,66.49,66.42,66.34,66.28,66.23,66.21,66.20
70.33,70.35,70.37,70.35,70.33,70.34,70.37,70.39,70.40,70.41,70.43,70.44,70.41,70.39,70.41,70.48,70.48,70.41,70.30,70.26,70.28,70.27,70.21,70.14,70.10,70.08,70.06,70.04,70.00,69.97,69.94,69.89,69.84,69.77,69.70,69.66,69.63,69.60,69.56,69.55,69.58,69.62,69.77,69.94,70.07,70.13,70.17,70.19,70.14,69.97,69.45,69.10,68.93,68.88,68.87,68.87,68.87,68.90,68.94,69.02,69.06,69.06,69.04,69.00,68.91,68.87,68.91,69.00,69.12,69.15,69.15,69.16,69.19,69.16,69.11,69.09,69.11,69.14,69.19,69.22,69.19,69.19,69.24,69.29,69.29,69.21,69.16,69.10,69.04,69.03,69.11,69.18,69.19,69.14,69.13,69.14,69.11,69.03,68.95,68.92,68.87,68.84,68.87,68.84,68.83,68.82,68.82,68.82,68.81,68.81,68.81,68.78,68.72,68.67,68.64,68.67,68.71,68.70,68.76,68.86,68.88,68.74,68.72,68.75,68.70,68.70,68.70,68.67,68.59,68.57,68.52,68.50,68.51,68.57,68.51,68.51,68.51,68.45,68.41,68.44,68.47,68.48,68.52,68.53,68.49,68.45,68.47,68.43,68.31,68.23,68.20,67.73,67.65,67.67,67.70,67.71,67.70,67.70,67.70,67.70,67.71,67.72,67.75,67.84,68.14,68.15,68.08,68.01,68.00,67.98,67.93,67.85,67.79,67.78,67.77,67.69,67.58,67.56,67.60,67.61,67.59,67.58,67.54,67.56,67.57,67.54,67.51,67.43,67.35,67.28,67.21,67.20,67.28,67.38,67.45,67.40,67.37,67.33,67.28,67.20,67.19,67.15,67.08,66.99,66.98,66.98,67.03,67.13,67.24,67.25,67.25,67.24,67.22,67.23,67.22,67.19,67.17,67.10,67.05,67.01,66.96,66.87,66.76,66.61,66.45,66.34,66.36,66.31,66.30,66.39,66.53,66.48,66.38,66.27,66.14,65.95,65.95,66.09,66.29,66.24,66.17,66.16,66.19,66.22,66.30,66.41,66.51,66.57,66.55,66.49,66.42,66.34,66.26,66.22,66.20,66.19
70.38,70.37,70.36,70.33,70.31,70.32,70.35,70.37,70.38,70.38,70.39,70.39,70.36,70.35,70.41,70.47,70.43,70.34,70.23,70.27,70.34,70.34,70.28,70.18,70.10,70.07,70.07,70.07,70.02,69.97,69.92,69.87,69.82,69.76,69.73,69.71,69.69,69.64,69.60,69.61,69.68,69.77,69.91,70.04,70.14,70.18,70.20,70.18,70.14,70.06,69.64,69.25,69.01,68.92,68.90,68.90,68.92,68.95,68.99,69.06,69.09,69.09,69.05,69.01,68.94,68.88,68.86,68.90,69.07,69.13,69.13,69.12,69.13,69.08,69.05,69.03,69.03,69.07,69.11,69.14,69.13,69.13,69.20,69.27,69.30,69.27,69.22,69.13,69.06,69.12,69.17,69.23,69.25,69.19,69.19,69.22,69.18,69.04,68.93,68.91,68.89,68.89,68.90,68.89,68.84,68.81,68.80,68.80,68.80,68.80,68.79,68.73,68.71,68.66,68.61,68.62,68.63,68.67,68.71,68.72,68.66,68.63,68.66,68.70,68.70,68.70,68.70,68.64,68.52,68.51,68.50,68.50,68.50,68.51,68.43,68.41,68.41,68.40,68.40,68.40,68.41,68.41,68.41,68.41,68.37,68.34,68.41,68.40,68.29,68.23,68.21,67.77,67.70,67.70,67.70,67.70,67.70,67.70,67.70,67.70,67.72,67.76,67.81,67.89,68.15,68.12,68.06,68.01,68.00,67.98,67.93,67.85,67.78,67.73,67.75,67.70,67.60,67.62,67.66,67.64,67.60,67.60,67.57,67.55,67.51,67.47,67.46,67.44,67.40,67.32,67.24,67.17,67.25,67.36,67.44,67.40,67.32,67.26,67.23,67.19,67.17,67.12,67.05,66.97,66.93,66.95,67.03,67.13,67.16,67.15,67.16,67.19,67.17,67.16,67.18,67.20,67.19,67.15,67.11,67.06,66.99,66.87,66.77,66.61,66.45,66.34,66.36,66.32,66.32,66.39,66.51,66.51,66.45,66.36,66.26,66.17,66.22,66.37,66.53,66.52,66.43,66.33,66.26,66.27,66.36,66.47,66.56,66.60,66.56,66.49,66.42,66.34,66.26,66.22,66.20,66.19
70.44,70.43,70.41,70.36,70.32,70.31,70.32,70.34,70.34,70.34,70.34,70.36,70.39,70.43,70.51,70.49,70.41,70.30,70.22,70.26,70.34,70.36,70.34,70.27,70.18,70.10,70.05,70.01,69.98,69.94,69.90,69.85,69.78,69.75,69.77,69.79,69.77,69.70,69.66,69.68,69.77,69.90,70.02,70.10,70.14,70.14,70.15,70.12,70.09,70.07,69.89,69.49,69.14,68.96,68.92,68.93,68.96,68.99,69.03,69.08,69.12,69.14,69.12,69.05,68.96,68.88,68.84,68.84,69.00,69.07,69.07,69.05,69.05,69.01,68.99,68.99,69.01,69.06,69.08,69.07,69.05,69.05,69.09,69.18,69.31,69.34,69.30,69.20,69.10,69.07,69.08,69.14,69.19,69.19,69.19,69.18,69.10,68.97,68.91,68.90,68.90,68.90,68.91,68.93,68.92,68.91,68.90,68.83,68.81,68.81,68.79,68.73,68.72,68.66,68.61,68.61,68.61,68.63,68.64,68.64,68.57,68.56,68.58,68.60,68.59,68.58,68.55,68.50,68.46,68.53,68.52,68.50,68.51,68.50,68.48,68.50,68.53,68.51,68.42,68.43,68.43,68.41,68.46,68.43,68.39,68.36,68.34,68.34,68.27,68.23,68.21,67.78,67.70,67.70,67.70,67.70,67.70,67.70,67.70,67.71,67.74,67.77,67.81,67.88,68.11,68.11,68.07,68.03,68.00,67.98,67.92,67.85,67.78,67.75,67.73,67.67,67.61,67.65,67.68,67.65,67.61,67.59,67.49,67.39,67.32,67.29,67.28,67.28,67.28,67.25,67.21,67.15,67.20,67.25,67.27,67.25,67.20,67.17,67.16,67.14,67.12,67.09,67.03,66.97,66.94,66.97,67.03,67.11,67.12,67.12,67.14,67.16,67.14,67.17,67.19,67.19,67.17,67.13,67.11,67.07,67.01,66.89,66.78,66.62,66.46,66.34,66.36,66.32,66.31,66.38,66.51,66.53,66.51,66.46,66.42,66.41,66.45,66.51,66.58,66.55,66.47,66.42,66.40,66.40,66.43,66.50,66.58,66.62,66.56,66.50,66.44,66.38,66.29,66.22,66.18,66.16
70.50,70.50,70.46,70.41,70.36,70.33,70.33,70.33,70.32,70.30,70.29,70.31,70.38,70.46,70.54,70.48,70.37,70.27,70.23,70.27,70.33,70.37,70.37,70.33,70.27,70.17,70.05,69.97,69.94,69.92,69.89,69.85,69.78,69.77,69.81,69.85,69.83,69.75,69.72,69.73,69.81,69.93,70.03,70.09,70.11,70.11,70.10,70.07,70.05,70.06,70.07,69.65,69.24,68.99,68.95,68.96,68.98,69.01,69.04,69.07,69.11,69.15,69.16,69.07,68.98,68.90,68.84,68.81,68.94,69.00,69.00,68.98,68.99,68.95,68.94,68.96,69.00,69.06,69.06,69.03,69.00,69.00,69.00,69.09,69.29,69.36,69.35,69.26,69.15,69.05,69.01,69.05,69.11,69.14,69.15,69.10,69.00,68.90,68.89,68.89,68.89,68.90,68.92,68.96,68.97,68.97,68.96,68.86,68.85,68.84,68.82,68.77,68.75,68.70,68.65,68.63,68.61,68.60,68.60,68.59,68.54,68.54,68.54,68.53,68.50,68.48,68.44,68.41,68.42,68.54,68.52,68.51,68.52,68.50,68.53,68.60,68.65,68.59,68.44,68.44,68.44,68.42,68.51,68.46,68.42,68.38,68.31,68.30,68.25,68.22,68.20,67.78,67.70,67.70,67.70,67.70,67.71,67.70,67.70,67.71,67.75,67.76,67.79,67.87,68.07,68.10,68.08,68.04,68.00,67.97,67.92,67.85,67.79,67.76,67.71,67.65,67.62,67.66,67.69,67.67,67.64,67.61,67.46,67.28,67.17,67.15,67.14,67.15,67.18,67.20,67.18,67.15,67.16,67.16,67.14,67.13,67.10,67.09,67.09,67.10,67.08,67.06,67.02,66.98,66.96,66.98,67.04,67.10,67.10,67.11,67.12,67.13,67.13,67.18,67.20,67.19,67.16,67.12,67.11,67.08,67.02,66.91,66.79,66.64,66.47,66.34,66.36,66.32,66.31,66.38,66.50,66.55,66.55,66.54,66.54,66.58,66.59,66.59,66.58,66.53,66.48,66.47,66.49,66.51,66.50,66.53,66.58,66.62,66.56,66.51,66.47,66.43,66.33,66.22,66.15,66.13
70.53,70.55,70.50,70.48,70.46,70.43,70.39,70.36,70.32,70.27,70.22,70.22,70.27,70.34,70.41,70.38,70.31,70.27,70.29,70.34,70.35,70.35,70.35,70.34,70.35,70.29,70.15,69.96,69.89,69.91,69.93,69.91,69.84,69.84,69.86,69.88,69.84,69.76,69.74,69.74,69.75,69.73,69.79,69.91,70.04,70.10,70.06,70.05,70.06,70.08,70.07,69.64,69.23,68.98,68.98,68.99,69.00,68.99,68.97,68.99,69.01,69.05,69.09,69.04,68.98,68.92,68.88,68.84,68.89,68.91,68.92,68.91,68.95,68.93,68.90,68.92,69.00,69.05,69.06,69.03,68.99,68.98,68.98,69.06,69.20,69.28,69.32,69.29,69.21,69.12,69.00,68.96,68.97,69.00,69.04,68.98,68.90,68.83,68.84,68.84,68.85,68.89,68.94,68.93,68.92,68.92,68.91,68.89,68.92,68.92,68.89,68.87,68.83,68.78,68.74,68.71,68.65,68.60,68.58,68.60,68.59,68.61,68.62,68.59,68.51,68.49,68.45,68.43,68.44,68.50,68.51,68.52,68.54,68.50,68.56,68.66,68.70,68.59,68.46,68.42,68.41,68.42,68.53,68.50,68.45,68.39,68.34,68.33,68.26,68.21,68.18,67.77,67.70,67.70,67.70,67.70,67.73,67.72,67.70,67.70,67.72,67.74,67.77,67.84,68.07,68.09,68.07,68.04,67.99,67.96,67.91,67.85,67.79,67.76,67.71,67.65,67.62,67.66,67.69,67.70,67.70,67.70,67.54,67.32,67.16,67.12,67.13,67.13,67.16,67.20,67.19,67.16,67.15,67.14,67.14,67.12,67.07,67.05,67.06,67.08,67.05,67.02,67.00,67.00,66.99,67.00,67.04,67.10,67.10,67.10,67.11,67.11,67.13,67.18,67.20,67.20,67.18,67.16,67.14,67.10,67.04,66.95,66.83,66.66,66.48,66.34,66.36,66.32,66.32,66.39,66.52,66.57,66.58,66.55,66.54,66.57,66.56,66.54,66.54,66.51,66.49,66.48,66.50,66.54,66.54,66.53,66.54,66.58,66.56,66.52,66.49,66.47,66.36,66.22,66.13,66.11
70.53,70.56,70.52,70.50,70.47,70.43,70.40,70.39,70.36,70.32,70.25,70.23,70.24,70.26,70.29,70.27,70.27,70.30,70.36,70.39,70.37,70.35,70.34,70.33,70.36,70.33,70.24,70.06,69.91,69.88,69.89,69.89,69.87,69.87,69.89,69.88,69.84,69.79,69.76,69.75,69.74,69.71,69.79,69.92,70.04,70.09,70.06,70.04,70.04,70.05,69.92,69.51,69.15,68.96,68.97,68.98,68.99,68.99,68.97,68.97,68.98,69.01,69.05,69.03,68.99,68.95,68.91,68.87,68.87,68.87,68.86,68.85,68.88,68.86,68.86,68.89,68.95,69.00,69.00,68.97,68.93,68.92,68.94,68.99,69.07,69.12,69.17,69.19,69.18,69.14,69.04,68.97,68.94,68.96,68.99,68.92,68.84,68.80,68.80,68.80,68.82,68.87,68.92,68.91,68.90,68.90,68.90,68.90,68.92,68.92,68.90,68.90,68.88,68.85,68.82,68.77,68.69,68.60,68.56,68.57,68.60,68.62,68.63,68.59,68.53,68.55,68.53,68.49,68.47,68.50,68.50,68.52,68.56,68.56,68.61,68.68,68.70,68.60,68.52,68.46,68.42,68.42,68.52,68.55,68.52,68.44,68.37,68.39,68.31,68.22,68.16,67.80,67.71,67.70,67.70,67.70,67.73,67.72,67.70,67.70,67.70,67.72,67.75,67.82,68.07,68.10,68.08,68.05,67.99,67.97,67.93,67.87,67.82,67.77,67.71,67.65,67.63,67.67,67.70,67.72,67.75,67.76,67.62,67.36,67.17,67.13,67.13,67.14,67.17,67.18,67.16,67.14,67.13,67.12,67.12,67.11,67.08,67.06,67.06,67.05,67.03,67.01,67.00,67.00,67.00,67.01,67.05,67.10,67.09,67.07,67.07,67.08,67.12,67.16,67.19,67.20,67.19,67.17,67.14,67.10,67.04,66.95,66.83,66.67,66.51,66.38,66.39,66.34,66.33,66.42,66.55,66.59,66.59,66.57,66.55,66.55,66.55,66.53,66.52,66.50,66.49,66.49,66.50,66.53,66.53,66.52,66.52,66.56,66.57,66.56,66.54,66.52,66.37,66.20,66.13,66.13
70.50,70.54,70.52,70.49,70.44,70.40,70.39,70.40,70.41,70.40,70.32,70.28,70.25,70.22,70.19,70.18,70.24,70.34,70.42,70.43,70.40,70.37,70.33,70.32,70.33,70.35,70.31,70.18,69.96,69.85,69.83,69.85,69.87,69.89,69.90,69.88,69.84,69.81,69.78,69.76,69.74,69.76,69.85,69.97,70.06,70.09,70.06,70.04,70.03,70.01,69.73,69.34,69.05,68.92,68.93,68.95,68.97,68.98,69.00,68.98,68.98,69.00,69.03,69.02,69.00,68.97,68.92,68.90,68.88,68.84,68.81,68.80,68.80,68.78,68.79,68.85,68.88,68.92,68.92,68.89,68.85,68.84,68.88,68.92,68.94,68.94,68.98,69.05,69.11,69.13,69.08,69.02,68.97,68.95,68.96,68.88,68.82,68.79,68.76,68.77,68.80,68.85,68.89,68.90,68.90,68.90,68.90,68.90,68.90,68.90,68.90,68.91,68.90,68.90,68.87,68.80,68.73,68.60,68.52,68.54,68.59,68.62,68.61,68.58,68.57,68.64,68.61,68.55,68.50,68.51,68.51,68.53,68.58,68.63,68.67,68.69,68.67,68.60,68.57,68.51,68.45,68.42,68.49,68.60,68.60,68.52,68.41,68.44,68.35,68.24,68.14,67.82,67.72,67.70,67.71,67.71,67.72,67.71,67.70,67.70,67.70,67.71,67.73,67.80,68.07,68.10,68.10,68.07,68.00,67.99,67.94,67.89,67.86,67.79,67.72,67.65,67.63,67.69,67.70,67.74,67.78,67.80,67.69,67.39,67.18,67.15,67.12,67.16,67.18,67.16,67.11,67.11,67.11,67.10,67.10,67.10,67.09,67.08,67.06,67.02,67.00,67.00,67.00,67.00,67.00,67.02,67.05,67.10,67.07,67.03,67.02,67.05,67.10,67.13,67.17,67.20,67.19,67.17,67.12,67.08,67.03,66.93,66.81,66.67,66.54,66.43,66.42,66.36,66.35,66.45,66.58,66.60,66.60,66.59,66.56,66.54,66.54,66.53,66.50,66.50,66.50,66.50,66.50,66.50,66.51,66.50,66.51,66.55,66.59,66.60,66.60,66.57,66.37,66.19,66.13,66.16
70.43,70.44,70.44,70.43,70.41,70.40,70.40,70.41,70.43,70.44,70.43,70.40,70.33,70.26,70.18,70.17,70.25,70.35,70.42,70.45,70.45,70.43,70.39,70.34,70.32,70.32,70.28,70.18,70.01,69.90,69.83,69.80,69.82,69.88,69.90,69.88,69.83,69.81,69.79,69.78,69.75,69.75,69.79,69.88,69.98,70.05,70.07,70.07,70.07,70.06,69.61,69.21,68.96,68.88,68.86,68.89,68.93,68.97,69.00,68.98,68.98,69.00,69.01,69.01,68.98,68.94,68.91,68.87,68.86,68.83,68.81,68.83,68.80,68.74,68.71,68.73,68.78,68.83,68.85,68.84,68.78,68.77,68.80,68.84,68.86,68.86,68.87,68.92,68.98,69.01,69.02,69.01,68.99,68.99,68.99,68.90,68.79,68.72,68.76,68.82,68.84,68.85,68.89,68.90,68.90,68.90,68.90,68.90,68.90,68.90,68.91,68.95,68.92,68.90,68.87,68.80,68.73,68.60,68.52,68.52,68.59,68.64,68.63,68.60,68.64,68.68,68.64,68.57,68.51,68.55,68.56,68.57,68.60,68.68,68.73,68.73,68.69,68.66,68.55,68.51,68.48,68.46,68.44,68.60,68.67,68.60,68.46,68.43,68.31,68.19,68.07,67.77,67.71,67.73,67.77,67.76,67.73,67.74,67.75,67.70,67.70,67.70,67.72,67.79,68.07,68.10,68.10,68.07,68.00,67.99,67.94,67.89,67.87,67.79,67.71,67.62,67.56,67.63,67.64,67.68,67.74,67.80,67.73,67.41,67.16,67.12,67.11,67.12,67.12,67.10,67.06,67.09,67.11,67.12,67.14,67.11,67.10,67.09,67.08,67.05,67.02,67.00,67.00,67.00,67.01,67.02,67.05,67.10,67.08,67.04,67.04,67.07,67.11,67.14,67.17,67.17,67.14,67.13,67.09,67.04,66.98,66.89,66.78,66.64,66.51,66.42,66.41,66.39,66.40,66.48,66.59,66.58,66.56,66.54,66.53,66.53,66.53,66.52,66.50,66.50,66.50,66.50,66.51,66.54,66.56,66.55,66.53,66.55,66.60,66.61,66.60,66.55,66.37,66.22,66.17,66.19
70.39,70.38,70.37,70.37,70.37,70.36,70.37,70.41,70.45,70.47,70.48,70.44,70.36,70.27,70.19,70.20,70.28,70.35,70.41,70.44,70.46,70.44,70.41,70.36,70.33,70.31,70.27,70.20,70.09,70.01,69.93,69.84,69.77,69.82,69.86,69.87,69.83,69.79,69.79,69.78,69.75,69.74,69.75,69.81,69.89,69.98,70.05,70.09,70.12,70.13,69.66,69.27,69.03,68.93,68.87,68.86,68.90,68.94,68.97,68.98,68.99,69.00,69.00,69.00,68.98,68.95,68.91,68.87,68.87,68.84,68.81,68.83,68.82,68.75,68.69,68.68,68.70,68.73,68.76,68.77,68.73,68.72,68.75,68.78,68.80,68.79,68.80,68.83,68.89,68.96,68.98,68.97,68.97,69.00,69.02,68.92,68.79,68.70,68.77,68.82,68.82,68.81,68.88,68.89,68.90,68.90,68.90,68.92,68.93,68.93,68.93,68.95,68.94,68.91,68.86,68.80,68.71,68.57,68.49,68.51,68.55,68.60,68.58,68.56,68.65,68.71,68.68,68.60,68.51,68.58,68.59,68.59,68.61,68.66,68.71,68.70,68.66,68.65,68.53,68.50,68.50,68.51,68.44,68.59,68.67,68.63,68.48,68.41,68.28,68.16,68.05,67.78,67.74,67.76,67.80,67.79,67.75,67.76,67.77,67.70,67.70,67.70,67.73,67.81,68.07,68.08,68.06,68.04,67.99,67.97,67.93,67.89,67.88,67.80,67.71,67.61,67.54,67.61,67.58,67.58,67.62,67.70,67.68,67.43,67.23,67.16,67.17,67.17,67.16,67.14,67.11,67.15,67.15,67.14,67.14,67.12,67.12,67.12,67.11,67.08,67.04,67.02,67.01,67.01,67.03,67.04,67.08,67.12,67.12,67.12,67.12,67.14,67.17,67.18,67.19,67.18,67.13,67.14,67.11,67.05,66.98,66.90,66.77,66.62,66.49,66.41,66.40,66.39,66.42,66.51,66.58,66.56,66.53,66.51,66.52,66.53,66.53,66.53,66.50,66.49,66.50,66.50,66.52,66.57,66.58,66.56,66.54,66.56,66.60,66.61,66.58,66.53,66.38,66.26,66.20,66.20
70.36,70.33,70.33,70.32,70.31,70.30,70.32,70.41,70.47,70.49,70.48,70.42,70.34,70.26,70.20,70.25,70.31,70.35,70.37,70.41,70.42,70.42,70.41,70.39,70.35,70.32,70.28,70.23,70.17,70.18,70.11,69.94,69.72,69.73,69.80,69.86,69.84,69.77,69.76,69.75,69.74,69.75,69.74,69.76,69.80,69.88,70.00,70.09,70.18,70.21,69.84,69.49,69.22,69.05,68.93,68.86,68.86,68.88,68.92,68.96,68.99,69.00,69.00,69.00,69.00,68.97,68.92,68.90,68.90,68.86,68.82,68.81,68.86,68.79,68.73,68.69,68.64,68.62,68.65,68.69,68.70,68.70,68.70,68.73,68.78,68.73,68.76,68.79,68.83,68.96,68.93,68.91,68.93,68.99,69.06,68.95,68.81,68.73,68.77,68.79,68.76,68.76,68.86,68.88,68.89,68.89,68.90,68.97,68.98,68.99,68.97,68.92,68.97,68.91,68.83,68.80,68.66,68.51,68.45,68.49,68.50,68.51,68.47,68.46,68.59,68.73,68.73,68.64,68.52,68.57,68.59,68.59,68.59,68.59,68.60,68.60,68.59,68.59,68.52,68.49,68.52,68.56,68.49,68.56,68.62,68.61,68.45,68.38,68.27,68.15,68.05,67.83,67.80,67.80,67.80,67.80,67.80,67.79,67.77,67.70,67.70,67.71,67.75,67.86,68.07,68.03,68.00,68.00,67.97,67.92,67.90,67.90,67.88,67.81,67.71,67.60,67.55,67.64,67.52,67.43,67.42,67.50,67.53,67.47,67.37,67.28,67.29,67.30,67.30,67.29,67.27,67.26,67.22,67.16,67.12,67.15,67.16,67.15,67.13,67.08,67.08,67.05,67.03,67.04,67.06,67.08,67.12,67.17,67.20,67.25,67.26,67.26,67.27,67.25,67.24,67.21,67.17,67.18,67.16,67.10,67.03,66.94,66.77,66.61,66.48,66.42,66.40,66.38,66.41,66.52,66.57,66.55,66.52,66.51,66.53,66.55,66.56,66.55,66.51,66.48,66.49,66.51,66.53,66.59,66.58,66.55,66.53,66.57,66.62,66.60,66.56,66.52,66.41,66.30,66.23,66.21
70.32,70.29,70.28,70.25,70.21,70.15,70.20,70.29,70.35,70.38,70.38,70.35,70.29,70.21,70.14,70.16,70.19,70.21,70.24,70.30,70.35,70.39,70.40,70.40,70.36,70.34,70.32,70.30,70.25,70.25,70.20,70.06,69.81,69.73,69.75,69.80,69.81,69.79,69.76,69.74,69.71,69.69,69.67,69.68,69.72,69.80,69.94,70.05,70.09,70.01,69.73,69.52,69.31,69.10,68.94,68.87,68.83,68.83,68.84,68.89,68.95,68.98,68.99,68.99,69.00,68.98,68.95,68.91,68.87,68.85,68.85,68.85,68.88,68.86,68.83,68.79,68.70,68.65,68.62,68.61,68.62,68.65,68.67,68.70,68.72,68.69,68.70,68.74,68.78,68.85,68.87,68.85,68.85,68.87,68.91,68.86,68.79,68.73,68.73,68.71,68.70,68.72,68.77,68.77,68.76,68.77,68.80,68.86,68.90,68.91,68.90,68.89,68.96,68.92,68.85,68.82,68.69,68.52,68.45,68.49,68.50,68.50,68.47,68.45,68.53,68.68,68.71,68.64,68.51,68.53,68.55,68.55,68.54,68.56,68.57,68.56,68.54,68.54,68.53,68.48,68.48,68.50,68.44,68.49,68.52,68.47,68.30,68.27,68.22,68.14,68.00,67.83,67.80,67.80,67.80,67.80,67.80,67.80,67.77,67.70,67.70,67.71,67.74,67.84,68.06,68.03,68.00,67.98,67.93,67.91,67.90,67.90,67.88,67.82,67.70,67.60,67.58,67.75,67.68,67.60,67.59,67.69,67.73,67.71,67.64,67.56,67.61,67.62,67.61,67.58,67.55,67.51,67.42,67.33,67.27,67.33,67.33,67.31,67.26,67.19,67.19,67.18,67.17,67.16,67.15,67.21,67.27,67.30,67.28,67.27,67.27,67.28,67.28,67.26,67.24,67.21,67.17,67.20,67.18,67.11,67.01,66.90,66.75,66.60,66.48,66.41,66.40,66.38,66.41,66.50,66.59,66.57,66.53,66.48,66.46,66.50,66.54,66.55,66.52,66.52,66.52,66.53,66.55,66.60,66.59,66.56,66.54,66.57,66.60,66.59,66.55,66.49,66.37,66.27,66.22,66.20
70.26,70.24,70.23,70.20,70.14,70.06,70.13,70.20,70.25,70.27,70.26,70.27,70.23,70.18,70.12,70.12,70.12,70.12,70.14,70.20,70.27,70.32,70.36,70.37,70.34,70.33,70.33,70.33,70.30,70.29,70.25,70.15,69.94,69.78,69.73,69.74,69.77,69.78,69.76,69.72,69.69,69.66,69.62,69.62,69.66,69.72,69.85,69.96,69.96,69.81,69.61,69.49,69.33,69.11,68.93,68.85,68.81,68.79,68.78,68.83,68.90,68.96,68.98,68.99,68.99,68.98,68.94,68.88,68.84,68.84,68.85,68.87,68.89,68.89,68.89,68.85,68.74,68.68,68.62,68.57,68.56,68.60,68.62,68.64,68.65,68.63,68.64,68.67,68.71,68.73,68.77,68.77,68.77,68.79,68.80,68.81,68.79,68.76,68.72,68.68,68.68,68.70,68.70,68.68,68.67,68.67,68.71,68.74,68.79,68.80,68.79,68.81,68.91,68.89,68.83,68.79,68.69,68.52,68.44,68.49,68.49,68.49,68.47,68.45,68.49,68.64,68.68,68.63,68.50,68.50,68.52,68.52,68.51,68.54,68.54,68.51,68.49,68.49,68.52,68.48,68.44,68.44,68.39,68.42,68.42,68.35,68.21,68.21,68.20,68.13,67.97,67.84,67.81,67.81,67.80,67.80,67.80,67.80,67.77,67.70,67.70,67.71,67.75,67.83,68.06,68.03,67.99,67.96,67.90,67.90,67.90,67.89,67.87,67.82,67.69,67.60,67.61,67.82,67.80,67.75,67.75,67.84,67.89,67.88,67.84,67.78,67.85,67.84,67.82,67.78,67.75,67.68,67.57,67.47,67.42,67.47,67.46,67.42,67.35,67.26,67.27,67.28,67.29,67.27,67.25,67.30,67.37,67.39,67.34,67.29,67.28,67.30,67.28,67.26,67.25,67.22,67.18,67.18,67.16,67.08,66.97,66.86,66.72,66.59,66.48,66.41,66.40,66.39,66.42,66.50,66.59,66.59,66.54,66.48,66.44,66.48,66.53,66.54,66.52,66.54,66.54,66.54,66.55,66.59,66.60,66.58,66.56,66.57,66.59,66.59,66.55,66.48,66.35,66.26,66.21,66.19
70.18,70.19,70.20,70.19,70.15,70.10,70.15,70.19,70.20,70.18,70.16,70.16,70.16,70.16,70.18,70.18,70.16,70.13,70.11,70.12,70.15,70.20,70.25,70.28,70.28,70.28,70.28,70.28,70.28,70.26,70.23,70.18,70.11,69.94,69.79,69.70,69.69,69.74,69.74,69.72,69.70,69.68,69.64,69.62,69.62,69.66,69.70,69.77,69.78,69.64,69.50,69.38,69.20,69.00,68.88,68.82,68.79,68.78,68.75,68.80,68.87,68.92,68.94,68.98,68.98,68.93,68.85,68.79,68.81,68.81,68.81,68.82,68.85,68.86,68.85,68.81,68.71,68.71,68.68,68.63,68.57,68.52,68.52,68.54,68.56,68.54,68.55,68.58,68.61,68.60,68.63,68.65,68.70,68.78,68.82,68.84,68.84,68.82,68.76,68.74,68.72,68.71,68.70,68.67,68.64,68.62,68.62,68.60,68.64,68.65,68.64,68.63,68.78,68.79,68.72,68.68,68.60,68.46,68.42,68.48,68.46,68.45,68.45,68.44,68.45,68.60,68.65,68.59,68.46,68.49,68.52,68.52,68.51,68.54,68.48,68.45,68.45,68.45,68.48,68.46,68.43,68.40,68.35,68.36,68.34,68.30,68.25,68.25,68.22,68.13,67.98,67.88,67.85,67.83,67.80,67.80,67.80,67.80,67.77,67.70,67.71,67.74,67.77,67.84,68.06,68.02,67.97,67.93,67.90,67.90,67.90,67.87,67.83,67.79,67.68,67.59,67.60,67.79,67.82,67.83,67.86,67.89,67.90,67.90,67.89,67.87,67.88,67.84,67.81,67.79,67.77,67.69,67.61,67.54,67.52,67.50,67.46,67.41,67.35,67.24,67.27,67.33,67.38,67.37,67.34,67.34,67.37,67.40,67.37,67.31,67.29,67.30,67.29,67.28,67.28,67.26,67.21,67.13,67.05,66.97,66.88,66.79,66.70,66.60,66.50,66.42,66.42,66.40,66.43,66.53,66.59,66.60,66.58,66.56,66.52,66.53,66.55,66.53,66.47,66.50,66.54,66.54,66.52,66.55,66.59,66.60,66.59,66.59,66.60,66.60,66.58,66.52,66.40,66.29,66.21,66.16
70.16,70.14,70.12,70.11,70.10,70.09,70.16,70.21,70.21,70.17,70.13,70.12,70.13,70.16,70.20,70.19,70.16,70.13,70.10,70.09,70.10,70.12,70.15,70.17,70.19,70.20,70.22,70.24,70.23,70.21,70.19,70.17,70.14,70.05,69.91,69.75,69.65,69.67,69.67,69.68,69.67,69.64,69.60,69.58,69.58,69.59,69.61,69.65,69.65,69.55,69.46,69.29,69.09,68.90,68.81,68.75,68.75,68.76,68.74,68.76,68.81,68.87,68.92,68.96,68.95,68.89,68.80,68.73,68.74,68.74,68.73,68.73,68.77,68.79,68.79,68.76,68.68,68.69,68.69,68.66,68.57,68.50,68.47,68.47,68.48,68.45,68.49,68.53,68.55,68.51,68.51,68.55,68.63,68.76,68.86,68.88,68.88,68.87,68.83,68.79,68.76,68.73,68.70,68.71,68.67,68.64,68.63,68.61,68.59,68.57,68.55,68.54,68.62,68.62,68.58,68.55,68.50,68.40,68.39,68.48,68.47,68.44,68.42,68.43,68.45,68.58,68.62,68.57,68.48,68.53,68.55,68.55,68.54,68.56,68.49,68.48,68.50,68.50,68.52,68.53,68.52,68.47,68.41,68.38,68.35,68.33,68.28,68.28,68.23,68.13,67.98,67.90,67.88,67.85,67.80,67.80,67.80,67.80,67.78,67.74,67.75,67.77,67.79,67.85,68.06,68.02,67.96,67.91,67.90,67.90,67.89,67.86,67.80,67.75,67.68,67.60,67.57,67.71,67.75,67.78,67.80,67.82,67.85,67.85,67.85,67.85,67.84,67.79,67.78,67.78,67.74,67.69,67.63,67.58,67.57,67.54,67.49,67.43,67.35,67.26,67.26,67.33,67.39,67.38,67.33,67.30,67.31,67.35,67.34,67.31,67.30,67.30,67.28,67.27,67.27,67.25,67.19,67.10,67.02,66.94,66.86,66.78,66.68,66.57,66.48,66.42,66.40,66.40,66.45,66.57,66.62,66.65,66.68,66.68,66.65,66.64,66.65,66.64,66.59,66.62,66.64,66.65,66.64,66.67,66.67,66.67,66.66,66.66,66.66,66.66,66.63,66.56,66.43,66.29,66.19,66.12
70.16,70.10,70.05,70.03,70.04,70.07,70.16,70.22,70.22,70.18,70.13,70.11,70.12,70.15,70.19,70.18,70.15,70.12,70.09,70.07,70.06,70.06,70.07,70.06,70.08,70.12,70.16,70.19,70.17,70.15,70.14,70.14,70.12,70.12,70.02,69.84,69.63,69.59,69.60,69.61,69.62,69.58,69.55,69.54,69.54,69.54,69.54,69.55,69.55,69.49,69.42,69.23,69.01,68.83,68.74,68.69,68.70,68.74,68.74,68.72,68.75,68.81,68.88,68.92,68.92,68.85,68.76,68.67,68.67,68.66,68.64,68.63,68.68,68.71,68.72,68.71,68.67,68.68,68.69,68.67,68.58,68.52,68.47,68.44,68.42,68.38,68.43,68.48,68.49,68.43,68.42,68.46,68.56,68.73,68.90,68.92,68.91,68.91,68.89,68.84,68.80,68.77,68.72,68.75,68.72,68.69,68.68,68.65,68.57,68.52,68.50,68.48,68.48,68.46,68.44,68.43,68.41,68.35,68.37,68.48,68.47,68.43,68.40,68.42,68.47,68.57,68.60,68.56,68.50,68.57,68.58,68.58,68.58,68.57,68.51,68.53,68.58,68.58,68.58,68.62,68.62,68.56,68.49,68.43,68.40,68.38,68.32,68.30,68.25,68.13,67.98,67.91,67.89,67.85,67.80,67.80,67.80,67.80,67.80,67.79,67.79,67.80,67.80,67.85,68.06,68.02,67.95,67.90,67.90,67.90,67.89,67.86,67.78,67.72,67.68,67.61,67.55,67.62,67.68,67.71,67.72,67.73,67.79,67.80,67.80,67.80,67.79,67.75,67.75,67.76,67.69,67.67,67.62,67.59,67.60,67.58,67.52,67.44,67.36,67.29,67.26,67.32,67.39,67.36,67.29,67.24,67.25,67.28,67.29,67.29,67.29,67.29,67.27,67.24,67.24,67.23,67.17,67.09,67.02,66.94,66.86,66.78,66.67,66.55,66.44,66.40,66.38,66.39,66.48,66.61,66.65,66.71,66.77,66.80,66.78,66.76,66.76,66.76,66.74,66.76,66.76,66.77,66.80,66.80,66.77,66.75,66.73,66.74,66.73,66.73,66.69,66.60,66.44,66.28,66.16,66.09
70.13,70.11,70.10,70.07,70.05,70.05,70.11,70.13,70.15,70.15,70.10,70.10,70.12,70.15,70.15,70.14,70.12,70.10,70.07,70.00,69.97,70.00,70.03,70.02,70.03,70.06,70.10,70.15,70.11,70.09,70.10,70.11,70.08,70.07,70.01,69.88,69.69,69.56,69.52,69.53,69.55,69.51,69.49,69.51,69.54,69.53,69.52,69.50,69.47,69.40,69.36,69.29,69.13,68.91,68.74,68.72,68.73,68.73,68.72,68.71,68.72,68.74,68.78,68.86,68.89,68.83,68.71,68.62,68.59,68.56,68.55,68.55,68.60,68.63,68.64,68.65,68.67,68.69,68.68,68.64,68.59,68.57,68.58,68.54,68.44,68.36,68.35,68.38,68.42,68.41,68.41,68.39,68.44,68.61,68.82,68.92,68.96,68.96,68.91,68.89,68.84,68.80,68.78,68.79,68.75,68.71,68.69,68.64,68.60,68.55,68.50,68.49,68.49,68.46,68.42,68.41,68.35,68.32,68.37,68.47,68.43,68.41,68.40,68.42,68.49,68.62,68.59,68.53,68.51,68.58,68.59,68.59,68.58,68.53,68.51,68.55,68.61,68.66,68.66,68.67,68.64,68.58,68.57,68.50,68.47,68.46,68.44,68.33,68.28,68.16,67.92,67.90,67.85,67.82,67.80,67.80,67.80,67.80,67.80,67.80,67.80,67.79,67.76,67.76,68.04,68.01,67.94,67.89,67.89,67.88,67.88,67.85,67.79,67.76,67.67,67.60,67.60,67.67,67.70,67.73,67.75,67.76,67.84,67.82,67.81,67.82,67.85,67.81,67.77,67.72,67.59,67.54,67.53,67.56,67.59,67.57,67.52,67.45,67.37,67.30,67.30,67.33,67.35,67.31,67.27,67.23,67.21,67.23,67.24,67.26,67.25,67.25,67.26,67.22,67.21,67.21,67.18,67.14,67.08,67.01,66.93,66.83,66.69,66.54,66.44,66.43,66.40,66.40,66.48,66.62,66.67,66.72,66.78,66.82,66.82,66.79,66.78,66.76,66.76,66.78,66.79,66.79,66.78,66.77,66.76,66.77,66.79,66.80,66.77,66.76,66.73,66.65,66.49,66.32,66.17,66.05
