64.47,65.03,65.22,64.97,64.56,64.31,64.06,63.75,63.44,63.22,63.00,62.79,62.59,62.48,62.53,62.71,62.98,63.15,63.22,63.19,63.11,63.03,63.09,63.14,63.20,63.30,63.36,63.37,63.38,63.40,63.41,63.44,63.48,63.49,63.40,63.27,63.17,63.09,63.03,63.00,63.01,63.03,63.07,63.16,63.25,63.39,63.53,63.60,63.63,63.60,63.61,63.70,63.78,63.48,63.24,63.15,63.17,63.31,63.36,63.33,63.26,63.43,63.45,63.37,63.24,63.08,62.99,62.78,62.58,62.57,62.89,63.00,63.02,63.01,63.01,62.98,62.95,62.93,62.87,62.67,62.53,62.40,62.22,62.11,62.16,62.25,62.29,62.12,62.23,62.37,62.50,62.60,62.64,62.62,62.57,62.50,62.47,62.53,62.56,62.55,62.55,62.56,62.54,62.44,62.20,61.88,61.72,61.57,61.41,61.40,61.40,61.40,61.40,61.40,61.40,61.40,61.40,61.40,61.40,61.39,61.39,61.40,61.39,61.61,61.68,61.58,61.39,61.61,61.76,61.99,62.28,62.30,62.31,62.31,62.27,62.21,62.00,61.84,61.71,61.63,61.77,61.95,62.16,62.35,62.37,62.29,62.17,62.05,61.99,62.09,62.12,62.16,62.20,62.19,62.20,62.20,62.20,62.20,62.20,62.21,62.22,62.25,62.29,62.30,62.30,62.30,62.32,62.38,62.40,62.40,62.40,62.41,62.43,62.46,62.49,62.50,62.46,62.39,62.29,62.21,62.17,62.12,62.09,62.08,62.07,62.06,62.03,61.98,62.00,62.11,62.15,62.14,62.11,62.10,62.10,62.11,62.11,62.01,61.67,61.31,61.04,61.01,61.03,61.09,61.20,61.38,61.53,61.65,61.75,61.83,61.88,61.86,61.83,61.78,61.71,61.65,61.58,61.50,61.43,61.44,61.42,61.27,61.03,60.81,60.70,60.67,60.68,60.74,60.79,60.82,60.86,60.89,60.90,60.90,60.91,60.89,60.84,60.67,60.50,60.37,60.31,60.18,60.03,60.04,60.33,61.03,62.21,63.47,64.58,65.36,65.59,65.67,65.50,64.96,63.77,62.19
63.91,64.69,65.17,65.20,64.79,64.41,64.05,63.70,63.46,63.33,63.15,62.93,62.74,62.70,62.79,62.97,63.18,63.28,63.27,63.16,63.00,62.83,62.83,62.90,63.03,63.22,63.34,63.38,63.39,63.39,63.39,63.42,63.46,63.45,63.33,63.19,63.08,63.01,62.99,63.01,63.06,63.11,63.14,63.18,63.23,63.32,63.42,63.49,63.56,63.54,63.54,63.60,63.72,63.46,63.26,63.18,63.19,63.33,63.37,63.32,63.25,63.48,63.45,63.37,63.29,63.12,62.97,62.75,62.58,62.61,62.91,63.02,63.03,63.02,62.98,62.94,62.91,62.88,62.83,62.66,62.57,62.46,62.26,62.13,62.11,62.20,62.30,62.17,62.17,62.27,62.43,62.55,62.62,62.61,62.57,62.54,62.52,62.57,62.60,62.61,62.59,62.58,62.56,62.49,62.34,62.02,61.86,61.70,61.52,61.45,61.41,61.40,61.40,61.40,61.40,61.40,61.40,61.40,61.40,61.40,61.40,61.39,61.35,61.55,61.65,61.63,61.52,61.81,61.97,62.13,62.29,62.30,62.28,62.22,62.11,62.00,61.80,61.71,61.70,61.75,61.96,62.16,62.32,62.40,62.30,62.18,62.07,62.02,62.04,62.15,62.14,62.14,62.18,62.20,62.20,62.20,62.20,62.20,62.20,62.20,62.21,62.23,62.28,62.30,62.30,62.30,62.31,62.36,62.39,62.40,62.40,62.40,62.41,62.43,62.47,62.50,62.49,62.45,62.38,62.29,62.23,62.17,62.12,62.09,62.08,62.11,62.09,62.01,61.98,62.07,62.13,62.15,62.13,62.11,62.11,62.11,62.07,61.90,61.54,61.23,61.03,61.00,61.00,61.02,61.09,61.21,61.37,61.52,61.65,61.75,61.80,61.81,61.79,61.76,61.73,61.67,61.61,61.55,61.49,61.42,61.31,61.13,60.90,60.72,60.69,60.70,60.75,60.81,60.84,60.87,60.89,60.91,60.92,60.93,60.93,60.92,60.88,60.72,60.59,60.52,60.49,60.31,60.08,59.92,59.93,60.23,61.04,62.20,63.48,64.65,65.21,65.12,64.50,63.43,61.94,60.48
63.28,64.17,64.91,65.30,65.03,64.60,64.17,63.82,63.59,63.51,63.36,63.16,63.03,63.11,63.22,63.33,63.42,63.44,63.31,63.09,62.83,62.62,62.54,62.61,62.80,63.09,63.28,63.39,63.43,63.42,63.36,63.37,63.38,63.34,63.18,63.07,63.01,62.99,63.00,63.01,63.12,63.19,63.21,63.20,63.21,63.25,63.30,63.34,63.44,63.46,63.46,63.49,63.54,63.38,63.25,63.20,63.20,63.31,63.31,63.27,63.29,63.54,63.47,63.41,63.40,63.19,62.91,62.68,62.57,62.66,62.94,63.02,63.02,62.99,62.93,62.91,62.87,62.82,62.80,62.62,62.49,62.37,62.23,62.20,62.10,62.07,62.14,62.32,62.09,62.14,62.37,62.49,62.57,62.55,62.54,62.60,62.60,62.61,62.64,62.67,62.61,62.59,62.50,62.41,62.38,62.23,61.99,61.82,61.74,61.54,61.44,61.40,61.40,61.40,61.40,61.40,61.40,61.40,61.40,61.40,61.40,61.40,61.39,61.46,61.57,61.66,61.71,62.02,62.19,62.27,62.28,62.30,62.24,62.06,61.82,61.65,61.62,61.64,61.75,61.97,62.27,62.41,62.40,62.29,62.16,62.08,62.06,62.10,62.19,62.18,62.13,62.11,62.13,62.19,62.20,62.20,62.20,62.20,62.20,62.20,62.21,62.22,62.27,62.29,62.30,62.30,62.30,62.32,62.36,62.40,62.40,62.40,62.40,62.41,62.44,62.49,62.50,62.50,62.48,62.44,62.32,62.23,62.16,62.12,62.10,62.11,62.11,62.08,61.97,61.96,62.04,62.14,62.17,62.13,62.11,62.08,61.97,61.66,61.31,61.09,61.00,61.00,61.00,61.00,61.02,61.05,61.15,61.31,61.48,61.62,61.68,61.72,61.73,61.73,61.70,61.66,61.62,61.58,61.53,61.41,61.18,60.94,60.75,60.68,60.71,60.76,60.81,60.85,60.90,60.92,60.92,60.93,60.95,60.97,60.97,60.95,60.91,60.81,60.74,60.69,60.61,60.43,60.17,59.95,59.83,59.84,60.16,60.94,62.11,63.53,64.61,64.13,62.80,61.14,59.98,59.51
62.64,63.49,64.36,65.03,65.14,64.84,64.41,64.05,63.95,63.83,63.65,63.47,63.37,63.43,63.50,63.56,63.59,63.57,63.33,63.02,62.70,62.47,62.39,62.51,62.77,63.08,63.34,63.44,63.45,63.41,63.40,63.31,63.22,63.15,63.11,63.08,63.04,63.02,63.04,63.08,63.17,63.17,63.08,63.01,63.06,63.16,63.26,63.31,63.36,63.39,63.41,63.44,63.48,63.36,63.26,63.22,63.25,63.19,63.15,63.14,63.16,63.28,63.27,63.26,63.26,63.15,62.92,62.70,62.59,62.68,63.01,63.11,63.07,62.98,62.93,62.89,62.84,62.79,62.74,62.57,62.43,62.33,62.27,62.27,62.24,62.18,62.12,62.18,62.12,62.10,62.17,62.33,62.47,62.54,62.59,62.67,62.66,62.66,62.68,62.68,62.61,62.56,62.47,62.39,62.37,62.27,62.17,62.01,61.81,61.65,61.52,61.43,61.39,61.40,61.40,61.40,61.40,61.40,61.40,61.40,61.48,61.60,61.72,61.73,61.77,61.78,61.69,61.80,61.99,62.13,62.17,62.19,62.05,61.87,61.72,61.67,61.69,61.81,62.00,62.22,62.36,62.36,62.29,62.18,62.12,62.12,62.14,62.18,62.20,62.19,62.15,62.12,62.12,62.17,62.19,62.20,62.20,62.20,62.20,62.20,62.20,62.21,62.24,62.28,62.30,62.30,62.30,62.31,62.34,62.38,62.40,62.40,62.40,62.41,62.43,62.47,62.49,62.50,62.50,62.48,62.42,62.31,62.21,62.16,62.13,62.11,62.09,62.08,62.04,61.96,61.97,62.03,62.11,62.12,62.09,61.98,61.80,61.50,61.28,61.19,61.21,61.28,61.21,61.11,61.03,61.03,61.06,61.19,61.34,61.49,61.60,61.67,61.71,61.71,61.68,61.63,61.58,61.51,61.39,61.17,60.97,60.83,60.76,60.75,60.77,60.81,60.85,60.88,60.93,60.95,60.96,60.97,60.98,60.97,60.96,60.94,60.91,60.86,60.83,60.79,60.73,60.62,60.42,60.19,59.99,59.86,59.92,60.28,60.96,61.92,62.38,61.82,60.91,60.02,59.52,59.37
62.11,62.85,63.76,64.63,65.10,65.03,64.69,64.30,64.20,64.06,63.89,63.73,63.68,63.69,63.71,63.73,63.72,63.69,63.41,63.06,62.73,62.47,62.37,62.51,62.79,63.11,63.41,63.50,63.45,63.36,63.36,63.23,63.11,63.05,63.08,63.09,63.08,63.05,63.06,63.12,63.19,63.15,63.00,62.87,62.90,63.04,63.20,63.27,63.28,63.33,63.37,63.40,63.44,63.35,63.28,63.26,63.31,63.12,63.06,63.05,63.05,63.06,63.10,63.12,63.12,63.08,62.91,62.72,62.61,62.70,63.07,63.19,63.14,63.01,62.96,62.90,62.83,62.76,62.66,62.51,62.37,62.29,62.30,62.32,62.35,62.29,62.14,62.07,62.15,62.10,62.05,62.17,62.33,62.46,62.58,62.67,62.68,62.69,62.70,62.67,62.60,62.52,62.44,62.37,62.36,62.29,62.28,62.15,61.89,61.72,61.60,61.48,61.40,61.39,61.40,61.40,61.40,61.40,61.42,61.48,61.63,61.84,62.00,61.97,61.96,61.89,61.72,61.67,61.80,61.94,62.02,62.03,61.86,61.72,61.67,61.72,61.82,62.03,62.24,62.38,62.34,62.25,62.16,62.11,62.15,62.19,62.22,62.24,62.21,62.20,62.17,62.14,62.12,62.15,62.17,62.19,62.20,62.20,62.20,62.20,62.20,62.20,62.22,62.26,62.29,62.30,62.30,62.31,62.33,62.36,62.39,62.40,62.40,62.40,62.41,62.45,62.48,62.50,62.50,62.50,62.49,62.40,62.29,62.20,62.15,62.10,62.07,62.06,62.08,61.99,61.93,61.94,62.04,62.11,62.07,61.91,61.68,61.44,61.35,61.38,61.47,61.58,61.47,61.30,61.16,61.08,61.03,61.09,61.21,61.35,61.51,61.61,61.66,61.68,61.67,61.60,61.53,61.40,61.21,60.95,60.82,60.78,60.81,60.82,60.82,60.85,60.88,60.91,60.95,60.99,61.00,61.00,60.99,60.96,60.94,60.92,60.90,60.89,60.88,60.86,60.83,60.78,60.64,60.44,60.21,59.98,59.82,59.82,60.07,60.55,60.50,59.98,59.52,59.34,59.51,60.03
61.81,62.31,63.07,64.06,64.79,65.10,65.01,64.60,64.21,64.05,63.96,63.90,63.88,63.84,63.82,63.81,63.81,63.80,63.60,63.36,63.11,62.79,62.60,62.66,62.89,63.17,63.50,63.56,63.45,63.26,63.16,63.13,63.13,63.12,63.10,63.10,63.09,63.08,63.06,63.05,63.12,63.16,63.11,62.85,62.75,62.86,63.06,63.17,63.23,63.30,63.36,63.39,63.39,63.34,63.32,63.33,63.37,63.21,63.10,63.04,62.99,63.02,63.03,63.03,63.03,63.02,62.86,62.70,62.64,62.75,63.09,63.24,63.23,63.13,63.05,62.97,62.89,62.76,62.56,62.41,62.31,62.27,62.29,62.33,62.37,62.33,62.21,62.05,62.13,62.17,62.13,62.02,62.09,62.25,62.41,62.53,62.63,62.68,62.68,62.64,62.56,62.49,62.41,62.37,62.38,62.28,62.25,62.18,62.01,61.74,61.68,61.59,61.47,61.35,61.39,61.40,61.40,61.41,61.49,61.70,61.93,62.12,62.13,62.09,62.05,61.99,61.87,61.82,61.73,61.73,61.82,61.78,61.68,61.65,61.69,61.78,62.04,62.30,62.43,62.36,62.14,62.06,62.06,62.13,62.33,62.30,62.28,62.28,62.25,62.21,62.19,62.18,62.15,62.11,62.14,62.17,62.20,62.20,62.20,62.20,62.20,62.20,62.21,62.24,62.27,62.30,62.30,62.30,62.31,62.33,62.35,62.39,62.40,62.40,62.41,62.43,62.48,62.49,62.48,62.45,62.50,62.48,62.39,62.24,62.18,62.11,62.05,62.02,62.05,62.04,61.98,61.93,61.97,62.11,62.06,61.90,61.70,61.57,61.60,61.69,61.77,61.82,61.78,61.67,61.50,61.28,61.08,61.04,61.09,61.22,61.41,61.51,61.58,61.63,61.66,61.59,61.43,61.22,60.98,60.82,60.81,60.86,60.90,60.84,60.84,60.87,60.91,60.94,60.98,61.02,61.04,61.03,60.96,60.92,60.91,60.89,60.86,60.86,60.88,60.89,60.88,60.83,60.78,60.67,60.48,60.22,59.91,59.70,59.66,59.77,59.67,59.40,59.23,59.38,60.16,62.21
61.63,61.95,62.52,63.36,64.26,64.86,65.05,64.83,64.40,64.14,64.00,63.93,63.92,63.89,63.87,63.86,63.86,63.85,63.73,63.55,63.33,63.10,62.94,62.93,63.05,63.24,63.44,63.47,63.40,63.28,63.20,63.19,63.20,63.19,63.15,63.13,63.13,63.12,63.09,63.08,63.12,63.15,63.10,62.85,62.76,62.82,62.96,63.06,63.12,63.19,63.28,63.36,63.37,63.35,63.34,63.36,63.39,63.23,63.14,63.08,63.03,63.09,63.09,63.06,63.04,63.05,62.90,62.75,62.68,62.77,63.17,63.33,63.33,63.22,63.13,63.05,62.97,62.83,62.56,62.41,62.33,62.31,62.30,62.30,62.32,62.35,62.34,62.13,62.08,62.09,62.11,62.11,62.02,62.08,62.19,62.33,62.50,62.61,62.62,62.56,62.53,62.46,62.40,62.38,62.38,62.30,62.27,62.20,62.06,61.87,61.82,61.72,61.58,61.47,61.39,61.38,61.44,61.54,61.75,61.92,62.06,62.16,62.14,62.14,62.13,62.09,62.02,61.93,61.75,61.66,61.69,61.66,61.65,61.72,61.86,62.01,62.25,62.38,62.36,62.21,62.02,62.08,62.18,62.29,62.43,62.40,62.36,62.32,62.27,62.21,62.20,62.19,62.17,62.14,62.13,62.14,62.17,62.20,62.20,62.20,62.20,62.20,62.20,62.22,62.26,62.30,62.30,62.30,62.30,62.31,62.33,62.39,62.40,62.40,62.40,62.41,62.45,62.47,62.47,62.44,62.50,62.53,62.49,62.36,62.23,62.12,62.04,62.01,62.01,62.00,61.96,61.93,61.96,62.09,62.07,61.95,61.80,61.72,61.77,61.83,61.88,61.90,61.90,61.85,61.72,61.50,61.23,61.09,61.06,61.11,61.25,61.41,61.53,61.60,61.60,61.46,61.26,61.04,60.85,60.80,60.87,60.95,60.98,60.91,60.88,60.89,60.91,60.94,60.98,61.03,61.05,61.03,60.96,60.91,60.88,60.87,60.85,60.87,60.89,60.90,60.89,60.83,60.77,60.68,60.54,60.31,59.94,59.67,59.53,59.53,59.47,59.32,59.42,60.04,61.59,63.62
61.51,61.68,62.03,62.66,63.64,64.46,64.94,64.99,64.64,64.28,64.03,63.91,63.90,63.90,63.90,63.90,63.90,63.88,63.81,63.67,63.48,63.37,63.28,63.23,63.24,63.31,63.34,63.35,63.36,63.35,63.33,63.31,63.28,63.25,63.20,63.17,63.17,63.15,63.12,63.15,63.15,63.13,63.04,62.84,62.80,62.82,62.87,62.95,62.99,63.05,63.16,63.31,63.36,63.37,63.37,63.37,63.39,63.24,63.17,63.14,63.11,63.17,63.17,63.13,63.09,63.12,62.96,62.80,62.72,62.78,63.25,63.43,63.41,63.29,63.21,63.12,63.04,62.91,62.60,62.44,62.37,62.34,62.30,62.25,62.25,62.35,62.47,62.25,62.04,61.97,62.06,62.24,62.03,61.95,61.99,62.12,62.35,62.53,62.55,62.47,62.50,62.43,62.40,62.39,62.37,62.31,62.28,62.21,62.10,62.04,61.98,61.85,61.70,61.64,61.42,61.39,61.51,61.73,62.05,62.12,62.12,62.11,62.12,62.17,62.18,62.17,62.14,62.00,61.80,61.65,61.61,61.62,61.71,61.87,62.08,62.27,62.40,62.36,62.21,62.03,61.98,62.18,62.37,62.47,62.50,62.49,62.44,62.37,62.30,62.23,62.20,62.20,62.20,62.18,62.13,62.11,62.13,62.19,62.20,62.20,62.20,62.20,62.20,62.21,62.25,62.29,62.30,62.30,62.30,62.30,62.32,62.38,62.40,62.40,62.40,62.40,62.42,62.44,62.46,62.43,62.50,62.56,62.57,62.49,62.29,62.14,62.04,62.00,61.97,61.93,61.92,61.93,61.97,62.06,62.07,62.01,61.92,61.86,61.88,61.90,61.91,61.92,61.95,61.96,61.89,61.71,61.41,61.20,61.06,61.02,61.09,61.30,61.47,61.55,61.50,61.29,61.06,60.88,60.79,60.83,60.96,61.04,61.05,60.98,60.93,60.91,60.91,60.92,60.97,61.02,61.04,61.02,60.96,60.91,60.86,60.84,60.84,60.87,60.89,60.89,60.87,60.81,60.70,60.59,60.48,60.30,59.94,59.67,59.52,59.50,59.50,59.42,59.74,60.78,62.94,64.44
61.43,61.55,61.72,62.12,62.96,63.85,64.52,64.86,64.85,64.49,64.11,63.86,63.88,63.89,63.90,63.90,63.90,63.89,63.82,63.69,63.54,63.48,63.46,63.40,63.34,63.31,63.35,63.40,63.45,63.46,63.42,63.36,63.32,63.28,63.23,63.22,63.22,63.19,63.14,63.22,63.20,63.09,62.90,62.73,62.70,62.72,62.77,62.81,62.82,62.80,62.90,63.15,63.33,63.38,63.41,63.43,63.41,63.28,63.23,63.21,63.17,63.16,63.14,63.11,63.10,63.16,62.95,62.78,62.73,62.83,63.30,63.44,63.41,63.30,63.22,63.11,63.01,62.87,62.54,62.39,62.30,62.26,62.24,62.22,62.22,62.29,62.43,62.45,62.21,62.03,61.97,62.02,62.17,62.07,61.95,61.98,62.15,62.43,62.54,62.50,62.50,62.43,62.40,62.38,62.33,62.31,62.26,62.23,62.23,62.16,62.08,61.93,61.77,61.69,61.61,61.57,61.70,62.04,62.13,62.16,62.11,62.04,62.10,62.22,62.22,62.13,62.02,61.87,61.71,61.62,61.64,61.73,61.95,62.18,62.36,62.39,62.28,62.16,62.08,62.06,62.19,62.35,62.46,62.49,62.50,62.50,62.48,62.43,62.36,62.29,62.23,62.20,62.20,62.19,62.13,62.11,62.11,62.14,62.17,62.19,62.20,62.20,62.20,62.20,62.22,62.25,62.28,62.30,62.30,62.30,62.31,62.34,62.38,62.40,62.40,62.40,62.41,62.41,62.42,62.41,62.45,62.50,62.51,62.47,62.32,62.15,62.04,62.00,61.99,61.98,61.98,61.99,61.98,62.01,62.01,61.99,61.96,61.91,61.91,61.92,61.95,62.01,62.05,62.00,61.92,61.81,61.63,61.39,61.17,61.03,61.03,61.16,61.30,61.37,61.28,61.06,60.92,60.86,60.87,60.94,61.04,61.10,61.10,61.06,60.99,60.94,60.93,60.96,61.01,61.03,61.03,61.00,60.95,60.89,60.84,60.81,60.80,60.83,60.85,60.86,60.81,60.69,60.57,60.45,60.29,60.04,59.76,59.58,59.51,59.50,59.50,59.46,59.71,60.44,61.92,63.38
61.25,61.44,61.52,61.73,62.37,63.21,63.97,64.49,64.69,64.58,64.30,63.99,63.85,63.86,63.88,63.89,63.90,63.88,63.82,63.72,63.60,63.54,63.51,63.44,63.36,63.31,63.37,63.44,63.49,63.48,63.42,63.36,63.33,63.30,63.26,63.27,63.26,63.23,63.17,63.23,63.17,63.00,62.78,62.65,62.63,62.66,62.73,62.82,62.78,62.73,62.84,63.15,63.35,63.41,63.45,63.47,63.42,63.30,63.28,63.28,63.23,63.17,63.13,63.10,63.08,63.09,62.89,62.77,62.77,62.91,63.32,63.42,63.35,63.21,63.10,62.99,62.95,62.87,62.50,62.36,62.29,62.26,62.23,62.21,62.22,62.28,62.37,62.44,62.26,62.10,61.98,61.91,62.14,62.08,61.95,61.90,61.99,62.26,62.45,62.51,62.50,62.43,62.40,62.38,62.31,62.28,62.25,62.26,62.29,62.21,62.14,62.02,61.88,61.77,61.69,61.65,61.77,62.07,62.01,62.04,62.02,61.98,62.06,62.17,62.13,62.00,61.86,61.74,61.66,61.67,61.77,61.95,62.19,62.36,62.42,62.33,62.16,62.07,62.07,62.16,62.30,62.44,62.50,62.49,62.50,62.50,62.50,62.48,62.43,62.35,62.28,62.24,62.21,62.20,62.16,62.13,62.11,62.10,62.14,62.17,62.19,62.20,62.20,62.20,62.21,62.22,62.26,62.29,62.30,62.30,62.30,62.31,62.36,62.39,62.40,62.40,62.40,62.40,62.40,62.40,62.42,62.47,62.48,62.44,62.32,62.16,62.06,62.01,61.99,61.99,61.98,61.97,61.96,61.99,61.99,61.98,61.97,61.94,61.93,61.95,62.00,62.12,62.15,62.08,61.98,61.88,61.77,61.55,61.32,61.11,61.02,61.05,61.13,61.17,61.08,60.94,60.88,60.89,60.94,61.00,61.08,61.14,61.15,61.12,61.06,61.00,60.97,60.99,61.04,61.03,61.00,60.97,60.94,60.88,60.84,60.80,60.77,60.78,60.80,60.79,60.71,60.54,60.38,60.22,60.05,59.82,59.63,59.54,59.53,59.58,59.57,59.51,59.61,60.01,60.87,62.17
60.98,61.33,61.42,61.49,61.86,62.57,63.32,63.92,64.22,64.57,64.58,64.27,63.81,63.80,63.83,63.87,63.90,63.86,63.82,63.76,63.66,63.55,63.44,63.35,63.30,63.30,63.39,63.46,63.48,63.43,63.36,63.32,63.30,63.30,63.30,63.30,63.30,63.27,63.22,63.19,63.07,62.88,62.68,62.60,62.60,62.63,62.74,62.95,62.85,62.81,62.97,63.31,63.42,63.46,63.48,63.49,63.42,63.30,63.32,63.34,63.26,63.21,63.16,63.09,63.02,62.95,62.81,62.77,62.84,63.02,63.33,63.37,63.24,63.04,62.85,62.78,62.86,62.91,62.48,62.34,62.33,62.34,62.26,62.23,62.27,62.31,62.31,62.25,62.21,62.17,62.09,61.90,61.96,62.01,61.98,61.85,61.87,62.04,62.29,62.51,62.50,62.43,62.40,62.38,62.31,62.25,62.25,62.28,62.29,62.21,62.15,62.11,62.04,61.88,61.67,61.64,61.74,61.87,61.72,61.79,61.87,61.92,62.00,62.06,61.95,61.78,61.68,61.62,61.65,61.77,61.99,62.28,62.45,62.44,62.31,62.13,62.04,62.07,62.17,62.30,62.34,62.44,62.49,62.48,62.50,62.50,62.50,62.50,62.48,62.41,62.35,62.29,62.23,62.20,62.19,62.16,62.12,62.09,62.09,62.13,62.17,62.20,62.20,62.20,62.20,62.20,62.22,62.28,62.30,62.30,62.30,62.31,62.34,62.37,62.40,62.40,62.40,62.40,62.40,62.40,62.42,62.46,62.47,62.41,62.30,62.17,62.08,62.04,61.97,61.95,61.91,61.88,61.93,61.99,62.00,61.99,61.98,61.95,61.95,61.99,62.08,62.23,62.25,62.18,62.06,61.93,61.85,61.70,61.50,61.26,61.07,60.98,60.94,60.93,60.91,60.91,60.94,60.97,61.00,61.02,61.08,61.15,61.19,61.18,61.15,61.09,61.04,61.03,61.05,61.00,60.96,60.93,60.92,60.89,60.86,60.81,60.75,60.73,60.73,60.69,60.57,60.34,60.13,59.94,59.76,59.63,59.56,59.54,59.59,59.73,59.69,59.55,59.46,59.50,59.80,60.81
60.62,60.98,61.32,61.42,61.57,62.03,62.65,63.30,63.75,64.23,64.47,64.41,64.02,63.85,63.83,63.86,63.90,63.84,63.77,63.68,63.57,63.45,63.35,63.30,63.29,63.30,63.37,63.41,63.41,63.37,63.32,63.31,63.31,63.32,63.32,63.32,63.32,63.23,63.00,62.89,62.81,62.67,62.51,62.47,62.56,62.62,62.69,62.80,62.83,62.99,63.22,63.45,63.49,63.50,63.53,63.51,63.30,63.19,63.25,63.33,63.27,63.28,63.22,63.13,63.04,62.95,62.81,62.79,62.87,63.02,63.25,63.26,63.13,62.92,62.71,62.61,62.64,62.67,62.45,62.35,62.31,62.31,62.31,62.29,62.30,62.32,62.33,62.28,62.21,62.19,62.19,62.10,62.09,62.02,61.94,61.90,61.85,61.97,62.19,62.41,62.51,62.42,62.39,62.38,62.31,62.28,62.25,62.25,62.26,62.21,62.18,62.14,62.08,62.01,61.79,61.67,61.66,61.71,61.64,61.69,61.79,61.88,61.93,61.85,61.75,61.68,61.67,61.70,61.82,62.00,62.22,62.32,62.32,62.24,62.15,62.08,62.05,62.13,62.23,62.31,62.37,62.43,62.45,62.43,62.46,62.46,62.47,62.48,62.49,62.44,62.39,62.33,62.26,62.23,62.21,62.18,62.16,62.13,62.08,62.08,62.12,62.17,62.20,62.20,62.20,62.20,62.21,62.25,62.28,62.30,62.30,62.30,62.32,62.36,62.40,62.40,62.40,62.40,62.40,62.40,62.41,62.43,62.41,62.35,62.27,62.18,62.13,62.11,61.98,61.93,61.84,61.80,61.89,61.94,61.95,61.95,61.96,61.97,61.97,62.00,62.06,62.16,62.24,62.24,62.16,62.04,61.95,61.83,61.68,61.48,61.20,61.01,60.93,60.91,60.92,60.95,60.97,61.00,61.03,61.05,61.07,61.10,61.13,61.16,61.18,61.19,61.20,61.17,61.09,61.04,60.98,60.94,60.93,60.92,60.88,60.82,60.75,60.69,60.67,60.60,60.45,60.19,60.00,59.85,59.73,59.66,59.64,59.66,59.75,59.90,59.92,59.76,59.58,59.47,59.52,59.96
60.29,60.70,61.12,61.34,61.37,61.61,62.09,62.74,63.35,63.95,64.39,64.55,64.29,63.97,63.85,63.85,63.87,63.81,63.72,63.61,63.50,63.40,63.33,63.29,63.29,63.30,63.34,63.37,63.36,63.32,63.31,63.32,63.34,63.35,63.35,63.35,63.35,63.19,62.80,62.62,62.56,62.49,62.39,62.38,62.50,62.57,62.61,62.65,62.78,63.06,63.33,63.50,63.54,63.56,63.59,63.54,63.23,63.08,63.14,63.24,63.23,63.32,63.26,63.16,63.05,62.95,62.81,62.81,62.90,63.01,63.15,63.13,63.00,62.81,62.61,62.51,62.50,62.52,62.44,62.35,62.29,62.28,62.32,62.32,62.32,62.33,62.34,62.30,62.21,62.20,62.23,62.24,62.22,62.08,61.95,61.93,61.89,61.93,62.05,62.23,62.43,62.37,62.35,62.34,62.28,62.27,62.23,62.22,62.23,62.20,62.20,62.15,62.10,62.10,61.91,61.75,61.65,61.60,61.60,61.64,61.72,61.82,61.82,61.68,61.62,61.64,61.71,61.85,62.02,62.22,62.36,62.28,62.17,62.10,62.07,62.09,62.08,62.17,62.26,62.32,62.39,62.42,62.42,62.41,62.43,62.43,62.44,62.45,62.48,62.45,62.41,62.36,62.30,62.26,62.22,62.20,62.18,62.16,62.09,62.06,62.08,62.14,62.18,62.19,62.20,62.20,62.21,62.23,62.27,62.30,62.30,62.30,62.31,62.34,62.39,62.40,62.40,62.40,62.40,62.40,62.41,62.40,62.37,62.31,62.26,62.20,62.19,62.18,62.04,61.95,61.84,61.80,61.89,61.92,61.92,61.93,61.96,61.98,61.99,62.01,62.04,62.10,62.20,62.26,62.24,62.14,62.06,61.96,61.83,61.65,61.33,61.09,60.97,60.93,60.92,60.96,61.00,61.02,61.05,61.09,61.08,61.07,61.08,61.15,61.22,61.29,61.33,61.30,61.16,61.07,61.00,60.95,60.95,60.94,60.89,60.82,60.75,60.66,60.58,60.47,60.28,60.03,59.88,59.79,59.75,59.75,59.78,59.84,59.93,60.04,60.07,59.93,59.73,59.53,59.40,59.42
e,e,60.73,61.22,61.32,61.42,61.72,62.29,63.09,63.81,64.39,64.73,64.65,64.20,63.93,63.81,63.80,63.75,63.65,63.57,63.51,63.46,63.40,63.36,63.32,63.30,63.33,63.33,63.32,63.31,63.32,63.36,63.38,63.39,63.39,63.39,63.39,63.19,62.69,62.44,62.36,62.35,62.36,62.35,62.40,62.43,62.47,62.53,62.69,62.93,63.17,63.37,63.54,63.63,63.67,63.59,63.24,62.97,62.95,63.05,63.14,63.29,63.26,63.15,63.03,62.94,62.83,62.84,62.93,63.02,63.01,62.97,62.87,62.71,62.58,62.54,62.55,62.55,62.44,62.35,62.29,62.27,62.26,62.27,62.30,62.33,62.34,62.27,62.22,62.19,62.20,62.25,62.31,62.24,62.09,61.92,62.04,61.92,61.84,61.91,62.18,62.23,62.26,62.25,62.18,62.18,62.19,62.20,62.21,62.20,62.20,62.15,62.10,62.10,62.00,61.91,61.78,61.61,61.60,61.65,61.70,61.72,61.62,61.60,61.63,61.71,61.84,62.09,62.29,62.39,62.36,62.13,62.05,62.08,62.15,62.16,62.12,62.16,62.25,62.32,62.39,62.40,62.40,62.40,62.41,62.41,62.41,62.41,62.42,62.42,62.41,62.39,62.36,62.29,62.23,62.20,62.19,62.18,62.11,62.09,62.09,62.11,62.14,62.18,62.20,62.20,62.20,62.22,62.26,62.30,62.30,62.30,62.30,62.32,62.35,62.39,62.40,62.40,62.40,62.40,62.40,62.39,62.35,62.30,62.27,62.24,62.24,62.27,62.18,62.04,61.97,61.96,61.98,61.97,61.94,61.95,61.99,62.00,62.00,62.01,62.04,62.07,62.12,62.20,62.25,62.22,62.19,62.07,61.91,61.72,61.45,61.23,61.08,60.98,60.88,60.92,60.99,61.04,61.05,61.12,61.13,61.10,61.08,61.15,61.31,61.40,61.42,61.40,61.27,61.10,61.00,60.98,60.98,60.94,60.86,60.79,60.74,60.62,60.46,60.26,60.05,59.87,59.77,59.75,59.79,59.93,60.03,60.09,60.13,60.13,60.08,60.00,59.89,59.73,59.51,59.39
e,e,60.27,60.89,61.18,61.31,61.49,61.90,62.76,63.71,64.46,64.90,64.93,64.48,64.07,63.82,63.77,63.75,63.71,63.67,63.62,63.55,63.51,63.44,63.37,63.32,63.34,63.34,63.32,63.32,63.35,63.38,63.39,63.40,63.40,63.39,63.29,63.03,62.57,62.37,62.34,62.37,62.41,62.42,62.38,62.39,62.44,62.52,62.66,62.82,62.96,63.08,63.24,63.43,63.59,63.61,63.27,62.98,62.92,62.97,63.01,63.09,63.10,63.07,63.00,62.91,62.81,62.82,62.92,63.03,63.02,62.96,62.83,62.64,62.58,62.55,62.55,62.53,62.43,62.35,62.30,62.27,62.23,62.23,62.28,62.33,62.36,62.25,62.21,62.19,62.19,62.23,62.39,62.29,62.12,62.01,61.97,61.93,61.87,61.82,61.94,62.03,62.16,62.22,62.10,62.12,62.14,62.17,62.20,62.20,62.20,62.15,62.10,62.10,62.02,61.97,61.90,61.78,61.63,61.63,61.63,61.61,61.59,61.62,61.69,61.78,61.89,62.11,62.28,62.31,62.19,62.05,62.08,62.14,62.18,62.18,62.13,62.16,62.24,62.32,62.39,62.40,62.40,62.40,62.40,62.40,62.40,62.40,62.41,62.41,62.40,62.40,62.38,62.34,62.27,62.22,62.19,62.15,62.14,62.11,62.10,62.10,62.11,62.14,62.18,62.20,62.20,62.21,62.24,62.27,62.30,62.30,62.30,62.31,62.33,62.39,62.40,62.40,62.39,62.39,62.39,62.38,62.35,62.30,62.27,62.23,62.21,62.20,62.13,62.02,61.96,61.96,61.97,61.95,61.96,61.98,62.00,62.00,62.00,62.00,62.00,62.00,62.05,62.11,62.17,62.19,62.15,62.04,61.93,61.82,61.66,61.46,61.28,61.11,60.95,60.92,60.95,61.00,61.04,61.08,61.10,61.09,61.10,61.20,61.36,61.43,61.44,61.40,61.31,61.13,61.00,60.95,60.96,60.93,60.84,60.74,60.64,60.49,60.30,60.11,59.96,59.84,59.81,59.86,59.98,60.14,60.20,60.22,60.22,60.20,60.16,60.11,60.02,59.90,59.68,59.49
e,e,59.87,60.48,60.98,61.20,61.33,61.57,62.39,63.53,64.42,64.93,65.10,64.76,64.27,63.88,63.76,63.78,63.81,63.80,63.75,63.65,63.61,63.54,63.44,63.35,63.37,63.35,63.34,63.36,63.39,63.40,63.40,63.39,63.39,63.36,63.16,62.84,62.47,62.35,62.36,62.41,62.46,62.48,62.36,62.35,62.42,62.51,62.63,62.71,62.75,62.79,62.91,63.17,63.44,63.55,63.27,63.03,62.95,62.94,62.90,62.86,62.90,62.95,62.95,62.86,62.78,62.81,62.91,63.05,63.09,63.02,62.84,62.61,62.59,62.55,62.52,62.49,62.43,62.36,62.32,62.29,62.23,62.22,62.26,62.32,62.35,62.26,62.22,62.20,62.20,62.20,62.43,62.29,62.13,62.11,61.85,61.93,61.93,61.80,61.74,61.84,62.05,62.16,62.03,62.07,62.09,62.13,62.19,62.20,62.20,62.16,62.11,62.11,62.03,62.01,62.00,61.96,61.65,61.60,61.56,61.53,61.62,61.69,61.76,61.84,61.92,62.07,62.19,62.16,62.00,62.02,62.14,62.19,62.19,62.18,62.13,62.16,62.24,62.32,62.39,62.40,62.39,62.38,62.40,62.40,62.40,62.40,62.40,62.40,62.40,62.40,62.40,62.39,62.33,62.26,62.19,62.13,62.16,62.13,62.10,62.10,62.10,62.11,62.15,62.20,62.21,62.21,62.21,62.24,62.30,62.30,62.30,62.31,62.33,62.37,62.39,62.38,62.37,62.37,62.38,62.37,62.35,62.29,62.26,62.19,62.14,62.10,62.02,61.97,61.93,61.91,61.94,61.94,61.97,62.00,62.00,62.00,62.00,61.98,61.96,61.94,61.99,62.02,62.06,62.12,62.06,61.98,61.93,61.91,61.85,61.70,61.50,61.28,61.08,60.94,60.91,60.95,61.01,61.03,61.05,61.08,61.14,61.28,61.39,61.43,61.41,61.37,61.30,61.15,61.00,60.91,60.92,60.90,60.81,60.67,60.51,60.33,60.14,60.00,59.92,59.87,59.89,60.02,60.19,60.32,60.33,60.31,60.28,60.26,60.25,60.21,60.14,60.03,59.87,59.64
e,e,e,59.99,60.61,61.03,61.25,61.39,61.94,62.81,63.64,64.33,64.84,64.94,64.61,64.13,63.79,63.88,63.92,63.88,63.77,63.69,63.67,63.63,63.55,63.44,63.37,63.35,63.38,63.42,63.43,63.41,63.38,63.35,63.33,63.29,63.05,62.73,62.45,62.42,62.40,62.37,62.33,62.23,62.16,62.19,62.26,62.34,62.47,62.59,62.70,62.79,62.91,63.07,63.17,63.19,63.13,63.07,63.01,62.95,62.90,62.81,62.76,62.75,62.77,62.80,62.83,62.87,62.94,63.10,63.27,63.17,62.93,62.66,62.60,62.55,62.52,62.50,62.48,62.42,62.41,62.39,62.31,62.32,62.28,62.25,62.27,62.36,62.28,62.22,62.20,62.20,62.32,62.31,62.22,62.05,61.87,61.82,61.80,61.78,61.78,61.78,61.87,61.97,62.00,62.04,62.08,62.13,62.18,62.20,62.20,62.20,62.19,62.14,62.09,62.04,61.99,61.90,61.59,61.58,61.59,61.62,61.75,61.78,61.82,61.89,62.00,62.08,62.10,62.06,62.01,62.10,62.16,62.16,62.13,62.12,62.11,62.16,62.24,62.32,62.39,62.38,62.36,62.34,62.40,62.40,62.40,62.40,62.40,62.40,62.40,62.40,62.40,62.39,62.34,62.30,62.25,62.19,62.15,62.12,62.10,62.10,62.09,62.09,62.13,62.20,62.24,62.23,62.22,62.23,62.28,62.30,62.30,62.30,62.31,62.33,62.35,62.34,62.32,62.32,62.33,62.34,62.32,62.26,62.17,62.10,62.04,61.98,61.95,61.94,61.94,61.96,62.02,61.98,62.00,62.01,62.00,62.00,61.99,61.97,61.94,61.95,61.99,61.99,61.98,62.00,61.98,61.97,61.96,61.95,61.90,61.80,61.68,61.52,61.31,61.05,60.94,60.92,60.96,61.01,61.09,61.18,61.26,61.35,61.38,61.38,61.35,61.31,61.21,61.09,60.98,60.91,60.87,60.80,60.69,60.53,60.33,60.18,60.07,60.00,59.96,59.94,60.04,60.17,60.30,60.36,60.36,60.36,60.34,60.31,60.29,60.23,60.16,60.07,59.98,59.77
e,e,e,59.77,60.45,60.92,61.13,61.31,61.64,62.21,62.88,63.62,64.41,64.86,64.82,64.48,64.04,63.93,63.92,63.89,63.82,63.77,63.74,63.69,63.62,63.51,63.40,63.36,63.36,63.39,63.40,63.37,63.33,63.29,63.29,63.22,62.97,62.66,62.44,62.45,62.42,62.36,62.25,62.11,62.13,62.18,62.24,62.28,62.38,62.53,62.68,62.78,62.88,63.00,63.04,63.03,63.08,63.13,63.09,63.03,62.99,62.90,62.84,62.79,62.75,62.80,62.90,62.93,62.95,63.09,63.24,63.15,62.94,62.70,62.63,62.58,62.56,62.54,62.51,62.44,62.43,62.41,62.36,62.37,62.30,62.23,62.21,62.32,62.27,62.23,62.21,62.20,62.24,62.25,62.17,62.01,61.94,61.82,61.75,61.74,61.78,61.76,61.78,61.84,61.96,62.05,62.09,62.12,62.15,62.18,62.18,62.21,62.21,62.14,62.11,62.02,61.90,61.76,61.54,61.57,61.65,61.75,61.91,61.92,61.95,62.01,62.07,62.11,62.09,62.07,62.06,62.09,62.12,62.11,62.09,62.10,62.11,62.16,62.24,62.31,62.37,62.35,62.33,62.32,62.38,62.38,62.39,62.40,62.40,62.40,62.40,62.40,62.40,62.39,62.37,62.33,62.28,62.25,62.17,62.13,62.11,62.10,62.09,62.08,62.10,62.15,62.22,62.23,62.23,62.23,62.25,62.29,62.30,62.30,62.30,62.31,62.32,62.31,62.30,62.30,62.30,62.31,62.28,62.19,62.08,62.02,61.98,61.94,61.93,61.95,61.96,61.98,62.04,62.01,62.02,62.03,62.00,62.00,61.98,61.95,61.92,61.94,61.97,61.96,61.94,61.94,61.95,61.97,61.98,61.98,61.93,61.86,61.81,61.72,61.55,61.24,61.03,60.92,60.89,60.96,61.09,61.22,61.33,61.39,61.37,61.34,61.29,61.25,61.15,61.06,60.99,60.92,60.81,60.68,60.53,60.38,60.22,60.13,60.07,60.04,60.04,60.06,60.17,60.29,60.37,60.40,60.42,60.42,60.41,60.37,60.31,60.24,60.16,60.08,60.02,59.86
e,e,e,e,e,60.79,60.97,61.31,61.45,61.69,62.12,62.82,63.84,64.59,64.96,64.90,64.44,63.94,63.84,63.86,63.89,63.87,63.81,63.74,63.67,63.57,63.44,63.36,63.31,63.30,63.34,63.30,63.25,63.23,63.28,63.17,62.90,62.62,62.43,62.44,62.45,62.37,62.22,62.08,62.21,62.30,62.33,62.30,62.34,62.51,62.68,62.77,62.81,62.95,63.02,63.03,63.09,63.19,63.19,63.16,63.14,63.09,63.10,63.02,62.86,62.86,63.00,63.00,62.96,63.04,63.05,63.00,62.89,62.72,62.65,62.63,62.62,62.59,62.52,62.45,62.40,62.38,62.39,62.38,62.33,62.25,62.18,62.17,62.22,62.25,62.23,62.21,62.20,62.12,62.03,61.98,62.05,61.90,61.76,61.69,61.75,61.79,61.76,61.76,61.91,62.10,62.12,62.10,62.11,62.15,62.16,62.19,62.20,62.13,62.11,61.96,61.75,61.56,61.51,61.59,61.74,61.91,62.08,62.09,62.14,62.18,62.15,62.15,62.15,62.15,62.13,62.02,62.04,62.05,62.06,62.10,62.11,62.16,62.24,62.30,62.34,62.32,62.30,62.31,62.35,62.35,62.37,62.40,62.40,62.40,62.40,62.40,62.40,62.40,62.39,62.35,62.30,62.29,62.21,62.17,62.13,62.10,62.09,62.07,62.06,62.08,62.16,62.22,62.24,62.24,62.22,62.28,62.30,62.30,62.30,62.30,62.30,62.30,62.30,62.30,62.30,62.28,62.22,62.10,61.99,61.95,61.94,61.95,61.95,62.01,62.00,61.98,62.02,62.03,62.05,62.05,62.00,62.00,61.98,61.94,61.90,61.91,61.93,61.93,61.92,61.93,61.96,61.98,61.99,61.99,61.95,61.90,61.90,61.89,61.82,61.48,61.17,60.94,60.83,60.87,61.04,61.23,61.38,61.40,61.37,61.31,61.24,61.17,61.11,61.06,61.01,60.91,60.74,60.54,60.36,60.22,60.16,60.14,60.11,60.10,60.14,60.21,60.30,60.36,60.41,60.45,60.48,60.49,60.47,60.43,60.32,60.24,60.16,60.08,60.01,59.91
e,e,e,e,e,60.10,60.43,61.11,61.35,61.45,61.69,62.18,63.02,63.93,64.59,64.87,64.70,64.23,63.94,63.80,63.77,63.74,63.72,63.69,63.66,63.61,63.56,63.49,63.41,63.34,63.31,63.27,63.23,63.23,63.29,63.06,62.75,62.51,62.42,62.47,62.60,62.57,62.36,62.20,62.27,62.34,62.37,62.35,62.41,62.47,62.53,62.60,62.68,62.84,62.93,62.96,62.99,63.15,63.22,63.23,63.23,63.20,63.15,63.04,62.90,62.86,63.02,63.02,62.94,62.97,63.02,62.98,62.88,62.75,62.69,62.68,62.66,62.64,62.61,62.51,62.42,62.37,62.37,62.40,62.36,62.28,62.18,62.13,62.20,62.30,62.32,62.17,62.08,62.04,62.03,62.04,62.04,61.96,61.85,61.74,61.69,61.73,61.75,61.76,61.81,61.98,62.11,62.15,62.10,62.08,62.06,62.03,61.99,61.95,61.84,61.74,61.64,61.57,61.61,61.76,61.96,62.16,62.26,62.26,62.26,62.24,62.18,62.18,62.21,62.23,62.23,62.15,62.06,62.04,62.06,62.06,62.13,62.18,62.24,62.30,62.31,62.31,62.30,62.30,62.32,62.32,62.33,62.35,62.36,62.39,62.40,62.40,62.40,62.40,62.40,62.37,62.33,62.30,62.25,62.20,62.15,62.10,62.10,62.09,62.08,62.07,62.08,62.15,62.20,62.24,62.25,62.26,62.28,62.30,62.30,62.30,62.30,62.30,62.30,62.30,62.27,62.19,62.09,62.02,61.94,61.92,61.92,61.94,61.98,62.00,62.00,61.99,62.03,62.06,62.07,62.05,62.00,62.00,61.98,61.94,61.90,61.90,61.91,61.93,61.97,62.01,61.99,61.99,62.00,61.99,61.96,61.89,61.87,61.87,61.84,61.63,61.37,61.11,60.91,60.84,60.93,61.07,61.21,61.30,61.32,61.29,61.23,61.15,61.08,61.00,60.89,60.75,60.57,60.40,60.27,60.20,60.16,60.13,60.15,60.20,60.28,60.36,60.44,60.48,60.48,60.46,60.47,60.50,60.52,60.49,60.40,60.30,60.21,60.14,60.09,59.99
e,e,e,e,e,59.66,60.07,60.73,61.19,61.29,61.41,61.70,62.29,63.18,64.01,64.62,64.85,64.55,64.12,63.79,63.64,63.61,63.61,63.62,63.63,63.63,63.63,63.57,63.49,63.39,63.29,63.21,63.16,63.16,63.19,62.90,62.62,62.45,62.43,62.51,62.71,62.72,62.52,62.34,62.33,62.35,62.37,62.37,62.47,62.45,62.43,62.49,62.58,62.70,62.77,62.79,62.86,63.06,63.17,63.21,63.22,63.21,63.13,63.02,62.91,62.88,63.02,63.01,62.92,62.89,62.97,62.93,62.85,62.76,62.71,62.71,62.70,62.68,62.68,62.58,62.48,62.40,62.35,62.37,62.35,62.27,62.17,62.11,62.15,62.25,62.28,62.09,61.98,61.97,62.01,62.04,61.98,61.96,61.93,61.88,61.77,61.72,61.75,61.77,61.74,61.85,62.03,62.13,62.11,62.04,62.05,61.96,61.82,61.76,61.63,61.60,61.64,61.75,61.81,61.96,62.14,62.29,62.35,62.35,62.33,62.28,62.22,62.22,62.26,62.29,62.29,62.26,62.12,62.05,62.05,62.05,62.14,62.19,62.24,62.30,62.30,62.29,62.29,62.30,62.30,62.30,62.31,62.32,62.32,62.37,62.38,62.38,62.38,62.40,62.40,62.39,62.37,62.32,62.29,62.23,62.17,62.12,62.11,62.10,62.09,62.07,62.04,62.09,62.15,62.22,62.26,62.25,62.28,62.30,62.30,62.30,62.30,62.30,62.29,62.28,62.21,62.09,61.99,61.96,61.92,61.91,61.92,61.95,62.00,62.00,62.00,62.00,62.02,62.07,62.07,62.05,62.00,62.00,61.98,61.94,61.90,61.90,61.91,61.95,62.01,62.07,62.03,62.01,62.00,61.99,61.96,61.89,61.85,61.84,61.85,61.74,61.54,61.28,61.02,60.85,60.84,60.92,61.05,61.18,61.24,61.24,61.21,61.14,61.06,60.93,60.77,60.60,60.43,60.31,60.24,60.22,60.20,60.18,60.23,60.31,60.40,60.47,60.54,60.56,60.54,60.49,60.48,60.51,60.53,60.50,60.41,60.30,60.21,60.16,60.11,60.02
e,e,e,e,e,e,e,60.10,60.94,61.25,61.37,61.45,61.72,62.31,63.14,64.04,64.80,64.89,64.42,63.87,63.49,63.45,63.47,63.52,63.57,63.63,63.60,63.56,63.51,63.43,63.26,63.12,63.02,62.97,62.89,62.68,62.53,62.46,62.50,62.59,62.75,62.80,62.68,62.50,62.37,62.29,62.28,62.36,62.51,62.46,62.41,62.46,62.51,62.53,62.48,62.46,62.67,62.89,63.00,63.04,63.04,63.04,63.00,62.94,62.88,62.91,63.01,62.98,62.88,62.83,62.89,62.84,62.77,62.72,62.70,62.73,62.74,62.71,62.71,62.66,62.57,62.46,62.34,62.28,62.25,62.20,62.14,62.11,62.05,62.04,62.04,61.96,61.92,61.93,61.95,61.95,61.87,61.89,62.01,62.14,62.08,61.78,61.76,61.81,61.72,61.69,61.85,62.03,62.14,62.04,62.19,62.04,61.72,61.58,61.52,61.59,61.84,62.20,62.13,62.19,62.24,62.24,62.31,62.32,62.31,62.30,62.29,62.29,62.29,62.30,62.31,62.36,62.23,62.10,62.03,62.09,62.11,62.16,62.23,62.30,62.29,62.25,62.25,62.30,62.30,62.30,62.30,62.30,62.30,62.31,62.31,62.32,62.33,62.39,62.40,62.40,62.39,62.38,62.31,62.24,62.19,62.17,62.12,62.10,62.10,62.09,62.07,62.05,62.08,62.16,62.22,62.27,62.29,62.30,62.30,62.30,62.30,62.29,62.27,62.23,62.11,61.99,61.92,61.91,61.91,61.92,61.95,61.99,62.00,62.00,62.00,62.00,62.00,62.03,62.05,62.04,62.01,62.02,61.99,61.94,61.90,61.91,61.94,62.00,62.06,62.09,62.07,62.03,62.01,61.99,61.96,61.90,61.84,61.82,61.83,61.82,61.68,61.46,61.19,60.93,60.81,60.80,60.88,61.02,61.11,61.16,61.17,61.13,61.03,60.85,60.65,60.45,60.34,60.29,60.28,60.28,60.30,60.32,60.37,60.42,60.47,60.54,60.58,60.59,60.57,60.56,60.53,60.50,60.47,60.42,60.30,60.20,60.13,60.10,60.06,60.00
e,e,e,e,e,e,e,60.00,60.58,61.05,61.31,61.37,61.43,61.76,62.38,63.24,64.23,64.80,64.70,64.25,63.67,63.37,63.35,63.42,63.50,63.54,63.49,63.43,63.38,63.31,63.17,63.04,62.90,62.75,62.56,62.38,62.34,62.38,62.44,62.47,62.54,62.52,62.40,62.28,62.22,62.13,62.08,62.14,62.31,62.29,62.28,62.37,62.41,62.37,62.26,62.22,62.47,62.66,62.79,62.86,62.87,62.85,62.86,62.87,62.89,63.00,62.99,62.91,62.84,62.81,62.86,62.85,62.79,62.70,62.72,62.71,62.68,62.67,62.69,62.69,62.63,62.52,62.38,62.30,62.27,62.22,62.14,62.07,62.05,62.03,62.02,61.98,61.93,61.92,61.92,61.92,61.84,61.84,61.92,62.03,62.12,61.89,61.78,61.77,61.77,61.70,61.73,61.86,61.99,61.91,62.00,61.84,61.58,61.53,61.58,61.67,61.91,62.28,62.18,62.22,62.26,62.27,62.30,62.30,62.31,62.31,62.30,62.30,62.31,62.31,62.32,62.39,62.30,62.17,62.07,62.05,62.08,62.15,62.22,62.30,62.28,62.23,62.24,62.29,62.30,62.30,62.30,62.30,62.30,62.30,62.30,62.30,62.31,62.35,62.35,62.37,62.38,62.38,62.32,62.27,62.23,62.21,62.16,62.13,62.11,62.10,62.09,62.07,62.08,62.12,62.16,62.22,62.27,62.29,62.30,62.30,62.28,62.23,62.16,62.09,62.02,61.95,61.91,61.93,61.97,61.97,61.96,61.97,62.00,62.00,62.00,62.00,62.00,62.01,62.02,62.01,62.00,62.02,62.00,61.94,61.89,61.93,62.01,62.08,62.12,62.10,62.09,62.05,62.02,61.99,61.96,61.91,61.87,61.85,61.87,61.88,61.79,61.65,61.46,61.18,60.94,60.82,60.80,60.88,60.99,61.06,61.08,61.04,60.88,60.70,60.54,60.41,60.35,60.37,60.38,60.38,60.36,60.41,60.46,60.50,60.53,60.57,60.57,60.56,60.55,60.54,60.49,60.42,60.36,60.29,60.21,60.15,60.12,60.08,60.02,59.97
e,e,e,e,e,e,e,e,60.23,60.82,61.20,61.34,61.26,61.36,61.72,62.43,63.49,64.49,64.87,64.64,63.98,63.37,63.28,63.28,63.26,63.15,62.99,62.88,62.81,62.78,62.86,62.90,62.75,62.43,62.05,61.88,62.00,62.19,62.28,62.14,62.04,61.93,61.82,61.85,61.93,61.88,61.80,61.84,62.00,62.03,62.07,62.20,62.26,62.19,62.07,62.01,62.22,62.36,62.51,62.63,62.69,62.69,62.74,62.81,62.91,63.09,62.97,62.86,62.80,62.81,62.86,62.88,62.81,62.68,62.71,62.66,62.61,62.61,62.66,62.68,62.65,62.56,62.42,62.33,62.29,62.24,62.17,62.07,62.10,62.10,62.09,62.10,61.99,61.94,61.92,61.91,61.85,61.83,61.83,61.87,62.08,61.97,61.81,61.72,61.81,61.73,61.67,61.69,61.79,61.74,61.74,61.62,61.48,61.54,61.67,61.76,61.94,62.25,62.18,62.22,62.28,62.32,62.30,62.30,62.31,62.32,62.30,62.30,62.31,62.33,62.34,62.39,62.35,62.26,62.13,62.02,62.06,62.12,62.21,62.29,62.27,62.22,62.23,62.27,62.29,62.29,62.30,62.30,62.30,62.30,62.30,62.30,62.30,62.30,62.31,62.33,62.36,62.36,62.33,62.31,62.27,62.23,62.20,62.16,62.13,62.11,62.10,62.10,62.10,62.10,62.11,62.17,62.23,62.27,62.29,62.28,62.23,62.14,62.03,61.96,61.95,61.94,61.94,61.98,62.04,62.02,61.98,61.95,61.99,62.00,62.00,62.00,62.00,61.99,61.99,61.98,61.98,62.01,61.99,61.93,61.89,61.96,62.08,62.17,62.17,62.10,62.10,62.08,62.04,62.00,61.96,61.92,61.90,61.91,61.95,61.99,61.94,61.85,61.72,61.43,61.09,60.86,60.77,60.77,60.86,60.94,60.97,60.90,60.71,60.55,60.45,60.40,60.39,60.46,60.49,60.47,60.42,60.48,60.53,60.56,60.58,60.56,60.54,60.52,60.50,60.49,60.42,60.32,60.23,60.17,60.14,60.12,60.10,60.06,59.97,59.92
e,e,e,e,e,e,e,e,e,60.53,60.90,61.31,61.23,61.22,61.37,61.79,62.60,63.83,64.62,64.79,64.40,63.68,63.33,62.94,62.38,61.59,61.02,60.72,60.62,60.80,61.75,62.51,62.44,61.71,60.89,60.61,61.09,61.70,61.85,61.10,60.63,60.43,60.53,61.00,61.27,61.36,61.37,61.41,61.48,61.57,61.67,61.79,61.92,61.97,61.94,61.87,61.81,61.83,61.98,62.20,62.45,62.62,62.73,62.82,62.91,63.07,62.97,62.87,62.82,62.85,62.89,62.83,62.74,62.64,62.57,62.55,62.56,62.59,62.60,62.65,62.63,62.53,62.36,62.25,62.21,62.25,62.32,62.23,62.22,62.27,62.35,62.42,62.15,62.02,61.98,61.97,61.94,61.92,61.90,61.90,61.92,61.90,61.87,61.80,61.68,61.69,61.69,61.67,61.63,61.58,61.62,61.60,61.58,61.63,61.74,61.77,61.90,62.20,62.27,62.33,62.37,62.36,62.30,62.30,62.32,62.34,62.30,62.30,62.33,62.36,62.38,62.40,62.39,62.34,62.25,62.10,62.04,62.06,62.14,62.26,62.22,62.21,62.21,62.23,62.26,62.27,62.28,62.30,62.30,62.30,62.30,62.30,62.30,62.30,62.30,62.31,62.32,62.32,62.33,62.31,62.29,62.27,62.21,62.18,62.16,62.13,62.10,62.10,62.10,62.09,62.07,62.12,62.19,62.23,62.24,62.21,62.15,62.05,61.95,61.95,61.94,61.97,62.01,62.05,62.08,62.07,62.03,61.98,61.97,61.99,62.00,62.00,61.98,61.96,61.95,61.94,61.94,61.96,61.91,61.87,61.89,62.01,62.15,62.24,62.23,62.13,62.10,62.09,62.06,62.02,61.96,61.93,61.96,62.05,62.20,62.32,62.25,62.06,61.81,61.52,61.11,60.87,60.80,60.78,60.77,60.79,60.78,60.70,60.57,60.49,60.45,60.44,60.47,60.54,60.55,60.52,60.49,60.55,60.58,60.58,60.56,60.50,60.45,60.42,60.42,60.44,60.33,60.21,60.12,60.10,60.11,60.10,60.05,59.98,59.87,59.81
e,e,e,e,e,e,e,e,e,60.37,60.69,61.00,61.17,61.17,61.21,61.43,61.93,63.01,64.01,64.59,64.62,64.02,63.45,62.74,61.87,60.89,60.55,60.52,60.64,60.94,61.86,62.54,62.50,61.91,61.27,61.04,61.40,61.85,61.94,61.33,60.92,60.70,60.69,60.96,61.09,61.12,61.08,61.04,61.03,61.08,61.12,61.15,61.40,61.54,61.52,61.38,61.18,61.14,61.27,61.52,61.85,62.20,62.55,62.78,62.90,63.02,62.97,62.88,62.83,62.88,62.94,62.87,62.74,62.59,62.52,62.54,62.56,62.55,62.57,62.60,62.56,62.45,62.28,62.17,62.14,62.23,62.37,62.35,62.33,62.37,62.47,62.54,62.29,62.16,62.11,62.10,62.10,62.05,62.01,61.99,61.94,61.90,61.91,61.86,61.68,61.67,61.68,61.65,61.59,61.52,61.55,61.61,61.64,61.62,61.75,61.77,61.84,62.03,62.20,62.31,62.37,62.38,62.33,62.32,62.33,62.33,62.30,62.30,62.32,62.36,62.40,62.38,62.39,62.40,62.36,62.24,62.11,62.05,62.08,62.18,62.20,62.20,62.20,62.21,62.23,62.24,62.26,62.27,62.27,62.29,62.30,62.30,62.30,62.30,62.30,62.30,62.30,62.31,62.32,62.31,62.30,62.29,62.24,62.21,62.18,62.15,62.10,62.10,62.10,62.08,62.06,62.08,62.14,62.18,62.17,62.12,62.06,61.98,61.92,61.96,62.00,62.03,62.06,62.08,62.09,62.07,62.04,62.00,61.97,61.99,62.00,61.99,61.97,61.94,61.93,61.94,61.96,61.97,61.89,61.85,61.88,62.01,62.19,62.30,62.29,62.17,62.11,62.10,62.08,62.04,61.99,62.02,62.12,62.27,62.45,62.56,62.44,62.19,61.89,61.68,61.32,61.05,60.91,60.85,60.76,60.72,60.67,60.60,60.52,60.49,60.50,60.52,60.56,60.59,60.59,60.58,60.57,60.59,60.60,60.59,60.54,60.46,60.37,60.31,60.29,60.30,60.23,60.13,60.05,60.03,60.05,60.03,59.98,59.88,59.78,59.71
e,e,e,e,e,e,e,e,e,e,e,60.50,61.09,61.18,61.20,61.24,61.40,62.08,63.17,64.16,64.71,64.38,63.62,62.65,61.64,60.77,61.08,61.61,62.11,62.47,62.76,62.83,62.79,62.71,62.64,62.57,62.50,62.43,62.36,62.37,62.31,62.12,61.80,61.45,61.23,61.07,60.91,60.72,60.63,60.57,60.47,60.38,60.78,60.98,60.92,60.67,60.43,60.34,60.45,60.69,61.02,61.57,62.24,62.71,62.88,62.95,62.96,62.90,62.85,62.90,62.99,62.97,62.80,62.52,62.55,62.61,62.58,62.51,62.56,62.56,62.47,62.33,62.18,62.09,62.08,62.18,62.35,62.43,62.42,62.44,62.49,62.54,62.40,62.32,62.28,62.27,62.31,62.20,62.13,62.11,62.08,61.93,61.93,61.92,61.75,61.67,61.64,61.64,61.62,61.52,61.53,61.62,61.68,61.56,61.73,61.77,61.76,61.78,62.02,62.20,62.32,62.38,62.36,62.36,62.33,62.30,62.30,62.30,62.30,62.34,62.39,62.34,62.38,62.43,62.46,62.43,62.26,62.09,62.02,62.08,62.18,62.20,62.20,62.20,62.20,62.20,62.21,62.23,62.23,62.29,62.30,62.30,62.30,62.30,62.30,62.30,62.30,62.30,62.30,62.30,62.30,62.30,62.27,62.23,62.19,62.17,62.10,62.10,62.10,62.09,62.07,62.05,62.09,62.11,62.09,62.01,61.95,61.92,61.91,61.97,62.10,62.12,62.10,62.10,62.08,62.04,62.02,62.01,61.99,62.00,62.00,61.99,61.97,61.91,61.91,61.95,62.02,62.03,61.92,61.85,61.87,62.00,62.22,62.36,62.36,62.22,62.12,62.10,62.08,62.06,62.03,62.14,62.33,62.54,62.71,62.75,62.57,62.27,61.95,61.89,61.66,61.35,61.07,60.97,60.81,60.71,60.63,60.56,60.51,60.53,60.58,60.64,60.65,60.62,60.62,60.65,60.65,60.61,60.60,60.58,60.53,60.42,60.30,60.21,60.14,60.10,60.10,60.07,60.02,59.95,59.95,59.94,59.88,59.78,59.71,59.62
e,e,e,e,e,e,e,e,e,e,e,e,60.73,61.07,61.19,61.22,61.28,61.60,62.40,63.40,64.32,64.58,64.08,63.33,62.57,62.05,62.14,62.35,62.59,62.80,62.94,62.96,62.90,62.78,62.64,62.57,62.52,62.50,62.49,62.50,62.52,62.49,62.41,62.29,62.22,62.18,62.15,62.10,62.04,61.98,61.86,61.68,61.73,61.67,61.55,61.39,61.22,61.06,61.05,61.11,61.17,61.40,62.08,62.68,63.00,63.01,62.97,62.90,62.86,62.91,62.94,62.91,62.81,62.65,62.55,62.54,62.48,62.41,62.41,62.37,62.29,62.21,62.17,62.10,62.11,62.21,62.36,62.39,62.34,62.34,62.39,62.46,62.38,62.36,62.36,62.36,62.34,62.24,62.20,62.20,62.16,61.94,61.88,61.87,61.78,61.66,61.60,61.60,61.64,61.57,61.53,61.56,61.61,61.62,61.64,61.66,61.68,61.71,61.79,62.00,62.20,62.33,62.33,62.37,62.34,62.30,62.30,62.30,62.30,62.34,62.40,62.37,62.39,62.47,62.54,62.53,62.41,62.27,62.13,62.03,62.08,62.12,62.17,62.20,62.20,62.20,62.21,62.21,62.21,62.23,62.24,62.26,62.30,62.30,62.30,62.30,62.30,62.30,62.30,62.30,62.30,62.30,62.29,62.23,62.19,62.17,62.11,62.10,62.10,62.10,62.09,62.08,62.08,62.04,61.97,61.94,61.92,61.91,61.92,61.96,62.10,62.09,62.04,62.04,62.03,62.02,62.01,62.00,62.00,62.00,62.00,62.00,61.99,61.97,61.97,61.99,62.03,62.05,61.97,61.91,61.89,61.95,62.08,62.24,62.34,62.29,62.15,62.11,62.11,62.13,62.18,62.30,62.43,62.54,62.63,62.62,62.47,62.21,61.92,61.84,61.76,61.61,61.37,61.08,60.87,60.75,60.67,60.61,60.59,60.63,60.68,60.70,60.68,60.65,60.64,60.65,60.64,60.60,60.59,60.57,60.54,60.44,60.28,60.15,60.07,60.07,60.06,60.04,59.99,59.94,59.92,59.89,59.84,59.79,59.73,59.59
e,e,e,e,e,e,e,e,e,e,e,e,60.52,60.91,61.10,61.19,61.21,61.29,61.77,62.62,63.66,64.47,64.43,63.97,63.36,62.91,62.80,62.81,62.89,63.01,63.07,63.06,62.97,62.82,62.66,62.58,62.54,62.55,62.57,62.59,62.64,62.71,62.76,62.78,62.80,62.85,62.92,62.97,62.95,62.91,62.80,62.63,62.52,62.37,62.26,62.17,62.03,61.85,61.78,61.74,61.68,61.75,62.25,62.79,63.16,63.12,63.03,62.95,62.91,62.92,62.88,62.82,62.75,62.66,62.52,62.46,62.40,62.33,62.29,62.24,62.18,62.14,62.14,62.11,62.13,62.21,62.31,62.31,62.26,62.25,62.29,62.34,62.32,62.34,62.36,62.38,62.33,62.25,62.24,62.26,62.21,61.93,61.83,61.81,61.75,61.66,61.59,61.58,61.62,61.59,61.57,61.54,61.55,61.59,61.57,61.57,61.59,61.63,61.65,61.80,62.01,62.22,62.31,62.37,62.34,62.28,62.28,62.30,62.30,62.33,62.38,62.39,62.40,62.48,62.57,62.59,62.51,62.40,62.25,62.08,62.03,62.06,62.13,62.20,62.20,62.20,62.20,62.20,62.20,62.20,62.20,62.23,62.27,62.28,62.29,62.29,62.29,62.29,62.30,62.30,62.30,62.30,62.29,62.25,62.21,62.18,62.13,62.11,62.10,62.10,62.10,62.08,62.04,61.98,61.91,61.92,61.93,61.95,61.97,61.96,62.05,62.02,61.98,61.99,61.99,61.99,61.99,61.99,61.99,61.99,62.00,62.00,62.00,62.00,62.01,62.03,62.04,62.07,62.01,61.97,61.95,61.97,62.01,62.14,62.24,62.24,62.13,62.11,62.13,62.18,62.28,62.39,62.47,62.52,62.53,62.50,62.37,62.15,61.91,61.82,61.83,61.77,61.58,61.18,60.92,60.78,60.70,60.62,60.61,60.66,60.71,60.71,60.69,60.67,60.65,60.64,60.62,60.58,60.56,60.55,60.52,60.44,60.27,60.13,60.05,60.04,60.03,60.00,59.96,59.92,59.89,59.84,59.80,59.78,59.73,59.55
e,e,e,e,e,e,e,e,e,e,e,e,e,60.61,60.90,61.18,61.20,61.21,61.37,61.82,62.65,63.91,64.62,64.55,63.94,63.17,62.88,62.86,62.96,63.08,63.15,63.09,62.97,62.82,62.68,62.61,62.57,62.56,62.61,62.63,62.65,62.70,62.76,62.78,62.79,62.88,63.02,63.14,63.16,63.15,63.13,63.09,63.08,63.08,63.07,63.02,62.89,62.76,62.69,62.66,62.67,62.82,62.89,63.10,63.38,63.30,63.16,63.07,63.03,62.94,62.81,62.68,62.58,62.53,62.45,62.38,62.33,62.28,62.18,62.18,62.15,62.12,62.11,62.10,62.15,62.17,62.16,62.20,62.16,62.16,62.18,62.15,62.19,62.21,62.25,62.29,62.24,62.21,62.24,62.27,62.21,61.90,61.78,61.75,61.64,61.67,61.64,61.58,61.54,61.59,61.64,61.61,61.52,61.44,61.55,61.51,61.47,61.52,61.64,61.61,61.74,62.04,62.33,62.37,62.30,62.22,62.21,62.28,62.30,62.30,62.32,62.38,62.40,62.45,62.53,62.58,62.52,62.49,62.41,62.25,62.06,62.02,62.09,62.19,62.20,62.20,62.20,62.20,62.20,62.20,62.20,62.20,62.21,62.22,62.26,62.28,62.28,62.28,62.30,62.30,62.30,62.30,62.30,62.29,62.25,62.21,62.17,62.12,62.10,62.10,62.09,62.04,61.96,61.92,61.93,61.97,61.99,62.05,62.08,61.95,61.92,61.91,61.92,61.97,61.97,61.97,61.97,61.97,61.97,61.98,61.99,62.00,61.99,61.99,62.03,62.05,62.05,62.07,62.03,62.02,62.04,62.08,62.06,62.04,62.02,62.02,62.02,62.09,62.16,62.21,62.30,62.39,62.44,62.45,62.42,62.38,62.27,62.10,61.90,61.84,61.85,61.81,61.65,61.28,60.98,60.82,60.71,60.58,60.55,60.59,60.64,60.67,60.66,60.66,60.64,60.62,60.59,60.55,60.51,60.49,60.48,60.44,60.31,60.18,60.08,60.03,60.01,59.98,59.94,59.90,59.86,59.81,59.77,59.74,59.68,59.49
e,e,e,e,e,e,e,e,e,e,e,e,e,59.88,60.46,61.05,61.20,61.20,61.25,61.48,62.04,63.18,64.23,64.65,64.44,63.76,63.15,62.93,62.95,63.06,63.10,63.01,62.90,62.78,62.67,62.63,62.62,62.64,62.69,62.72,62.73,62.75,62.80,62.89,62.97,63.05,63.12,63.19,63.19,63.19,63.19,63.19,63.19,63.22,63.26,63.24,63.10,62.97,62.92,62.95,63.05,63.10,63.03,63.07,63.24,63.34,63.30,63.24,63.22,63.27,63.27,63.25,63.15,62.99,62.97,62.92,62.80,62.63,62.44,62.19,62.16,62.20,62.16,62.14,62.16,62.22,62.27,62.24,62.18,62.16,62.16,62.13,62.12,62.13,62.15,62.18,62.19,62.19,62.23,62.26,62.12,61.84,61.72,61.67,61.63,61.72,61.73,61.68,61.62,61.61,61.61,61.61,61.58,61.44,61.49,61.52,61.51,61.47,61.52,61.52,61.58,61.77,62.10,62.23,62.24,62.22,62.22,62.28,62.30,62.31,62.32,62.34,62.40,62.45,62.49,62.52,62.50,62.49,62.44,62.34,62.17,62.08,62.08,62.13,62.18,62.21,62.22,62.22,62.22,62.20,62.20,62.20,62.20,62.20,62.23,62.24,62.24,62.24,62.27,62.28,62.29,62.30,62.30,62.30,62.28,62.24,62.19,62.14,62.11,62.08,62.04,61.98,61.94,61.93,61.95,61.99,62.02,62.06,62.07,61.96,61.91,61.88,61.88,61.91,61.93,61.93,61.93,61.93,61.94,61.96,61.99,62.01,62.01,61.98,61.99,62.03,62.06,62.08,62.06,62.08,62.11,62.14,62.13,62.07,62.01,61.99,62.02,62.10,62.16,62.20,62.26,62.32,62.34,62.33,62.29,62.26,62.18,62.06,61.92,61.89,61.88,61.81,61.64,61.35,61.21,61.11,60.93,60.63,60.52,60.50,60.52,60.55,60.58,60.61,60.61,60.59,60.55,60.50,60.45,60.43,60.41,60.35,60.23,60.12,60.03,59.98,59.95,59.92,59.88,59.86,59.82,59.77,59.73,59.67,59.52,59.31
e,e,e,e,e,e,e,e,e,e,e,e,e,59.26,60.08,60.94,61.16,61.19,61.20,61.27,61.57,62.43,63.64,64.49,64.77,64.36,63.52,63.06,62.92,63.00,63.00,62.92,62.82,62.73,62.65,62.65,62.68,62.72,62.77,62.79,62.81,62.81,62.84,62.98,63.12,63.18,63.20,63.20,63.18,63.18,63.18,63.19,63.20,63.23,63.29,63.30,63.15,63.03,63.02,63.10,63.25,63.19,63.04,63.00,63.12,63.36,63.43,63.41,63.41,63.58,63.71,63.79,63.71,63.49,63.50,63.48,63.33,63.08,62.86,62.42,62.30,62.29,62.19,62.18,62.18,62.25,62.37,62.28,62.20,62.16,62.13,62.10,62.06,62.05,62.05,62.07,62.12,62.13,62.18,62.19,61.98,61.77,61.66,61.62,61.64,61.78,61.80,61.77,61.71,61.66,61.59,61.60,61.61,61.46,61.44,61.52,61.55,61.45,61.41,61.45,61.46,61.52,61.83,62.04,62.17,62.23,62.23,62.28,62.29,62.31,62.33,62.30,62.38,62.43,62.44,62.44,62.47,62.47,62.44,62.39,62.26,62.16,62.09,62.07,62.14,62.22,62.25,62.25,62.25,62.22,62.21,62.21,62.21,62.21,62.21,62.21,62.21,62.22,62.25,62.26,62.27,62.30,62.30,62.30,62.30,62.28,62.20,62.14,62.09,62.03,61.98,61.92,61.94,61.97,61.99,62.01,62.03,62.04,62.02,61.97,61.91,61.87,61.86,61.87,61.91,61.92,61.92,61.91,61.92,61.95,62.00,62.03,62.05,61.98,61.97,62.00,62.06,62.09,62.10,62.12,62.16,62.18,62.19,62.13,62.06,62.03,62.04,62.10,62.15,62.17,62.21,62.25,62.24,62.21,62.17,62.15,62.10,62.02,61.95,61.93,61.92,61.82,61.65,61.46,61.51,61.47,61.24,60.80,60.56,60.44,60.39,60.41,60.48,60.55,60.57,60.55,60.50,60.43,60.38,60.36,60.34,60.25,60.14,60.04,59.96,59.91,59.89,59.86,59.83,59.82,59.77,59.71,59.65,59.56,59.33,59.15
e,e,e,e,e,e,e,e,e,e,e,e,e,e,e,e,60.99,61.16,61.17,61.18,61.30,61.75,62.77,63.81,64.56,64.75,64.08,63.38,62.92,62.81,62.84,62.83,62.80,62.74,62.66,62.64,62.68,62.75,62.79,62.80,62.83,62.85,62.86,62.90,63.02,63.12,63.18,63.18,63.15,63.13,63.13,63.16,63.19,63.21,63.24,63.24,63.16,63.13,63.14,63.21,63.32,63.22,63.05,63.06,63.29,63.45,63.51,63.54,63.57,63.63,63.69,63.71,63.68,63.64,63.65,63.65,63.63,63.58,63.55,63.35,62.88,62.37,62.06,62.15,62.17,62.18,62.20,62.16,62.11,62.07,62.03,61.97,61.95,61.96,61.97,61.98,62.00,61.98,61.97,61.92,61.74,61.65,61.61,61.63,61.71,61.81,61.82,61.79,61.75,61.75,61.63,61.55,61.50,61.45,61.40,61.45,61.50,61.48,61.42,61.37,61.36,61.41,61.57,61.80,62.05,62.23,62.24,62.25,62.25,62.28,62.33,62.30,62.32,62.35,62.37,62.37,62.40,62.41,62.41,62.39,62.30,62.24,62.15,62.06,62.07,62.23,62.29,62.29,62.29,62.26,62.25,62.25,62.25,62.25,62.25,62.25,62.25,62.26,62.26,62.27,62.28,62.30,62.30,62.30,62.30,62.28,62.23,62.07,61.97,61.93,61.92,61.92,61.97,62.03,62.09,62.05,62.02,62.00,61.97,61.92,61.90,61.89,61.89,61.91,62.00,62.01,61.99,61.96,61.95,61.96,62.03,62.11,62.17,62.06,62.00,62.00,62.05,62.10,62.13,62.14,62.16,62.19,62.20,62.18,62.16,62.12,62.04,62.05,62.10,62.14,62.16,62.18,62.17,62.13,62.12,62.10,62.05,62.01,61.98,61.98,61.96,61.88,61.79,61.75,61.88,61.88,61.71,61.33,60.84,60.50,60.31,60.27,60.34,60.45,60.50,60.50,60.44,60.33,60.29,60.28,60.27,60.16,60.05,59.95,59.88,59.83,59.82,59.81,59.81,59.80,59.73,59.61,59.47,59.31,59.14,59.11
e,e,e,e,e,e,e,e,e,e,e,e,e,e,e,e,60.93,61.07,61.12,61.14,61.17,61.38,62.07,63.03,64.01,64.70,64.46,63.82,63.19,62.81,62.77,62.81,62.82,62.78,62.69,62.68,62.73,62.78,62.81,62.82,62.85,62.88,62.89,62.90,62.98,63.07,63.14,63.16,63.13,63.11,63.11,63.13,63.16,63.18,63.20,63.19,63.13,63.14,63.14,63.17,63.26,63.21,63.04,63.08,63.33,63.45,63.45,63.50,63.58,63.63,63.66,63.65,63.66,63.69,63.72,63.74,63.75,63.74,63.74,63.66,63.22,62.67,62.28,62.17,62.10,62.11,62.17,62.11,62.06,62.01,61.97,61.92,61.90,61.91,61.93,61.92,61.88,61.84,61.81,61.76,61.66,61.63,61.62,61.64,61.73,61.80,61.80,61.77,61.75,61.75,61.67,61.56,61.47,61.43,61.39,61.39,61.41,61.41,61.40,61.38,61.35,61.34,61.38,61.58,61.86,62.11,62.22,62.17,62.12,62.14,62.23,62.23,62.28,62.30,62.28,62.26,62.30,62.34,62.37,62.37,62.34,62.30,62.22,62.12,62.04,62.15,62.23,62.28,62.30,62.29,62.28,62.28,62.28,62.28,62.28,62.28,62.28,62.28,62.28,62.28,62.29,62.30,62.30,62.30,62.30,62.28,62.21,62.02,61.92,61.90,61.91,61.97,62.02,62.07,62.11,62.08,62.05,62.01,61.97,61.94,61.94,61.93,61.92,61.91,61.98,61.99,61.99,61.99,61.98,61.98,62.03,62.10,62.16,62.07,61.99,61.97,62.00,62.08,62.14,62.15,62.15,62.20,62.20,62.20,62.20,62.17,62.07,62.02,62.03,62.08,62.09,62.14,62.14,62.13,62.10,62.07,62.03,62.01,62.01,62.02,62.00,61.99,62.00,62.06,62.12,62.12,61.99,61.69,61.13,60.64,60.33,60.20,60.21,60.30,60.37,60.38,60.32,60.19,60.15,60.15,60.15,60.05,59.94,59.84,59.76,59.71,59.70,59.71,59.72,59.72,59.61,59.44,59.28,59.15,59.05,59.11
e,e,e,e,e,e,e,e,e,e,e,e,e,e,e,e,e,60.93,61.05,61.12,61.13,61.19,61.47,62.20,63.25,64.38,64.71,64.32,63.62,62.94,62.76,62.81,62.85,62.82,62.73,62.75,62.79,62.82,62.83,62.85,62.87,62.90,62.93,62.95,62.97,63.03,63.10,63.12,63.11,63.10,63.10,63.10,63.13,63.16,63.17,63.14,63.08,63.11,63.07,63.06,63.14,63.18,63.02,63.06,63.30,63.39,63.32,63.37,63.50,63.59,63.62,63.62,63.63,63.68,63.74,63.77,63.76,63.71,63.65,63.62,63.43,63.11,62.70,62.24,62.03,62.05,62.21,62.11,62.04,61.98,61.93,61.91,61.90,61.90,61.90,61.88,61.78,61.72,61.69,61.68,61.67,61.67,61.64,61.64,61.71,61.77,61.76,61.73,61.71,61.70,61.70,61.61,61.48,61.41,61.40,61.35,61.30,61.28,61.37,61.43,61.39,61.30,61.24,61.37,61.63,61.92,62.14,62.01,61.89,61.88,62.00,62.07,62.20,62.24,62.19,62.12,62.19,62.27,62.32,62.32,62.37,62.33,62.29,62.22,62.02,62.04,62.13,62.24,62.30,62.30,62.30,62.30,62.30,62.30,62.30,62.30,62.30,62.30,62.30,62.30,62.30,62.30,62.30,62.30,62.29,62.26,62.16,61.97,61.90,61.91,61.94,62.06,62.09,62.10,62.10,62.10,62.09,62.05,62.00,62.00,62.00,61.99,61.95,61.90,61.90,61.91,61.95,62.00,62.00,62.00,62.01,62.04,62.09,62.05,61.96,61.91,61.94,62.03,62.13,62.15,62.14,62.20,62.20,62.20,62.20,62.18,62.11,62.00,61.96,62.00,62.03,62.10,62.15,62.15,62.10,62.07,62.03,62.01,62.03,62.06,62.04,62.11,62.24,62.37,62.30,62.24,62.15,61.94,61.42,60.85,60.41,60.16,60.10,60.13,60.20,60.22,60.16,60.02,59.98,59.99,60.01,59.93,59.82,59.71,59.61,59.57,59.55,59.56,59.59,59.61,59.43,59.22,59.08,59.05,59.03,59.14
e,e,e,e,e,e,e,e,e,e,e,e,e,e,e,e,e,e,61.04,61.09,61.15,61.18,61.26,61.65,62.40,63.50,64.36,64.55,64.20,63.50,62.93,62.78,62.77,62.80,62.79,62.81,62.81,62.82,62.85,62.88,62.89,62.91,62.95,62.98,62.99,63.04,63.12,63.16,63.13,63.11,63.10,63.10,63.11,63.13,63.13,63.12,63.09,63.09,63.01,62.97,63.07,63.06,62.93,62.90,63.00,63.08,63.09,63.23,63.43,63.58,63.60,63.61,63.63,63.68,63.72,63.73,63.73,63.70,63.64,63.61,63.56,63.45,63.25,62.98,62.44,62.09,62.06,62.15,62.05,61.96,61.91,61.90,61.90,61.87,61.85,61.83,61.75,61.71,61.74,61.79,61.76,61.72,61.66,61.62,61.64,61.71,61.69,61.65,61.64,61.64,61.63,61.58,61.47,61.35,61.34,61.32,61.28,61.23,61.26,61.35,61.39,61.34,61.23,61.27,61.38,61.37,61.05,60.60,60.49,60.50,60.56,60.70,61.16,61.62,61.92,61.97,62.09,62.22,62.30,62.31,62.38,62.37,62.33,62.27,62.19,62.08,62.06,62.12,62.22,62.22,62.23,62.23,62.23,62.23,62.23,62.23,62.23,62.23,62.24,62.24,62.25,62.25,62.25,62.26,62.25,62.19,62.10,61.97,61.92,61.93,61.98,62.06,62.06,62.05,62.09,62.09,62.09,62.08,62.05,62.03,62.04,61.98,61.92,61.90,61.90,61.94,61.99,62.04,62.11,62.11,62.06,62.01,61.99,61.97,61.95,61.94,61.96,61.96,62.03,62.09,62.14,62.19,62.19,62.18,62.16,62.13,62.10,62.00,61.96,61.98,62.00,62.07,62.13,62.15,62.09,62.04,62.01,62.01,62.03,62.06,62.04,62.08,62.19,62.35,62.36,62.32,62.23,62.08,61.74,61.23,60.71,60.29,60.09,60.04,60.03,60.04,60.00,59.92,59.91,59.92,59.91,59.81,59.71,59.61,59.52,59.47,59.43,59.39,59.37,59.37,59.27,59.18,59.13,59.12,59.04,59.07
e,e,e,e,e,e,e,e,e,e,e,e,e,e,e,e,e,e,61.02,61.07,61.13,61.15,61.14,61.28,61.74,62.65,63.80,64.46,64.54,64.04,63.28,62.88,62.74,62.76,62.82,62.84,62.82,62.82,62.86,62.89,62.91,62.94,62.98,63.01,63.04,63.10,63.16,63.20,63.15,63.12,63.13,63.14,63.15,63.14,63.11,63.08,63.06,63.02,62.91,62.85,62.92,62.90,62.84,62.83,62.87,62.94,62.98,63.15,63.39,63.55,63.57,63.58,63.63,63.69,63.71,63.70,63.68,63.66,63.62,63.59,63.60,63.60,63.54,63.39,62.87,62.36,62.05,62.10,62.04,61.97,61.92,61.90,61.88,61.84,61.79,61.75,61.70,61.72,61.79,61.85,61.80,61.80,61.73,61.64,61.59,61.65,61.62,61.58,61.57,61.58,61.57,61.53,61.44,61.32,61.29,61.29,61.28,61.25,61.22,61.28,61.35,61.36,61.25,61.20,61.21,61.08,60.63,60.05,60.01,60.03,59.96,60.01,60.40,60.88,61.36,61.76,61.81,62.02,62.21,62.26,62.35,62.38,62.35,62.30,62.29,62.16,62.06,62.05,62.12,62.12,62.15,62.16,62.17,62.17,62.19,62.20,62.20,62.21,62.23,62.24,62.25,62.26,62.23,62.21,62.16,62.09,62.05,61.98,61.95,61.95,61.98,62.04,62.01,62.00,62.05,62.06,62.08,62.09,62.08,62.05,62.04,61.97,61.90,61.90,61.89,61.95,62.01,62.06,62.14,62.15,62.10,62.03,61.99,61.97,61.96,61.97,61.96,61.92,61.97,62.04,62.11,62.17,62.17,62.15,62.13,62.12,62.12,62.04,61.99,61.97,61.96,62.02,62.08,62.11,62.06,62.01,61.99,62.01,62.05,62.08,62.07,62.07,62.13,62.29,62.37,62.36,62.29,62.18,61.99,61.58,61.06,60.53,60.17,60.00,59.91,59.88,59.87,59.84,59.85,59.87,59.85,59.76,59.67,59.56,59.46,59.39,59.33,59.26,59.21,59.18,59.15,59.18,59.22,59.22,59.09,59.04
e,e,e,e,e,e,e,e,e,e,e,e,e,e,e,e,e,e,e,e,61.07,61.10,61.10,61.13,61.31,61.83,62.96,63.97,64.56,64.55,63.83,63.14,62.76,62.69,62.81,62.84,62.82,62.82,62.85,62.89,62.93,62.97,63.01,63.05,63.12,63.19,63.24,63.23,63.16,63.15,63.18,63.24,63.27,63.20,63.11,63.04,63.00,62.87,62.76,62.70,62.67,62.69,62.76,62.85,62.97,63.01,63.02,63.17,63.38,63.51,63.51,63.55,63.63,63.73,63.72,63.67,63.62,63.60,63.59,63.54,63.52,63.50,63.49,63.42,63.33,62.92,62.23,61.92,62.00,62.02,61.95,61.89,61.84,61.80,61.73,61.65,61.64,61.76,61.84,61.85,61.77,61.92,61.86,61.70,61.57,61.59,61.55,61.52,61.52,61.55,61.52,61.45,61.38,61.31,61.25,61.26,61.30,61.34,61.25,61.21,61.25,61.33,61.29,61.19,61.13,61.11,61.05,60.57,60.66,60.68,60.41,60.16,59.98,60.00,60.43,61.49,61.32,61.63,62.01,62.17,62.29,62.35,62.34,62.30,62.30,62.28,62.16,62.04,61.99,61.99,62.06,62.11,62.11,62.14,62.18,62.20,62.21,62.24,62.28,62.30,62.31,62.33,62.25,62.13,62.03,61.98,62.01,62.02,62.01,61.97,61.93,61.99,61.96,61.94,61.98,62.01,62.05,62.06,62.07,62.08,62.02,61.95,61.90,61.89,61.88,61.93,62.00,62.05,62.07,62.10,62.13,62.13,62.10,62.04,62.01,61.99,61.96,61.92,61.95,62.00,62.07,62.15,62.14,62.12,62.12,62.15,62.19,62.12,62.04,61.97,61.88,61.94,62.00,62.03,62.01,61.99,61.98,62.02,62.09,62.15,62.14,62.09,62.06,62.16,62.31,62.35,62.31,62.23,62.13,61.90,61.47,60.90,60.37,60.03,59.84,59.77,59.77,59.78,59.82,59.86,59.85,59.80,59.70,59.57,59.44,59.33,59.26,59.17,59.10,59.05,59.11,59.24,59.35,59.37,59.21,59.05
58.16,58.20,e,e,e,e,e,e,e,e,e,e,e,e,e,e,e,e,e,e,e,e,61.10,61.10,61.18,61.43,62.19,63.19,64.08,64.60,64.36,63.67,63.06,62.70,62.73,62.79,62.81,62.81,62.85,62.90,62.95,62.99,63.02,63.10,63.17,63.21,63.22,63.20,63.17,63.14,63.14,63.16,63.19,63.15,63.06,62.97,62.89,62.73,62.63,62.60,62.62,62.76,62.92,63.07,63.19,63.17,63.18,63.27,63.40,63.47,63.50,63.58,63.67,63.71,63.67,63.63,63.58,63.55,63.53,63.50,63.47,63.45,63.44,63.37,63.33,63.07,62.57,62.10,61.98,61.95,61.93,61.91,61.83,61.74,61.69,61.69,61.70,61.74,61.79,61.84,61.87,61.96,61.90,61.75,61.64,61.63,61.58,61.54,61.50,61.48,61.45,61.41,61.36,61.31,61.29,61.28,61.27,61.28,61.25,61.23,61.22,61.23,61.31,61.24,61.16,61.10,61.06,60.84,60.99,61.16,61.16,60.99,60.58,60.40,60.62,61.35,60.84,60.87,61.11,61.37,61.93,62.18,62.27,62.27,62.30,62.25,62.17,62.07,61.99,61.97,62.03,62.09,62.14,62.17,62.19,62.20,62.21,62.24,62.26,62.28,62.28,62.24,62.14,62.06,62.01,62.01,62.04,62.08,62.06,62.00,61.94,61.95,61.93,61.93,61.97,62.00,62.02,62.03,62.02,62.01,61.96,61.92,61.90,61.89,61.89,61.92,61.98,62.02,62.00,62.05,62.13,62.19,62.20,62.14,62.07,62.01,61.98,61.94,61.95,61.98,62.03,62.06,62.00,62.04,62.11,62.19,62.23,62.17,62.09,62.00,61.90,61.95,61.99,62.01,62.00,62.00,62.01,62.04,62.10,62.17,62.19,62.15,62.09,62.09,62.21,62.26,62.25,62.19,62.14,62.07,61.85,61.44,60.89,60.32,59.92,59.72,59.68,59.71,59.76,59.82,59.85,59.79,59.67,59.54,59.41,59.27,59.19,59.14,59.13,59.17,59.26,59.36,59.44,59.44,59.34,59.16
58.15,58.19,e,e,e,e,e,e,e,e,e,e,e,e,e,e,e,e,e,e,e,e,61.09,61.09,61.11,61.17,61.54,62.40,63.44,64.38,64.68,64.16,63.43,62.82,62.68,62.74,62.78,62.81,62.85,62.91,62.96,63.00,63.03,63.12,63.18,63.19,63.18,63.17,63.17,63.13,63.10,63.08,63.09,63.05,62.97,62.87,62.75,62.61,62.54,62.55,62.66,62.90,63.12,63.29,63.37,63.29,63.33,63.37,63.41,63.44,63.51,63.63,63.70,63.68,63.62,63.58,63.54,63.50,63.46,63.45,63.43,63.40,63.38,63.31,63.27,63.14,62.88,62.39,62.08,61.94,61.90,61.89,61.80,61.70,61.69,61.78,61.77,61.72,61.74,61.85,61.96,61.99,61.91,61.80,61.71,61.67,61.65,61.60,61.52,61.45,61.42,61.39,61.36,61.34,61.39,61.36,61.30,61.24,61.23,61.24,61.19,61.15,61.29,61.26,61.17,61.07,61.01,61.00,61.16,61.44,61.74,61.77,61.30,60.99,60.97,61.26,60.60,60.36,60.38,60.57,61.31,61.73,61.98,62.14,62.28,62.20,62.16,62.12,62.04,61.99,62.02,62.08,62.16,62.20,62.20,62.20,62.21,62.25,62.26,62.27,62.23,62.11,62.03,62.01,62.03,62.06,62.10,62.14,62.11,62.03,61.96,61.92,61.90,61.92,61.97,62.00,62.00,61.98,61.96,61.94,61.91,61.90,61.90,61.90,61.90,61.92,61.97,62.01,61.96,62.03,62.13,62.23,62.27,62.23,62.14,62.06,62.01,61.99,61.97,61.97,61.99,61.98,61.91,61.99,62.12,62.21,62.24,62.19,62.12,62.04,61.93,61.98,62.01,62.02,62.03,62.05,62.06,62.08,62.11,62.18,62.21,62.19,62.13,62.06,62.12,62.17,62.18,62.14,62.13,62.18,62.13,61.90,61.40,60.66,60.09,59.73,59.61,59.62,59.68,59.76,59.82,59.76,59.63,59.49,59.36,59.21,59.14,59.15,59.23,59.33,59.42,59.47,59.50,59.50,59.45,59.28
58.12,58.14,e,e,e,e,e,e,e,e,e,e,e,e,e,e,e,e,e,e,e,e,e,e,61.07,61.09,61.20,61.69,62.54,63.64,64.44,64.40,63.89,63.20,62.73,62.68,62.73,62.80,62.85,62.90,62.95,63.00,63.03,63.07,63.11,63.14,63.16,63.15,63.15,63.15,63.12,63.08,63.00,62.89,62.78,62.68,62.57,62.53,62.53,62.61,62.81,63.12,63.32,63.42,63.41,63.31,63.37,63.41,63.42,63.41,63.55,63.67,63.71,63.65,63.58,63.54,63.50,63.46,63.42,63.42,63.39,63.37,63.35,63.27,63.23,63.17,63.06,62.79,62.53,62.17,61.87,61.80,61.75,61.72,61.79,61.97,61.84,61.72,61.76,61.91,61.97,62.00,61.94,61.82,61.72,61.69,61.76,61.73,61.59,61.56,61.47,61.43,61.44,61.47,61.60,61.61,61.52,61.35,61.20,61.19,61.17,61.14,61.16,61.17,61.11,61.04,61.00,61.00,61.05,61.29,61.72,62.07,61.87,61.51,61.24,61.27,61.03,60.75,60.43,60.12,60.12,60.51,61.08,61.70,62.20,62.15,62.14,62.16,62.14,62.07,62.03,62.06,62.14,62.19,62.20,62.20,62.22,62.28,62.32,62.27,62.14,61.98,62.00,62.05,62.11,62.16,62.17,62.18,62.13,62.06,61.99,61.96,61.89,61.88,61.94,61.99,61.98,61.93,61.87,61.91,61.90,61.90,61.90,61.90,61.90,61.92,61.98,62.05,62.01,62.06,62.13,62.20,62.29,62.28,62.23,62.16,62.08,62.07,62.04,61.99,61.96,61.99,61.99,62.06,62.14,62.20,62.19,62.16,62.12,62.07,61.96,62.02,62.05,62.07,62.16,62.16,62.17,62.17,62.18,62.20,62.19,62.17,62.14,62.11,62.08,62.10,62.12,62.11,62.13,62.17,62.18,62.08,61.73,61.04,60.41,59.92,59.62,59.53,59.54,59.63,59.74,59.70,59.57,59.41,59.26,59.14,59.16,59.27,59.41,59.53,59.53,59.52,59.52,59.54,59.51,59.40
58.10,58.09,e,e,e,e,e,e,e,e,e,e,e,e,e,e,e,e,e,e,e,e,e,e,61.03,61.04,61.05,61.29,61.85,62.75,63.78,64.27,64.21,63.73,63.06,62.73,62.68,62.77,62.87,62.91,62.95,63.00,63.04,63.06,63.10,63.16,63.21,63.21,63.17,63.12,63.08,63.03,62.90,62.74,62.62,62.55,62.54,62.57,62.60,62.68,62.90,63.17,63.33,63.38,63.36,63.31,63.35,63.39,63.42,63.49,63.62,63.70,63.70,63.61,63.55,63.50,63.46,63.43,63.38,63.37,63.34,63.30,63.28,63.21,63.18,63.14,63.09,62.99,62.79,62.35,61.90,61.74,61.70,61.68,61.76,61.93,61.84,61.76,61.77,61.86,61.90,61.90,61.85,61.77,61.68,61.69,61.80,61.77,61.60,61.63,61.59,61.58,61.59,61.59,61.69,61.72,61.69,61.60,61.26,61.15,61.12,61.12,61.11,61.07,61.06,61.08,61.15,61.00,60.97,61.10,61.40,61.79,62.01,61.93,61.67,61.42,61.23,61.00,60.74,60.48,60.30,60.26,60.35,60.68,61.62,61.58,61.68,61.85,61.94,62.00,61.99,62.01,62.10,62.17,62.19,62.20,62.21,62.25,62.27,62.19,62.07,61.98,62.06,62.12,62.16,62.19,62.19,62.16,62.12,62.08,62.04,62.02,61.95,61.90,61.92,61.95,61.95,61.92,61.92,62.02,61.99,61.97,61.95,61.95,61.94,61.94,62.01,62.10,62.10,62.13,62.16,62.19,62.26,62.25,62.21,62.16,62.10,62.10,62.07,62.02,61.97,62.00,62.01,62.05,62.12,62.19,62.18,62.13,62.09,62.05,61.99,62.02,62.04,62.07,62.17,62.16,62.17,62.17,62.18,62.21,62.22,62.21,62.18,62.16,62.10,62.10,62.11,62.11,62.15,62.16,62.17,62.15,61.96,61.48,60.89,60.29,59.77,59.55,59.48,59.50,59.57,59.53,59.42,59.30,59.21,59.18,59.27,59.40,59.53,59.60,59.58,59.56,59.55,59.55,59.52,59.44
58.08,58.08,58.08,e,e,e,e,e,e,e,e,e,e,e,e,e,e,e,e,e,e,e,e,e,61.00,61.00,61.00,61.05,61.29,61.84,62.92,63.92,64.42,64.29,63.54,62.86,62.64,62.72,62.90,62.94,62.96,63.00,63.05,63.07,63.11,63.21,63.30,63.28,63.18,63.08,63.01,62.96,62.77,62.59,62.48,62.47,62.59,62.67,62.69,62.76,62.95,63.16,63.25,63.28,63.28,63.30,63.31,63.34,63.44,63.62,63.69,63.71,63.67,63.57,63.52,63.46,63.42,63.39,63.34,63.32,63.27,63.23,63.21,63.15,63.12,63.08,63.04,63.06,62.93,62.50,61.99,61.74,61.66,61.63,61.67,61.79,61.80,61.80,61.77,61.75,61.79,61.76,61.73,61.68,61.63,61.68,61.80,61.77,61.59,61.66,61.72,61.76,61.76,61.70,61.71,61.75,61.84,61.88,61.38,61.13,61.06,61.09,61.10,60.98,61.00,61.15,61.34,61.02,60.92,60.90,60.96,61.24,61.92,62.25,62.14,61.66,61.34,61.18,61.15,61.19,61.10,60.52,59.81,59.55,60.82,60.76,60.97,61.32,61.53,61.76,61.83,61.89,62.00,62.09,62.14,62.16,62.17,62.18,62.16,62.07,62.00,62.03,62.16,62.19,62.19,62.18,62.17,62.10,62.07,62.07,62.09,62.08,62.03,61.96,61.91,61.90,61.90,61.94,62.02,62.20,62.13,62.06,62.02,62.01,61.99,61.97,62.03,62.14,62.20,62.20,62.20,62.20,62.20,62.18,62.14,62.11,62.10,62.10,62.10,62.06,62.02,62.00,62.00,62.02,62.07,62.16,62.17,62.11,62.04,62.00,62.01,62.01,62.01,62.04,62.12,62.12,62.13,62.14,62.16,62.23,62.28,62.28,62.24,62.19,62.16,62.13,62.13,62.13,62.17,62.15,62.14,62.16,62.13,61.92,61.43,60.74,60.01,59.66,59.47,59.38,59.37,59.32,59.24,59.19,59.21,59.29,59.43,59.54,59.60,59.60,59.60,59.60,59.59,59.56,59.50,59.44
58.08,58.09,58.09,e,e,e,e,e,e,e,e,e,e,e,e,e,e,e,e,e,e,e,e,e,e,61.03,61.01,61.02,61.12,61.39,62.12,63.19,64.04,64.41,64.04,63.23,62.74,62.60,62.80,62.95,62.99,63.01,63.05,63.09,63.10,63.16,63.22,63.23,63.11,62.96,62.82,62.71,62.57,62.53,62.54,62.61,62.70,62.75,62.76,62.81,62.95,63.22,63.26,63.31,63.41,63.39,63.33,63.40,63.54,63.67,63.67,63.62,63.57,63.52,63.46,63.42,63.38,63.33,63.26,63.20,63.16,63.13,63.09,63.05,63.01,62.97,62.93,62.86,62.78,62.67,62.48,62.17,61.82,61.66,61.61,61.62,61.73,61.78,61.78,61.74,61.73,61.71,61.67,61.64,61.63,61.66,61.82,61.81,61.62,61.58,61.62,61.65,61.67,61.69,61.72,61.74,61.77,61.79,61.44,61.26,61.15,61.07,61.12,61.06,61.01,61.02,61.14,61.10,60.97,60.89,60.91,61.00,61.48,61.86,62.07,62.13,61.78,61.51,61.34,61.24,61.07,60.96,60.77,60.49,60.27,60.08,60.11,60.25,60.32,60.54,60.64,60.81,61.08,61.28,61.52,61.72,61.88,62.06,62.03,61.99,61.98,62.03,62.02,62.04,62.02,61.95,61.94,61.82,61.75,61.78,61.92,61.95,61.97,61.98,61.99,61.95,61.96,62.01,62.11,62.24,62.20,62.13,62.09,62.06,62.03,62.04,62.10,62.18,62.20,62.20,62.20,62.20,62.20,62.19,62.17,62.14,62.10,62.11,62.12,62.10,62.06,62.02,62.01,62.01,62.02,62.04,62.04,62.05,62.04,62.03,62.07,62.09,62.11,62.13,62.17,62.18,62.20,62.21,62.22,62.27,62.34,62.35,62.31,62.24,62.20,62.19,62.20,62.20,62.23,62.21,62.19,62.19,62.16,62.08,61.77,61.27,60.69,60.20,59.69,59.35,59.25,59.18,59.14,59.19,59.31,59.45,59.52,59.57,59.60,59.60,59.60,59.60,59.59,59.56,59.52,59.46
58.07,58.08,58.09,e,e,e,e,e,e,e,e,e,e,e,e,e,e,e,e,e,e,e,e,e,e,61.05,60.99,60.99,61.02,61.11,61.51,62.42,63.44,64.23,64.38,63.72,63.07,62.68,62.70,62.89,62.98,63.04,63.09,63.10,63.07,63.07,63.09,63.08,62.94,62.79,62.65,62.55,62.52,62.56,62.63,62.71,62.78,62.83,62.87,62.90,62.97,63.19,63.22,63.27,63.38,63.39,63.34,63.45,63.61,63.69,63.66,63.58,63.50,63.46,63.40,63.35,63.31,63.25,63.19,63.11,63.07,63.04,63.01,62.97,62.92,62.87,62.83,62.72,62.67,62.70,62.70,62.50,62.03,61.74,61.59,61.54,61.63,61.74,61.79,61.78,61.72,61.67,61.63,61.62,61.66,61.70,61.85,61.83,61.64,61.55,61.57,61.61,61.65,61.71,61.80,61.78,61.75,61.73,61.54,61.40,61.23,61.08,61.07,61.11,61.04,60.95,60.97,61.08,61.00,60.91,60.88,60.86,61.13,61.48,61.86,62.29,62.05,61.79,61.57,61.42,61.30,61.43,61.47,61.22,60.43,60.13,60.06,60.07,59.99,60.05,60.08,60.20,60.41,60.47,60.69,60.95,61.22,61.50,61.49,61.48,61.50,61.54,61.43,61.42,61.37,61.27,61.25,61.12,61.05,61.09,61.28,61.34,61.44,61.57,61.71,61.85,61.91,62.03,62.16,62.20,62.16,62.15,62.14,62.11,62.09,62.11,62.16,62.20,62.20,62.20,62.20,62.21,62.22,62.22,62.21,62.18,62.13,62.11,62.13,62.12,62.08,62.05,62.02,62.00,61.99,61.97,61.99,62.03,62.05,62.08,62.15,62.18,62.19,62.20,62.23,62.25,62.27,62.28,62.27,62.30,62.37,62.39,62.36,62.29,62.23,62.22,62.22,62.23,62.25,62.24,62.22,62.20,62.18,62.17,62.02,61.72,61.34,60.82,60.08,59.49,59.21,59.13,59.10,59.19,59.36,59.53,59.56,59.59,59.60,59.60,59.60,59.60,59.59,59.55,59.51,59.46
58.04,58.04,e,e,e,e,e,e,e,e,e,e,e,e,e,e,e,e,e,e,e,e,e,e,e,e,60.95,60.97,61.00,61.02,61.08,61.62,62.59,63.73,64.56,64.32,63.67,62.97,62.59,62.76,62.95,63.09,63.14,63.10,62.99,62.94,62.91,62.82,62.67,62.57,62.51,62.50,62.62,62.69,62.73,62.77,62.83,62.93,63.00,63.03,63.02,63.07,63.10,63.14,63.20,63.28,63.34,63.49,63.64,63.68,63.68,63.58,63.46,63.38,63.32,63.25,63.19,63.15,63.12,63.04,63.00,62.98,62.97,62.92,62.85,62.80,62.76,62.66,62.61,62.60,62.63,62.70,62.29,61.89,61.62,61.54,61.53,61.68,61.82,61.87,61.75,61.64,61.60,61.63,61.73,61.83,61.89,61.82,61.64,61.57,61.58,61.64,61.71,61.76,61.96,61.90,61.77,61.71,61.68,61.52,61.32,61.12,60.95,61.13,61.10,60.96,60.84,60.94,61.01,60.99,60.89,60.82,60.87,61.08,61.48,62.10,62.15,62.01,61.84,61.76,61.82,61.93,61.91,61.72,61.37,60.96,60.88,60.87,60.62,60.36,60.20,60.10,60.00,59.66,59.63,59.82,60.14,60.46,60.53,60.52,60.52,60.53,60.33,60.27,60.20,60.10,60.08,59.97,59.93,59.98,60.11,60.19,60.40,60.70,61.07,61.59,61.77,61.99,62.17,62.08,62.02,62.10,62.18,62.16,62.16,62.18,62.20,62.20,62.20,62.20,62.20,62.22,62.26,62.26,62.26,62.23,62.18,62.13,62.14,62.13,62.10,62.09,62.06,62.01,61.97,61.96,62.01,62.05,62.09,62.14,62.25,62.26,62.26,62.27,62.29,62.34,62.35,62.33,62.30,62.32,62.38,62.41,62.40,62.35,62.24,62.20,62.21,62.21,62.24,62.25,62.24,62.20,62.20,62.20,62.16,62.08,61.97,61.53,60.66,59.81,59.26,59.15,59.11,59.18,59.34,59.51,59.55,59.58,59.60,59.60,59.60,59.60,59.58,59.54,59.47,59.43
58.00,58.00,e,e,e,e,e,e,e,e,e,e,e,e,e,e,e,e,e,e,e,56.47,e,e,e,e,e,60.96,60.97,60.99,61.00,61.25,61.90,62.88,63.98,64.36,64.13,63.56,62.93,62.75,62.84,62.99,63.10,63.05,62.93,62.84,62.77,62.68,62.59,62.54,62.52,62.52,62.59,62.65,62.70,62.77,62.90,63.01,63.12,63.19,63.23,63.27,63.29,63.32,63.38,63.51,63.55,63.60,63.62,63.58,63.53,63.46,63.39,63.32,63.24,63.18,63.13,63.08,63.05,62.99,62.95,62.92,62.88,62.83,62.77,62.71,62.67,62.60,62.57,62.59,62.63,62.71,62.53,62.20,61.86,61.60,61.54,61.59,61.69,61.78,61.71,61.67,61.63,61.63,61.68,61.78,61.83,61.78,61.65,61.58,61.59,61.64,61.70,61.74,61.94,61.97,61.88,61.73,61.70,61.67,61.56,61.35,61.03,61.01,60.99,60.95,60.89,60.87,60.96,60.99,60.94,60.82,60.79,60.87,61.12,61.56,62.07,62.13,62.05,62.08,62.10,62.22,62.26,62.14,61.83,61.36,61.24,61.31,61.39,61.23,61.12,60.95,60.67,60.28,60.14,60.16,60.27,60.43,60.48,60.45,60.40,60.31,60.00,60.16,60.29,60.29,60.32,60.28,60.29,60.33,60.35,60.24,60.33,60.43,60.46,60.53,60.48,60.57,60.69,60.60,60.66,60.85,61.06,61.23,61.52,61.92,62.15,62.20,62.21,62.24,62.25,62.26,62.28,62.29,62.28,62.25,62.20,62.15,62.13,62.12,62.10,62.10,62.09,62.09,62.09,62.08,62.12,62.17,62.22,62.27,62.30,62.33,62.34,62.34,62.36,62.38,62.38,62.36,62.34,62.35,62.42,62.46,62.45,62.38,62.25,62.20,62.20,62.21,62.22,62.24,62.25,62.25,62.24,62.21,62.19,62.17,62.15,61.88,61.20,60.38,59.64,59.28,59.14,59.15,59.25,59.38,59.47,59.52,59.55,59.57,59.60,59.60,59.59,59.56,59.50,59.45
57.96,57.97,e,e,e,e,e,e,e,e,e,e,e,e,e,e,e,e,e,e,e,56.52,e,e,e,e,e,60.94,60.95,60.97,60.97,61.02,61.36,62.09,63.23,64.09,64.34,64.06,63.41,62.87,62.76,62.85,63.00,62.96,62.84,62.74,62.67,62.60,62.57,62.57,62.55,62.51,62.48,62.51,62.57,62.67,62.85,62.99,63.16,63.33,63.43,63.48,63.48,63.49,63.55,63.70,63.74,63.69,63.59,63.49,63.39,63.34,63.30,63.24,63.17,63.12,63.07,63.01,62.98,62.93,62.89,62.85,62.79,62.74,62.69,62.64,62.60,62.57,62.57,62.60,62.65,62.69,62.71,62.49,62.13,61.72,61.59,61.53,61.58,61.67,61.67,61.68,61.66,61.64,61.66,61.73,61.77,61.74,61.67,61.61,61.60,61.63,61.67,61.68,61.87,62.00,62.00,61.82,61.73,61.77,61.73,61.56,61.25,60.99,60.91,60.93,60.93,60.90,60.92,60.96,60.95,60.84,60.76,60.75,60.84,61.05,61.80,62.11,62.22,62.31,62.27,62.40,62.47,62.40,62.11,61.67,61.55,61.72,62.06,62.01,61.95,61.75,61.40,61.05,60.91,60.79,60.69,60.66,60.67,60.64,60.57,60.44,60.09,60.35,60.56,60.60,60.67,60.77,60.88,60.91,60.77,60.53,60.50,60.42,60.19,59.92,59.71,59.68,59.73,59.68,59.78,59.93,60.09,60.28,60.70,61.40,61.88,62.04,62.12,62.22,62.27,62.29,62.31,62.32,62.31,62.27,62.21,62.17,62.13,62.10,62.10,62.10,62.13,62.17,62.20,62.20,62.24,62.30,62.35,62.37,62.35,62.38,62.39,62.40,62.41,62.41,62.41,62.40,62.37,62.38,62.46,62.50,62.48,62.41,62.27,62.21,62.21,62.21,62.20,62.22,62.26,62.29,62.26,62.22,62.20,62.20,62.22,62.11,61.71,61.06,60.24,59.54,59.23,59.13,59.14,59.24,59.37,59.46,59.52,59.56,59.60,59.60,59.60,59.59,59.52,59.48
e,e,e,e,e,e,e,e,e,e,e,e,e,e,e,e,e,e,e,e,e,56.68,56.58,56.53,e,e,e,60.90,60.91,60.93,60.93,60.97,61.14,61.54,62.30,63.27,63.99,64.29,64.05,63.26,62.77,62.64,62.77,62.78,62.70,62.66,62.65,62.66,62.68,62.71,62.61,62.35,62.17,62.20,62.28,62.37,62.51,62.69,63.05,63.40,63.55,63.57,63.58,63.57,63.57,63.73,63.79,63.71,63.57,63.45,63.34,63.25,63.19,63.15,63.09,63.06,63.02,62.96,62.89,62.85,62.82,62.77,62.69,62.65,62.63,62.61,62.58,62.58,62.61,62.65,62.68,62.70,62.74,62.69,62.45,61.98,61.70,61.56,61.53,61.57,61.65,61.69,61.69,61.69,61.73,61.77,61.76,61.72,61.69,61.67,61.63,61.61,61.60,61.56,61.71,61.92,62.09,62.09,61.81,61.75,61.72,61.70,61.73,61.23,60.95,60.87,60.92,61.11,60.95,60.82,60.85,60.87,60.81,60.76,60.72,60.72,61.10,61.80,62.30,62.30,62.23,62.35,62.39,62.30,62.12,61.89,61.92,62.14,62.40,62.38,62.32,62.16,61.91,61.72,61.82,61.69,61.41,61.23,61.18,61.19,61.20,61.15,60.95,60.93,60.86,60.77,60.87,61.22,61.53,61.58,61.20,61.03,60.92,60.82,60.72,60.64,60.53,60.49,60.51,60.52,60.40,60.16,59.85,59.58,59.64,60.40,61.08,61.49,61.80,62.06,62.21,62.29,62.36,62.37,62.36,62.32,62.25,62.17,62.12,62.10,62.10,62.12,62.19,62.24,62.26,62.27,62.36,62.39,62.41,62.41,62.40,62.40,62.40,62.40,62.43,62.46,62.46,62.44,62.40,62.43,62.47,62.50,62.50,62.47,62.32,62.25,62.23,62.24,62.21,62.21,62.23,62.26,62.26,62.22,62.19,62.17,62.15,62.18,62.20,61.94,61.24,60.10,59.48,59.16,59.07,59.13,59.29,59.43,59.53,59.60,59.61,59.61,59.60,59.59,59.55,59.51
e,e,e,e,e,e,e,e,e,e,e,e,e,e,e,e,e,e,e,e,e,56.70,56.60,56.51,e,e,e,60.89,60.91,60.93,60.95,60.95,61.01,61.21,61.61,62.41,63.31,64.03,64.28,63.76,63.11,62.68,62.57,62.63,62.63,62.67,62.72,62.76,62.78,62.77,62.60,62.27,62.05,62.10,62.16,62.22,62.35,62.57,62.98,63.38,63.57,63.58,63.59,63.57,63.58,63.73,63.77,63.70,63.55,63.41,63.27,63.17,63.10,63.07,63.02,62.99,62.94,62.89,62.84,62.79,62.74,62.69,62.63,62.62,62.61,62.61,62.62,62.63,62.66,62.68,62.70,62.74,62.77,62.79,62.65,62.27,61.85,61.62,61.51,61.49,61.54,61.71,61.76,61.74,61.74,61.75,61.73,61.71,61.69,61.69,61.66,61.65,61.62,61.53,61.65,61.78,61.90,61.95,61.79,61.79,61.75,61.69,61.75,61.23,60.92,60.82,60.83,61.02,60.95,60.82,60.76,60.86,60.88,60.82,60.71,60.62,60.76,61.31,61.85,62.12,62.20,62.27,62.30,62.27,62.17,62.09,62.18,62.36,62.51,62.48,62.44,62.34,62.19,62.08,62.12,62.01,61.80,61.67,61.52,61.38,61.24,61.07,60.88,60.78,60.66,60.57,60.66,61.06,61.57,61.90,61.76,61.70,61.67,61.61,61.49,61.39,61.25,61.14,61.07,61.02,60.90,60.66,60.36,60.06,59.94,60.19,60.40,60.54,60.91,61.27,61.53,61.75,62.01,62.18,62.28,62.29,62.20,62.08,62.05,62.06,62.09,62.12,62.20,62.27,62.33,62.38,62.47,62.50,62.50,62.51,62.47,62.44,62.42,62.42,62.42,62.47,62.48,62.46,62.44,62.48,62.48,62.48,62.48,62.49,62.38,62.31,62.26,62.25,62.23,62.23,62.25,62.28,62.28,62.23,62.20,62.19,62.20,62.25,62.32,62.22,61.79,60.71,59.80,59.27,59.08,59.07,59.17,59.31,59.46,59.59,59.64,59.63,59.61,59.59,59.57,59.53
e,e,e,e,e,e,e,e,e,e,e,e,e,e,e,e,e,e,e,e,e,56.67,56.62,56.50,56.40,e,e,e,e,60.94,60.97,60.93,60.93,60.99,61.07,61.58,62.49,63.50,64.27,64.25,63.58,62.87,62.43,62.51,62.61,62.72,62.81,62.86,62.85,62.77,62.55,62.22,62.02,62.08,62.12,62.14,62.28,62.54,62.96,63.35,63.56,63.56,63.55,63.54,63.58,63.70,63.72,63.64,63.50,63.35,63.20,63.09,63.02,62.99,62.94,62.91,62.86,62.82,62.79,62.74,62.67,62.62,62.60,62.60,62.61,62.63,62.68,62.70,62.70,62.70,62.72,62.78,62.80,62.84,62.79,62.56,62.05,61.72,61.53,61.43,61.40,61.72,61.82,61.78,61.72,61.71,61.70,61.69,61.68,61.68,61.69,61.70,61.66,61.54,61.63,61.63,61.62,61.67,61.71,61.83,61.78,61.61,61.59,61.13,60.89,60.80,60.74,60.83,60.92,60.86,60.69,60.81,60.93,60.88,60.73,60.62,60.60,60.79,61.21,61.81,62.12,62.19,62.22,62.24,62.22,62.27,62.37,62.46,62.50,62.46,62.44,62.39,62.30,62.23,62.12,62.01,61.95,61.96,61.68,61.34,60.98,60.65,60.44,60.34,60.27,60.23,60.30,60.64,61.30,61.97,62.25,62.32,62.45,62.45,62.28,62.09,61.90,61.72,61.56,61.43,61.38,61.31,61.19,61.00,60.78,60.37,59.91,59.62,59.94,60.31,60.63,60.96,61.42,61.81,62.08,62.17,62.09,61.92,61.96,62.02,62.08,62.12,62.20,62.29,62.40,62.52,62.58,62.61,62.62,62.62,62.56,62.50,62.46,62.43,62.42,62.45,62.47,62.48,62.48,62.53,62.50,62.46,62.44,62.48,62.43,62.36,62.30,62.26,62.26,62.27,62.29,62.32,62.31,62.25,62.22,62.23,62.29,62.31,62.27,62.21,62.05,61.22,60.09,59.39,59.14,59.03,59.05,59.16,59.34,59.54,59.65,59.65,59.62,59.60,59.59,59.55
e,e,e,e,e,e,e,e,e,e,e,e,e,e,e,e,e,e,e,e,e,e,56.57,56.52,56.47,56.48,e,e,e,e,60.89,60.90,60.91,60.92,60.94,61.09,61.63,62.52,63.62,64.24,64.03,63.42,62.74,62.51,62.64,62.74,62.74,62.66,62.56,62.43,62.27,62.09,61.97,61.97,61.98,62.06,62.30,62.71,63.17,63.52,63.60,63.53,63.48,63.47,63.50,63.58,63.57,63.47,63.33,63.20,63.13,63.06,62.99,62.93,62.90,62.86,62.80,62.73,62.68,62.62,62.58,62.56,62.60,62.64,62.66,62.68,62.69,62.70,62.70,62.72,62.76,62.79,62.80,62.82,62.82,62.72,62.42,62.05,61.73,61.51,61.43,61.57,61.66,61.71,61.75,61.72,61.69,61.66,61.63,61.63,61.67,61.68,61.66,61.59,61.65,61.66,61.64,61.62,61.56,61.58,61.56,61.51,61.52,61.10,60.94,60.92,60.85,60.78,60.81,60.83,60.79,60.72,60.81,60.85,60.80,60.67,60.60,60.62,60.78,61.14,61.78,62.07,62.16,62.17,62.24,62.24,62.26,62.30,62.33,62.32,62.24,62.11,61.94,61.80,61.75,61.58,61.37,61.36,60.88,60.59,60.41,60.28,60.21,60.15,60.09,60.05,60.10,60.25,60.64,61.13,61.56,61.77,62.20,62.44,62.37,62.35,62.39,62.38,62.33,62.28,62.19,62.11,61.93,61.62,61.35,60.96,60.58,60.31,60.36,60.22,60.04,59.98,60.21,60.77,61.35,61.69,61.70,61.63,61.85,62.03,62.12,62.16,62.26,62.39,62.53,62.66,62.71,62.74,62.73,62.70,62.65,62.61,62.57,62.52,62.46,62.48,62.49,62.50,62.53,62.59,62.54,62.49,62.47,62.49,62.47,62.43,62.38,62.33,62.32,62.31,62.33,62.36,62.33,62.24,62.19,62.20,62.26,62.31,62.24,62.01,61.54,60.68,59.84,59.34,59.14,59.02,59.02,59.05,59.15,59.31,59.53,59.62,59.63,59.60,59.62,59.59
e,e,e,e,e,e,e,e,e,e,e,e,e,e,e,e,e,e,e,e,e,e,56.54,56.51,56.48,56.45,e,e,e,e,60.84,60.87,60.88,60.86,60.77,60.51,60.57,61.22,62.57,63.85,64.19,63.86,63.15,62.61,62.61,62.66,62.63,62.49,62.37,62.24,62.12,62.01,61.95,61.92,61.91,61.99,62.25,62.66,63.10,63.41,63.50,63.46,63.44,63.44,63.44,63.45,63.41,63.31,63.19,63.08,63.05,63.00,62.94,62.87,62.84,62.79,62.73,62.66,62.61,62.58,62.56,62.57,62.62,62.67,62.69,62.70,62.70,62.70,62.70,62.73,62.78,62.80,62.80,62.80,62.78,62.74,62.58,62.22,61.84,61.56,61.45,61.47,61.56,61.67,61.76,61.77,61.72,61.66,61.61,61.62,61.65,61.70,61.71,61.68,61.72,61.74,61.73,61.66,61.53,61.50,61.49,61.48,61.46,61.13,61.06,61.08,60.96,60.80,60.77,60.80,60.83,60.79,60.75,60.75,60.76,60.70,60.62,60.54,60.54,60.70,61.32,61.89,62.14,62.12,62.23,62.19,62.17,62.16,62.10,61.96,61.81,61.62,61.40,61.23,61.21,61.03,60.80,60.78,60.36,60.16,60.10,60.10,60.11,60.10,60.06,60.01,60.04,60.05,60.22,60.50,60.84,61.11,61.65,62.07,62.24,62.41,62.56,62.65,62.68,62.70,62.63,62.55,62.39,62.12,61.87,61.58,61.26,60.93,60.70,60.38,60.06,59.83,59.81,60.11,60.57,61.02,61.33,61.40,61.80,62.08,62.18,62.20,62.34,62.49,62.64,62.75,62.78,62.80,62.79,62.76,62.73,62.70,62.67,62.62,62.56,62.55,62.53,62.53,62.55,62.61,62.58,62.53,62.50,62.50,62.49,62.45,62.40,62.36,62.36,62.36,62.36,62.37,62.32,62.22,62.17,62.19,62.27,62.25,62.03,61.60,60.98,60.14,59.57,59.27,59.17,59.12,59.10,59.06,59.05,59.12,59.37,59.53,59.60,59.60,59.62,59.59
e,e,e,e,e,e,e,e,e,e,e,e,e,e,e,e,e,e,e,e,e,e,e,e,56.44,56.39,e,e,e,e,e,60.83,60.84,60.79,60.57,59.84,59.31,59.62,61.16,63.10,64.07,64.21,63.68,62.82,62.54,62.48,62.47,62.35,62.26,62.17,62.08,61.99,61.94,61.92,61.90,61.94,62.14,62.43,62.75,63.05,63.25,63.35,63.41,63.43,63.41,63.33,63.25,63.17,63.10,63.02,62.98,62.93,62.86,62.79,62.75,62.70,62.64,62.60,62.59,62.60,62.61,62.64,62.68,62.69,62.70,62.70,62.70,62.70,62.70,62.73,62.78,62.80,62.80,62.76,62.70,62.62,62.54,62.24,61.88,61.57,61.46,61.43,61.52,61.66,61.75,61.85,61.77,61.67,61.62,61.64,61.65,61.73,61.83,61.82,61.83,61.88,61.88,61.79,61.61,61.57,61.55,61.50,61.39,61.21,61.24,61.28,61.06,60.88,60.81,60.78,60.80,61.00,60.75,60.60,60.62,60.73,60.65,60.56,60.49,60.48,60.76,61.67,62.15,62.12,62.20,62.13,62.11,62.04,61.83,61.41,61.15,60.93,60.71,60.53,60.50,60.38,60.23,60.21,60.13,60.06,60.03,60.09,60.14,60.18,60.17,60.11,60.12,60.03,60.02,60.06,60.10,60.33,60.81,61.37,61.89,62.29,62.44,62.54,62.62,62.72,62.69,62.65,62.58,62.51,62.37,62.22,61.94,61.50,60.95,60.79,60.65,60.45,60.19,59.80,59.75,60.18,60.97,61.23,61.82,62.17,62.25,62.26,62.45,62.61,62.73,62.80,62.80,62.81,62.81,62.80,62.79,62.78,62.78,62.76,62.73,62.66,62.59,62.55,62.54,62.60,62.60,62.58,62.54,62.50,62.48,62.42,62.36,62.34,62.39,62.40,62.39,62.36,62.28,62.20,62.15,62.18,62.30,62.13,61.64,61.01,60.35,59.61,59.28,59.18,59.21,59.32,59.30,59.18,59.04,58.98,59.16,59.38,59.54,59.60,59.60,59.57
e,e,e,e,e,e,e,e,e,e,e,e,e,e,e,e,e,e,e,e,e,e,e,e,e,e,e,e,e,e,e,e,e,60.79,60.69,59.92,59.49,59.80,61.09,62.43,63.47,64.04,64.04,63.36,62.79,62.50,62.39,62.30,62.20,62.11,62.06,62.06,62.03,62.03,62.07,62.16,62.31,62.50,62.71,62.90,63.06,63.22,63.35,63.40,63.35,63.25,63.16,63.09,63.02,62.93,62.90,62.85,62.79,62.71,62.67,62.64,62.61,62.59,62.62,62.63,62.65,62.68,62.72,62.74,62.72,62.71,62.70,62.73,62.72,62.73,62.75,62.79,62.80,62.78,62.73,62.65,62.55,62.25,61.92,61.64,61.50,61.41,61.45,61.55,61.66,61.84,61.79,61.73,61.72,61.66,61.66,61.72,61.80,61.79,61.81,61.86,61.90,61.87,61.70,61.63,61.59,61.57,61.57,61.37,61.34,61.32,61.13,60.94,60.84,60.76,60.70,60.79,60.79,60.68,60.55,60.56,60.64,60.63,60.55,60.43,60.54,61.07,61.64,62.01,61.95,61.58,61.38,61.26,61.06,60.80,60.62,60.48,60.34,60.27,60.25,60.20,60.15,60.18,60.16,60.16,60.17,60.20,60.23,60.22,60.21,60.21,60.18,60.16,60.11,60.03,59.96,60.06,60.30,60.61,60.95,61.28,61.89,62.26,62.40,62.50,62.59,62.55,62.48,62.44,62.35,62.28,62.10,61.76,61.26,60.99,60.81,60.67,60.56,60.36,60.22,60.12,60.07,60.11,60.89,61.66,62.16,62.21,62.36,62.52,62.65,62.76,62.79,62.81,62.83,62.85,62.85,62.85,62.83,62.82,62.85,62.84,62.76,62.66,62.57,62.60,62.60,62.59,62.57,62.54,62.49,62.43,62.38,62.36,62.35,62.34,62.32,62.30,62.27,62.27,62.22,62.14,62.00,61.49,60.90,60.33,59.83,59.43,59.28,59.29,59.39,59.47,59.42,59.29,59.13,59.00,59.04,59.22,59.42,59.56,59.59,59.58
e,e,e,e,e,e,e,e,e,e,e,e,e,e,e,e,e,e,e,e,e,e,e,e,e,e,e,e,e,e,e,e,e,60.78,60.78,60.16,59.89,60.18,61.09,61.82,62.81,63.70,64.23,63.89,63.17,62.67,62.41,62.31,62.24,62.14,62.12,62.19,62.19,62.23,62.32,62.45,62.53,62.63,62.73,62.83,62.92,63.09,63.26,63.34,63.29,63.17,63.08,63.01,62.94,62.85,62.82,62.77,62.71,62.64,62.61,62.60,62.60,62.61,62.65,62.67,62.68,62.71,62.74,62.76,62.75,62.73,62.71,62.75,62.74,62.73,62.74,62.78,62.80,62.79,62.76,62.69,62.56,62.28,61.99,61.73,61.53,61.41,61.38,61.46,61.64,61.81,61.79,61.75,61.76,61.70,61.68,61.69,61.73,61.76,61.77,61.82,61.88,61.92,61.75,61.68,61.64,61.62,61.68,61.51,61.43,61.36,61.24,61.04,60.94,60.82,60.65,60.59,60.75,60.71,60.53,60.44,60.62,60.67,60.59,60.43,60.42,60.60,61.10,61.65,61.51,61.02,60.75,60.60,60.45,60.35,60.26,60.18,60.13,60.14,60.15,60.16,60.18,60.24,60.24,60.26,60.29,60.29,60.28,60.25,60.25,60.27,60.24,60.26,60.19,60.08,59.95,59.92,59.97,60.06,60.20,60.43,61.22,61.73,61.97,62.21,62.42,62.43,62.37,62.36,62.32,62.30,62.21,61.99,61.57,61.26,61.03,60.90,60.88,60.87,60.71,60.27,59.62,59.36,60.02,60.92,61.68,61.90,62.13,62.33,62.51,62.67,62.73,62.77,62.82,62.87,62.89,62.88,62.87,62.87,62.93,62.96,62.89,62.75,62.60,62.59,62.60,62.60,62.60,62.57,62.51,62.46,62.41,62.37,62.33,62.30,62.28,62.28,62.31,62.27,62.12,61.84,61.44,60.74,60.21,59.79,59.48,59.37,59.36,59.43,59.54,59.59,59.52,59.41,59.27,59.11,58.99,59.08,59.27,59.47,59.55,59.58
e,e,e,56.59,56.64,56.66,56.66,e,e,e,e,e,e,e,e,e,e,e,e,e,e,e,e,e,e,e,e,e,e,e,e,e,e,60.74,60.76,60.57,60.49,60.62,60.98,61.30,62.08,63.11,64.08,64.31,63.76,63.11,62.59,62.44,62.48,62.37,62.33,62.43,62.48,62.58,62.73,62.83,62.78,62.80,62.83,62.85,62.88,62.95,63.13,63.24,63.22,63.09,63.00,62.93,62.85,62.77,62.74,62.70,62.64,62.57,62.58,62.59,62.62,62.65,62.69,62.69,62.70,62.70,62.71,62.76,62.78,62.76,62.73,62.76,62.78,62.76,62.74,62.77,62.79,62.80,62.77,62.71,62.57,62.35,62.11,61.85,61.54,61.43,61.36,61.45,61.74,61.76,61.73,61.69,61.67,61.80,61.71,61.62,61.61,61.75,61.73,61.76,61.83,61.88,61.75,61.75,61.70,61.62,61.62,61.58,61.50,61.43,61.44,61.25,61.18,61.04,60.76,60.52,60.54,60.60,60.60,60.45,60.61,60.62,60.56,60.49,60.43,60.45,60.60,60.78,60.69,60.54,60.42,60.34,60.25,60.25,60.19,60.15,60.16,60.22,60.27,60.33,60.37,60.39,60.37,60.33,60.30,60.30,60.24,60.26,60.27,60.26,60.34,60.24,60.23,60.21,60.09,59.95,59.93,59.94,59.97,60.08,60.39,60.73,61.17,61.82,62.11,62.26,62.32,62.31,62.33,62.36,62.34,62.21,61.90,61.71,61.43,61.19,61.13,61.09,60.99,60.72,60.23,59.55,59.45,59.79,60.41,61.06,61.64,62.00,62.26,62.49,62.58,62.66,62.74,62.81,62.85,62.87,62.88,62.90,62.92,62.95,62.89,62.76,62.60,62.57,62.59,62.62,62.62,62.59,62.54,62.49,62.44,62.38,62.34,62.31,62.32,62.37,62.42,62.13,61.62,61.00,60.41,59.90,59.65,59.54,59.49,59.50,59.55,59.59,59.61,59.61,59.61,59.57,59.48,59.32,59.07,59.00,59.08,59.25,59.43,59.52
e,e,e,56.59,56.58,56.61,56.64,e,e,e,e,e,e,e,e,e,e,e,e,e,e,e,e,e,e,e,e,e,e,e,e,e,e,60.72,60.73,60.70,60.71,60.76,60.89,61.05,61.56,62.41,63.44,64.16,64.06,63.53,62.89,62.48,62.51,62.48,62.50,62.59,62.62,62.66,62.74,62.81,62.78,62.78,62.80,62.83,62.87,62.91,63.01,63.08,63.08,63.00,62.94,62.87,62.79,62.72,62.68,62.63,62.59,62.57,62.59,62.62,62.65,62.68,62.67,62.66,62.66,62.67,62.69,62.73,62.77,62.78,62.77,62.78,62.79,62.77,62.74,62.77,62.79,62.80,62.79,62.74,62.59,62.46,62.30,62.07,61.68,61.47,61.36,61.41,61.62,61.65,61.62,61.62,61.68,61.77,61.68,61.60,61.61,61.75,61.70,61.71,61.75,61.79,61.70,61.71,61.69,61.64,61.63,61.63,61.54,61.48,61.52,61.44,61.45,61.39,61.16,60.68,60.54,60.54,60.57,60.53,60.56,60.53,60.50,60.51,60.45,60.42,60.42,60.43,60.38,60.34,60.32,60.31,60.32,60.31,60.27,60.25,60.29,60.36,60.38,60.42,60.46,60.49,60.42,60.35,60.31,60.33,60.28,60.30,60.30,60.27,60.32,60.28,60.38,60.45,60.28,60.08,60.00,59.95,59.92,59.97,60.04,60.20,60.52,61.06,61.49,61.76,61.98,62.23,62.36,62.38,62.36,62.32,62.19,62.17,62.01,61.81,61.69,61.62,61.56,61.43,61.12,60.39,59.89,59.67,59.74,60.07,60.59,60.95,61.31,61.77,62.09,62.34,62.54,62.68,62.75,62.81,62.86,62.89,62.88,62.87,62.82,62.73,62.62,62.62,62.63,62.63,62.62,62.57,62.51,62.47,62.43,62.38,62.35,62.36,62.38,62.33,62.10,61.53,60.88,60.28,59.88,59.61,59.53,59.54,59.58,59.64,59.69,59.69,59.65,59.61,59.61,59.61,59.56,59.46,59.27,59.12,59.05,59.08,59.25,59.39
e,e,56.72,56.60,56.50,56.55,56.60,e,e,e,e,e,e,e,e,e,e,e,e,e,e,e,e,e,e,e,e,e,e,e,e,e,e,e,60.69,60.73,60.77,60.80,60.81,60.90,61.15,61.72,62.63,63.74,64.17,63.92,63.26,62.55,62.48,62.54,62.63,62.71,62.69,62.63,62.62,62.66,62.70,62.71,62.75,62.80,62.86,62.89,62.90,62.92,62.94,62.91,62.88,62.81,62.73,62.67,62.62,62.57,62.56,62.59,62.61,62.65,62.68,62.69,62.65,62.62,62.61,62.63,62.67,62.69,62.74,62.78,62.80,62.80,62.80,62.78,62.75,62.76,62.78,62.80,62.80,62.78,62.63,62.56,62.45,62.24,61.83,61.50,61.36,61.37,61.44,61.53,61.50,61.54,61.68,61.69,61.62,61.60,61.65,61.75,61.68,61.66,61.68,61.69,61.63,61.65,61.66,61.66,61.66,61.67,61.58,61.51,61.56,61.61,61.69,61.72,61.57,60.88,60.62,60.50,60.50,60.60,60.51,60.44,60.43,60.51,60.47,60.42,60.37,60.31,60.29,60.29,60.35,60.44,60.53,60.44,60.38,60.37,60.42,60.49,60.47,60.48,60.51,60.54,60.43,60.35,60.32,60.36,60.35,60.34,60.32,60.28,60.26,60.33,60.55,60.67,60.44,60.23,60.10,60.02,59.97,59.98,59.90,59.89,60.00,60.26,60.77,61.12,61.50,62.02,62.29,62.32,62.33,62.38,62.45,62.58,62.58,62.47,62.30,62.21,62.18,62.16,62.04,61.44,60.71,60.01,59.48,59.24,59.52,59.77,60.16,60.80,61.37,61.85,62.22,62.49,62.62,62.72,62.81,62.85,62.81,62.77,62.73,62.69,62.66,62.70,62.67,62.64,62.61,62.55,62.47,62.43,62.41,62.37,62.35,62.40,62.37,62.14,61.57,60.80,60.14,59.69,59.59,59.55,59.58,59.63,59.70,59.77,59.79,59.76,59.69,59.62,59.61,59.61,59.59,59.56,59.48,59.30,59.10,58.96,59.05,59.21
e,e,e,e,e,e,e,56.47,56.43,e,e,e,e,e,e,e,e,e,e,e,e,e,e,e,e,e,e,e,e,e,e,e,e,e,e,60.71,60.74,60.77,60.78,60.81,60.93,61.26,61.89,62.92,63.77,64.06,63.80,63.09,62.63,62.52,62.59,62.69,62.67,62.61,62.60,62.62,62.67,62.77,62.84,62.87,62.85,62.87,62.89,62.89,62.87,62.84,62.79,62.71,62.63,62.57,62.55,62.57,62.60,62.63,62.64,62.67,62.69,62.70,62.68,62.66,62.64,62.65,62.66,62.69,62.73,62.77,62.82,62.83,62.81,62.80,62.78,62.76,62.78,62.79,62.81,62.81,62.71,62.52,62.24,61.93,61.75,61.43,61.35,61.40,61.42,61.42,61.38,61.38,61.43,61.53,61.47,61.50,61.62,61.79,61.72,61.67,61.63,61.63,61.63,61.65,61.63,61.61,61.66,61.70,61.62,61.52,61.52,61.61,61.66,61.62,61.41,60.85,60.67,60.55,60.47,60.49,60.48,60.44,60.42,60.43,60.42,60.41,60.41,60.42,60.41,60.46,60.67,60.91,61.05,60.61,60.39,60.32,60.36,60.48,60.47,60.48,60.48,60.43,60.37,60.35,60.35,60.37,60.38,60.35,60.28,60.21,60.22,60.34,60.50,60.55,60.35,60.22,60.13,60.14,60.22,60.24,60.02,59.88,59.88,60.00,60.18,60.40,60.74,61.23,61.66,61.91,62.17,62.44,62.60,62.66,62.66,62.60,62.51,62.47,62.49,62.53,62.53,62.21,61.65,61.02,60.37,59.73,59.62,59.38,59.30,59.57,59.98,60.65,61.40,62.07,62.36,62.53,62.65,62.71,62.70,62.72,62.71,62.70,62.69,62.71,62.69,62.66,62.61,62.52,62.47,62.42,62.38,62.35,62.38,62.24,61.83,61.23,60.70,60.28,59.90,59.64,59.64,59.69,59.71,59.74,59.76,59.79,59.81,59.82,59.79,59.70,59.67,59.65,59.62,59.59,59.56,59.43,59.22,59.00,58.93,59.02
e,e,e,e,e,e,e,56.46,56.41,e,e,e,e,e,e,e,e,e,e,e,e,e,e,e,e,e,e,e,e,e,e,e,e,e,e,60.54,60.64,60.73,60.75,60.75,60.80,60.99,61.39,62.20,63.20,63.88,64.06,63.63,62.97,62.65,62.56,62.61,62.59,62.58,62.58,62.61,62.66,62.82,62.89,62.89,62.87,62.90,62.91,62.89,62.83,62.79,62.73,62.65,62.58,62.53,62.54,62.59,62.63,62.66,62.65,62.66,62.68,62.69,62.70,62.68,62.67,62.66,62.65,62.66,62.71,62.76,62.82,62.85,62.84,62.83,62.82,62.80,62.78,62.79,62.78,62.72,62.55,62.28,61.98,61.74,61.70,61.43,61.36,61.39,61.41,61.38,61.35,61.33,61.33,61.43,61.36,61.40,61.52,61.69,61.64,61.60,61.59,61.61,61.63,61.70,61.68,61.62,61.67,61.78,61.71,61.58,61.51,61.60,61.67,61.61,61.38,61.01,60.86,60.69,60.52,60.43,60.43,60.43,60.42,60.40,60.38,60.39,60.42,60.45,60.45,60.49,60.77,61.10,61.22,60.63,60.43,60.39,60.39,60.44,60.42,60.44,60.45,60.38,60.34,60.37,60.41,60.44,60.41,60.35,60.26,60.17,60.15,60.26,60.34,60.33,60.21,60.15,60.12,60.15,60.25,60.38,60.26,60.09,59.95,59.92,59.89,60.00,60.22,60.53,60.92,61.27,61.79,62.38,62.60,62.61,62.60,62.58,62.57,62.56,62.59,62.65,62.70,62.57,62.22,61.78,61.25,60.60,60.10,59.58,59.23,59.19,59.21,59.66,60.34,61.09,61.67,62.10,62.39,62.55,62.60,62.65,62.67,62.68,62.70,62.70,62.69,62.65,62.59,62.50,62.45,62.40,62.35,62.33,62.35,62.00,61.32,60.52,60.13,59.93,59.74,59.62,59.65,59.72,59.76,59.78,59.81,59.82,59.83,59.83,59.82,59.76,59.73,59.69,59.66,59.64,59.62,59.52,59.37,59.17,58.99,58.93
57.02,56.90,56.77,56.73,e,e,e,e,56.35,e,e,e,e,e,e,e,e,e,e,e,e,e,e,e,e,e,e,e,e,e,e,e,e,e,e,60.27,60.49,60.69,60.70,60.70,60.75,60.85,61.08,61.56,62.47,63.42,64.09,64.16,63.48,62.89,62.53,62.46,62.47,62.53,62.58,62.62,62.67,62.85,62.90,62.90,62.89,62.97,62.96,62.91,62.83,62.78,62.70,62.62,62.57,62.56,62.57,62.62,62.66,62.66,62.63,62.63,62.65,62.68,62.70,62.70,62.69,62.66,62.62,62.62,62.68,62.75,62.82,62.87,62.88,62.87,62.87,62.87,62.79,62.78,62.72,62.55,62.21,61.87,61.69,61.66,61.66,61.50,61.37,61.34,61.40,61.41,61.39,61.37,61.35,61.37,61.28,61.28,61.37,61.48,61.44,61.48,61.54,61.61,61.63,61.78,61.80,61.68,61.67,61.88,61.83,61.66,61.52,61.58,61.71,61.69,61.47,61.34,61.16,60.91,60.63,60.42,60.35,60.41,60.45,60.40,60.33,60.37,60.41,60.43,60.42,60.39,60.70,61.06,61.08,60.51,60.47,60.54,60.52,60.36,60.33,60.37,60.41,60.39,60.32,60.40,60.51,60.55,60.42,60.34,60.25,60.16,60.04,60.10,60.09,60.05,60.03,60.03,60.06,60.09,60.12,60.40,60.60,60.48,60.17,59.97,59.85,59.86,59.90,59.90,60.09,60.45,61.24,62.23,62.48,62.44,62.42,62.45,62.50,62.50,62.51,62.55,62.60,62.58,62.49,62.35,62.13,61.78,60.90,60.26,59.84,59.52,58.94,58.84,59.09,59.66,60.62,61.48,62.05,62.37,62.52,62.58,62.61,62.65,62.69,62.69,62.67,62.62,62.55,62.47,62.41,62.37,62.33,62.30,62.29,61.70,60.83,59.98,59.81,59.72,59.65,59.62,59.63,59.68,59.72,59.77,59.83,59.85,59.83,59.81,59.80,59.80,59.77,59.74,59.71,59.70,59.67,59.60,59.53,59.45,59.21,58.94
57.05,56.99,56.93,56.85,56.67,e,e,e,e,e,e,e,e,e,e,e,e,e,e,e,e,e,e,e,e,e,e,e,e,e,e,e,e,e,e,e,60.30,60.40,60.64,60.65,60.69,60.75,60.88,61.15,61.74,62.58,63.46,64.10,63.87,63.27,62.70,62.37,62.43,62.60,62.71,62.75,62.72,62.83,62.88,62.87,62.85,62.90,62.89,62.85,62.78,62.71,62.65,62.62,62.62,62.63,62.64,62.68,62.72,62.73,62.69,62.65,62.65,62.67,62.70,62.70,62.70,62.68,62.66,62.63,62.67,62.73,62.79,62.83,62.86,62.88,62.89,62.89,62.82,62.56,62.27,62.04,61.89,61.73,61.66,61.66,61.64,61.56,61.41,61.32,61.37,61.40,61.40,61.37,61.34,61.37,61.28,61.29,61.38,61.47,61.39,61.38,61.40,61.44,61.48,61.62,61.69,61.69,61.69,61.85,61.89,61.79,61.55,61.58,61.67,61.77,61.80,61.66,61.42,61.23,60.99,60.54,60.38,60.35,60.38,60.40,60.37,60.32,60.33,60.40,60.41,60.39,60.52,60.66,60.65,60.70,60.86,60.97,60.92,60.61,60.33,60.26,60.32,60.28,60.24,60.36,60.51,60.56,60.27,60.22,60.19,60.10,60.02,60.04,60.03,60.01,60.01,60.01,60.02,60.01,60.00,60.19,60.54,60.63,60.45,60.17,59.93,59.85,59.84,59.82,59.86,60.07,60.50,61.09,61.52,61.84,61.94,61.99,62.21,62.41,62.49,62.54,62.59,62.58,62.54,62.44,62.30,62.13,61.71,61.28,60.79,60.18,59.67,59.23,59.06,59.20,59.53,60.21,60.88,61.47,61.93,62.19,62.40,62.54,62.60,62.62,62.60,62.55,62.48,62.42,62.35,62.27,62.14,61.92,61.55,60.89,60.30,59.93,59.87,59.83,59.75,59.66,59.59,59.63,59.69,59.78,59.85,59.86,59.85,59.82,59.80,59.80,59.79,59.77,59.75,59.72,59.67,59.61,59.57,59.51,59.33,59.06
57.08,57.08,57.06,56.96,56.70,e,e,e,e,e,e,e,e,e,e,e,e,e,e,e,e,e,e,e,e,e,e,e,e,e,e,e,e,e,e,e,59.80,59.99,60.47,60.59,60.64,60.68,60.74,60.86,61.17,61.83,62.76,63.79,64.06,63.67,63.04,62.48,62.43,62.64,62.79,62.83,62.75,62.80,62.83,62.84,62.83,62.83,62.80,62.76,62.70,62.65,62.62,62.62,62.65,62.68,62.68,62.71,62.75,62.77,62.74,62.69,62.67,62.68,62.70,62.70,62.70,62.70,62.69,62.65,62.66,62.70,62.76,62.80,62.85,62.88,62.90,62.89,62.74,62.34,61.94,61.71,61.68,61.64,61.64,61.65,61.62,61.60,61.45,61.32,61.34,61.37,61.38,61.35,61.31,61.35,61.27,61.28,61.36,61.43,61.35,61.32,61.31,61.31,61.37,61.46,61.55,61.63,61.65,61.76,61.84,61.80,61.56,61.57,61.66,61.83,62.02,61.86,61.64,61.51,61.34,60.82,60.50,60.35,60.32,60.37,60.40,60.29,60.27,60.36,60.39,60.38,60.38,60.42,60.48,60.99,61.32,61.44,61.32,60.89,60.43,60.25,60.25,60.19,60.18,60.27,60.39,60.44,60.11,60.10,60.11,60.06,60.02,60.00,59.99,60.00,60.00,60.00,59.99,59.96,59.92,60.03,60.40,60.60,60.55,60.23,59.97,59.86,59.82,59.79,59.75,59.83,59.96,60.19,60.66,61.15,61.34,61.46,61.81,62.18,62.35,62.46,62.54,62.55,62.54,62.49,62.41,62.36,62.28,62.05,61.61,60.96,60.53,59.90,59.42,59.16,58.95,59.28,59.82,60.43,61.02,61.51,62.01,62.35,62.46,62.52,62.51,62.47,62.42,62.39,62.29,62.08,61.77,61.35,60.83,60.26,59.96,59.94,59.98,59.99,59.89,59.74,59.60,59.59,59.66,59.77,59.87,59.89,59.88,59.85,59.81,59.80,59.81,59.79,59.76,59.73,59.68,59.63,59.59,59.54,59.43,59.21
