66.15,66.14,66.13,66.12,66.11,66.08,66.03,65.98,65.95,65.94,65.93,65.94,65.95,65.91,65.84,65.77,65.69,65.49,64.73,64.13,63.84,63.75,63.67,63.59,63.50,63.44,63.42,63.41,63.43,63.46,63.49,63.48,63.45,63.43,63.43,63.43,63.43,63.42,63.41,63.40,63.40,63.40,63.40,63.41,63.44,63.46,63.46,63.47,63.49,63.50,63.50,63.48,63.44,63.42,63.44,63.43,63.42,63.42,63.44,63.46,63.47,63.49,63.47,63.48,63.47,63.43,63.41,63.46,63.49,63.50,63.50,63.51,63.51,63.50,63.51,63.58,63.54,63.51,63.50,63.50,63.47,63.44,63.42,63.42,63.45,63.45,63.46,63.47,63.44,63.41,63.40,63.39,63.36,63.39,63.40,63.37,63.32,63.32,63.18,63.13,63.13,63.08,63.20,63.24,63.23,63.20,63.20,63.14,63.10,63.12,63.19,63.20,63.18,63.15,63.15,63.11,63.15,63.19,63.18,63.11,63.12,63.16,63.20,63.21,63.24,63.26,63.28,63.33,63.30,63.27,63.28,63.31,63.38,63.35,63.31,63.32,63.41,63.44,63.48,63.51,63.52,63.50,63.50,63.53,63.55,63.55,63.51,63.45,63.37,63.24,63.12,63.09,63.09,63.10,63.11,63.14,63.19,63.20,63.08,63.03,63.04,63.08,63.13,63.17,63.19,63.18,63.18,63.20,63.21,63.21,63.19,63.17,63.18,63.19,63.18,63.14,63.12,63.14,63.15,63.15,63.15,63.14,63.13,63.14,63.16,63.15,63.14,63.16,63.18,63.15,63.14,63.12,63.11,63.11,63.11,63.12,63.15,63.16,63.13,63.11,63.09,63.09,63.08,63.11,63.12,63.12,63.11,63.12,63.13,63.13,63.13,63.13,63.10,63.11,63.15,63.19,63.17,63.13,63.10,63.10,63.13,63.14,63.13,63.12,63.12,63.12,63.09,63.08,63.08,63.10,63.09,63.07,63.04,63.02,63.00,63.00,63.00,63.00,62.98,62.95,62.95,62.96,62.93,62.88,62.82,62.76,62.71,62.69,62.64,62.58,62.51,62.47,62.30,61.79,61.12,60.77
66.14,66.15,66.14,66.12,66.11,66.09,66.07,66.05,66.05,66.05,66.03,66.05,66.06,66.00,65.89,65.79,65.71,65.53,64.82,64.23,63.90,63.78,63.67,63.58,63.49,63.43,63.43,63.42,63.41,63.43,63.47,63.46,63.42,63.40,63.40,63.40,63.40,63.40,63.40,63.40,63.40,63.39,63.39,63.40,63.42,63.42,63.43,63.45,63.48,63.50,63.50,63.47,63.42,63.40,63.41,63.41,63.41,63.40,63.41,63.42,63.44,63.48,63.44,63.47,63.46,63.42,63.40,63.46,63.49,63.50,63.50,63.50,63.50,63.50,63.51,63.58,63.53,63.51,63.50,63.50,63.46,63.41,63.39,63.40,63.41,63.42,63.44,63.46,63.42,63.42,63.40,63.37,63.32,63.38,63.39,63.35,63.29,63.30,63.17,63.11,63.11,63.10,63.18,63.21,63.20,63.20,63.20,63.14,63.10,63.12,63.19,63.20,63.15,63.11,63.11,63.10,63.16,63.20,63.18,63.11,63.12,63.16,63.21,63.23,63.28,63.30,63.32,63.36,63.31,63.31,63.31,63.32,63.39,63.39,63.35,63.34,63.39,63.47,63.56,63.62,63.63,63.62,63.63,63.67,63.69,63.67,63.60,63.50,63.39,63.25,63.14,63.09,63.05,63.03,63.08,63.14,63.21,63.22,63.11,63.03,63.02,63.05,63.12,63.17,63.18,63.19,63.20,63.20,63.22,63.24,63.24,63.20,63.22,63.24,63.22,63.17,63.14,63.16,63.16,63.15,63.15,63.15,63.15,63.16,63.19,63.17,63.16,63.16,63.17,63.13,63.13,63.13,63.13,63.11,63.10,63.11,63.13,63.14,63.11,63.11,63.11,63.10,63.10,63.12,63.13,63.13,63.11,63.13,63.13,63.13,63.13,63.13,63.12,63.14,63.17,63.19,63.15,63.11,63.09,63.08,63.08,63.08,63.08,63.08,63.09,63.09,63.08,63.07,63.08,63.09,63.07,63.05,63.02,63.00,63.00,63.00,63.00,63.00,62.97,62.95,62.96,62.97,62.97,62.95,62.88,62.78,62.71,62.69,62.65,62.58,62.49,62.47,62.44,61.95,61.14,60.66
66.12,66.12,66.12,66.12,66.13,66.13,66.10,66.10,66.13,66.15,66.17,66.18,66.16,66.05,65.94,65.83,65.71,65.51,64.83,64.23,63.88,63.74,63.65,63.57,63.47,63.39,63.39,63.40,63.37,63.39,63.45,63.44,63.41,63.40,63.40,63.40,63.40,63.40,63.40,63.40,63.40,63.36,63.36,63.38,63.40,63.40,63.43,63.47,63.50,63.50,63.50,63.47,63.42,63.40,63.40,63.40,63.40,63.40,63.40,63.40,63.43,63.48,63.43,63.46,63.46,63.42,63.40,63.46,63.49,63.50,63.50,63.50,63.50,63.50,63.51,63.57,63.53,63.51,63.50,63.50,63.49,63.40,63.35,63.39,63.40,63.40,63.41,63.41,63.40,63.45,63.40,63.33,63.31,63.37,63.35,63.31,63.28,63.29,63.17,63.11,63.10,63.11,63.18,63.20,63.19,63.19,63.19,63.13,63.10,63.12,63.19,63.20,63.15,63.10,63.10,63.11,63.16,63.19,63.17,63.12,63.16,63.20,63.23,63.28,63.29,63.30,63.30,63.31,63.30,63.33,63.33,63.31,63.39,63.40,63.38,63.35,63.33,63.41,63.56,63.68,63.72,63.69,63.72,63.72,63.68,63.65,63.57,63.46,63.34,63.25,63.18,63.10,63.04,63.01,63.05,63.17,63.26,63.28,63.20,63.09,63.04,63.05,63.11,63.12,63.13,63.17,63.20,63.20,63.20,63.21,63.21,63.19,63.19,63.20,63.20,63.19,63.17,63.13,63.13,63.14,63.17,63.15,63.16,63.17,63.18,63.18,63.19,63.19,63.19,63.19,63.21,63.20,63.18,63.13,63.11,63.10,63.11,63.13,63.13,63.13,63.13,63.11,63.10,63.10,63.11,63.12,63.13,63.12,63.11,63.11,63.11,63.11,63.12,63.15,63.18,63.18,63.13,63.09,63.06,63.04,63.04,63.04,63.05,63.06,63.07,63.07,63.08,63.09,63.09,63.08,63.08,63.07,63.05,63.02,63.00,63.00,63.00,63.00,62.99,62.99,62.99,62.99,62.99,62.99,62.90,62.77,62.66,62.63,62.60,62.52,62.38,62.39,62.41,61.91,61.06,60.56
66.15,66.15,66.15,66.16,66.17,66.17,66.14,66.13,66.16,66.19,66.22,66.25,66.22,66.12,65.99,65.85,65.73,65.55,64.85,64.21,63.83,63.68,63.60,63.54,63.44,63.37,63.37,63.37,63.36,63.38,63.42,63.42,63.41,63.40,63.40,63.40,63.40,63.38,63.37,63.39,63.40,63.35,63.35,63.38,63.40,63.42,63.46,63.49,63.50,63.50,63.50,63.47,63.42,63.40,63.40,63.40,63.40,63.40,63.40,63.40,63.41,63.44,63.42,63.43,63.43,63.41,63.40,63.46,63.47,63.47,63.48,63.50,63.50,63.50,63.51,63.54,63.52,63.50,63.50,63.49,63.49,63.40,63.33,63.35,63.38,63.38,63.39,63.40,63.41,63.44,63.40,63.34,63.30,63.30,63.28,63.24,63.22,63.23,63.15,63.10,63.11,63.15,63.18,63.17,63.15,63.15,63.15,63.12,63.12,63.16,63.20,63.19,63.13,63.09,63.10,63.13,63.16,63.16,63.12,63.10,63.17,63.23,63.27,63.30,63.30,63.30,63.30,63.29,63.26,63.26,63.26,63.27,63.36,63.40,63.40,63.36,63.32,63.36,63.49,63.61,63.67,63.69,63.71,63.69,63.63,63.57,63.51,63.40,63.30,63.22,63.16,63.08,63.02,63.01,63.04,63.18,63.28,63.30,63.20,63.09,63.04,63.05,63.10,63.10,63.12,63.16,63.20,63.20,63.20,63.20,63.19,63.16,63.16,63.18,63.20,63.18,63.15,63.12,63.11,63.14,63.19,63.16,63.15,63.14,63.14,63.16,63.19,63.20,63.20,63.22,63.25,63.23,63.18,63.12,63.10,63.10,63.11,63.12,63.15,63.16,63.16,63.14,63.13,63.12,63.12,63.14,63.16,63.15,63.12,63.10,63.10,63.10,63.12,63.15,63.16,63.15,63.11,63.08,63.06,63.05,63.05,63.06,63.07,63.08,63.08,63.08,63.10,63.12,63.11,63.08,63.08,63.08,63.06,63.02,62.99,62.98,62.97,62.97,62.97,62.98,62.99,63.00,62.98,62.99,62.92,62.79,62.65,62.59,62.55,62.46,62.33,62.34,62.38,61.96,61.20,60.65
66.20,66.20,66.20,66.20,66.20,66.20,66.17,66.16,66.17,66.20,66.24,66.28,66.27,66.18,66.03,65.88,65.75,65.59,64.88,64.18,63.77,63.61,63.54,63.50,63.43,63.37,63.36,63.34,63.35,63.37,63.40,63.40,63.40,63.40,63.40,63.40,63.40,63.36,63.34,63.37,63.40,63.35,63.35,63.38,63.40,63.45,63.49,63.50,63.50,63.50,63.49,63.46,63.41,63.40,63.40,63.40,63.40,63.40,63.40,63.40,63.40,63.40,63.40,63.40,63.40,63.40,63.40,63.46,63.45,63.43,63.46,63.49,63.50,63.50,63.50,63.50,63.50,63.50,63.49,63.47,63.46,63.38,63.31,63.30,63.35,63.36,63.38,63.41,63.43,63.41,63.40,63.38,63.31,63.23,63.21,63.18,63.14,63.16,63.12,63.10,63.12,63.19,63.17,63.13,63.10,63.10,63.10,63.10,63.14,63.20,63.20,63.17,63.11,63.07,63.10,63.14,63.16,63.12,63.06,63.06,63.16,63.25,63.30,63.30,63.30,63.30,63.30,63.28,63.21,63.18,63.19,63.24,63.33,63.42,63.42,63.38,63.35,63.33,63.40,63.50,63.57,63.64,63.64,63.62,63.56,63.49,63.44,63.34,63.25,63.18,63.13,63.04,63.00,63.01,63.04,63.18,63.30,63.31,63.17,63.06,63.03,63.05,63.10,63.10,63.12,63.16,63.20,63.20,63.20,63.19,63.17,63.13,63.13,63.17,63.19,63.17,63.13,63.11,63.12,63.15,63.20,63.17,63.13,63.10,63.10,63.13,63.18,63.20,63.21,63.24,63.26,63.23,63.16,63.10,63.10,63.10,63.11,63.12,63.16,63.19,63.19,63.18,63.16,63.15,63.14,63.15,63.19,63.19,63.13,63.10,63.10,63.10,63.13,63.15,63.14,63.11,63.08,63.07,63.07,63.07,63.07,63.09,63.11,63.12,63.10,63.10,63.12,63.14,63.13,63.09,63.10,63.09,63.06,63.02,62.98,62.94,62.93,62.93,62.93,62.95,62.98,62.99,62.97,62.97,62.92,62.82,62.68,62.58,62.51,62.42,62.32,62.31,62.35,62.06,61.47,60.83
66.20,66.20,66.20,66.20,66.21,66.22,66.20,66.19,66.19,66.21,66.25,66.28,66.26,66.17,66.06,65.90,65.76,65.57,64.82,64.12,63.72,63.60,63.54,63.48,63.40,63.35,63.36,63.34,63.32,63.32,63.36,63.39,63.40,63.40,63.40,63.40,63.40,63.36,63.34,63.37,63.40,63.35,63.35,63.38,63.42,63.46,63.49,63.50,63.50,63.50,63.47,63.42,63.39,63.39,63.40,63.40,63.40,63.38,63.39,63.40,63.40,63.40,63.40,63.40,63.40,63.40,63.40,63.46,63.44,63.40,63.41,63.45,63.48,63.50,63.50,63.50,63.50,63.50,63.48,63.43,63.40,63.33,63.28,63.30,63.31,63.32,63.36,63.43,63.44,63.41,63.40,63.38,63.31,63.26,63.24,63.23,63.20,63.14,63.11,63.08,63.08,63.12,63.09,63.07,63.07,63.10,63.06,63.06,63.10,63.16,63.16,63.16,63.11,63.07,63.10,63.11,63.12,63.10,63.06,63.03,63.17,63.27,63.30,63.30,63.33,63.32,63.30,63.28,63.21,63.19,63.24,63.34,63.38,63.48,63.50,63.45,63.41,63.33,63.37,63.44,63.48,63.52,63.55,63.55,63.50,63.44,63.37,63.29,63.22,63.18,63.11,63.04,63.00,63.01,63.03,63.15,63.28,63.31,63.16,63.04,63.02,63.05,63.10,63.10,63.12,63.16,63.20,63.20,63.20,63.19,63.16,63.11,63.13,63.16,63.17,63.13,63.11,63.10,63.12,63.17,63.22,63.15,63.11,63.10,63.10,63.13,63.18,63.20,63.20,63.22,63.21,63.17,63.12,63.10,63.10,63.10,63.10,63.11,63.14,63.18,63.20,63.19,63.16,63.13,63.12,63.13,63.16,63.17,63.12,63.10,63.11,63.13,63.18,63.19,63.15,63.08,63.04,63.03,63.03,63.03,63.05,63.09,63.12,63.14,63.13,63.11,63.13,63.16,63.18,63.16,63.18,63.19,63.16,63.10,63.01,62.94,62.91,62.91,62.91,62.94,62.98,63.00,62.99,62.96,62.94,62.89,62.77,62.65,62.58,62.52,62.42,62.38,62.38,62.28,61.92,61.11
66.21,66.21,66.22,66.22,66.24,66.25,66.24,66.22,66.21,66.23,66.27,66.28,66.25,66.16,66.07,65.92,65.78,65.58,64.82,64.10,63.69,63.57,63.53,63.47,63.40,63.35,63.36,63.34,63.30,63.29,63.32,63.37,63.38,63.39,63.39,63.40,63.40,63.36,63.34,63.37,63.38,63.35,63.34,63.38,63.44,63.48,63.49,63.50,63.50,63.49,63.44,63.39,63.35,63.37,63.37,63.38,63.37,63.35,63.38,63.39,63.40,63.40,63.40,63.40,63.40,63.40,63.40,63.46,63.42,63.37,63.39,63.42,63.45,63.47,63.48,63.48,63.49,63.50,63.48,63.41,63.34,63.28,63.25,63.27,63.29,63.33,63.38,63.44,63.43,63.41,63.39,63.36,63.33,63.31,63.30,63.28,63.23,63.12,63.10,63.08,63.06,63.06,63.08,63.07,63.07,63.10,63.08,63.06,63.08,63.13,63.13,63.14,63.11,63.07,63.07,63.07,63.09,63.09,63.07,63.04,63.18,63.26,63.28,63.30,63.33,63.32,63.30,63.29,63.27,63.27,63.34,63.43,63.44,63.51,63.52,63.49,63.46,63.38,63.38,63.41,63.43,63.44,63.48,63.48,63.44,63.38,63.32,63.25,63.20,63.17,63.09,63.01,62.98,63.00,63.02,63.13,63.25,63.29,63.16,63.03,63.01,63.05,63.09,63.08,63.11,63.14,63.17,63.17,63.17,63.17,63.15,63.10,63.12,63.14,63.14,63.11,63.10,63.11,63.14,63.20,63.23,63.13,63.10,63.10,63.10,63.13,63.18,63.20,63.20,63.21,63.18,63.14,63.10,63.10,63.10,63.10,63.10,63.10,63.12,63.15,63.17,63.16,63.14,63.10,63.08,63.10,63.13,63.14,63.11,63.10,63.11,63.13,63.17,63.17,63.12,63.03,63.00,62.99,63.00,63.01,63.04,63.08,63.12,63.15,63.14,63.12,63.14,63.18,63.20,63.21,63.24,63.26,63.24,63.18,63.08,63.01,62.97,62.97,62.96,62.97,62.99,63.00,63.00,62.96,62.95,62.93,62.83,62.69,62.61,62.55,62.47,62.39,62.36,62.34,62.12,61.23
66.23,66.24,66.25,66.26,66.28,66.29,66.28,66.25,66.23,66.26,66.31,66.30,66.24,66.14,66.06,65.94,65.81,65.62,64.88,64.13,63.69,63.54,63.52,63.48,63.41,63.36,63.36,63.34,63.30,63.28,63.30,63.33,63.34,63.36,63.39,63.40,63.40,63.36,63.34,63.37,63.36,63.33,63.34,63.39,63.46,63.49,63.50,63.50,63.50,63.46,63.40,63.34,63.32,63.33,63.33,63.33,63.33,63.31,63.37,63.39,63.40,63.40,63.40,63.40,63.40,63.40,63.40,63.46,63.41,63.35,63.38,63.40,63.41,63.43,63.43,63.43,63.47,63.49,63.48,63.41,63.29,63.23,63.21,63.23,63.28,63.38,63.43,63.43,63.40,63.40,63.37,63.34,63.37,63.37,63.37,63.32,63.22,63.12,63.10,63.09,63.06,63.00,63.12,63.11,63.09,63.10,63.15,63.11,63.09,63.10,63.10,63.12,63.11,63.08,63.02,63.02,63.07,63.10,63.10,63.09,63.17,63.22,63.24,63.30,63.31,63.31,63.30,63.31,63.36,63.43,63.47,63.50,63.50,63.51,63.51,63.50,63.50,63.47,63.43,63.40,63.40,63.40,63.41,63.41,63.38,63.32,63.29,63.24,63.19,63.17,63.08,62.98,62.95,63.00,63.02,63.11,63.21,63.25,63.16,63.03,63.01,63.04,63.08,63.04,63.08,63.10,63.10,63.10,63.13,63.15,63.15,63.10,63.10,63.10,63.10,63.10,63.10,63.12,63.18,63.23,63.24,63.13,63.10,63.10,63.10,63.13,63.18,63.20,63.20,63.20,63.17,63.13,63.10,63.10,63.10,63.10,63.10,63.10,63.10,63.10,63.10,63.10,63.10,63.06,63.05,63.06,63.10,63.10,63.10,63.10,63.10,63.10,63.10,63.08,63.04,62.99,62.96,62.95,62.97,63.01,63.04,63.07,63.11,63.14,63.14,63.15,63.18,63.20,63.20,63.24,63.28,63.30,63.29,63.25,63.18,63.13,63.11,63.11,63.07,63.04,63.02,63.01,63.00,62.97,62.95,62.94,62.87,62.72,62.60,62.53,62.48,62.35,62.29,62.29,62.10,61.21
66.22,66.25,66.27,66.28,66.29,66.30,66.29,66.27,66.24,66.23,66.26,66.26,66.22,66.14,66.06,65.95,65.83,65.68,65.05,64.27,63.75,63.53,63.51,63.47,63.41,63.36,63.36,63.37,63.35,63.34,63.35,63.36,63.36,63.37,63.39,63.40,63.40,63.38,63.37,63.39,63.38,63.36,63.37,63.40,63.47,63.47,63.48,63.48,63.46,63.43,63.37,63.33,63.31,63.31,63.31,63.31,63.31,63.30,63.36,63.39,63.40,63.40,63.40,63.40,63.40,63.40,63.40,63.46,63.41,63.35,63.38,63.40,63.40,63.41,63.41,63.41,63.47,63.49,63.48,63.41,63.28,63.22,63.23,63.31,63.35,63.39,63.41,63.41,63.40,63.40,63.36,63.32,63.33,63.33,63.33,63.29,63.20,63.12,63.10,63.07,63.05,63.11,63.12,63.14,63.13,63.11,63.17,63.13,63.10,63.11,63.15,63.16,63.13,63.10,63.07,63.07,63.09,63.10,63.09,63.09,63.13,63.17,63.22,63.25,63.29,63.30,63.28,63.26,63.33,63.39,63.42,63.43,63.47,63.45,63.46,63.48,63.49,63.48,63.43,63.39,63.39,63.39,63.39,63.37,63.33,63.30,63.26,63.22,63.18,63.13,63.09,63.01,62.98,63.01,63.03,63.14,63.23,63.24,63.12,63.03,63.03,63.05,63.04,63.02,63.03,63.04,63.04,63.04,63.06,63.08,63.10,63.10,63.10,63.12,63.13,63.10,63.10,63.13,63.19,63.24,63.21,63.12,63.10,63.10,63.12,63.15,63.17,63.17,63.17,63.17,63.13,63.10,63.09,63.10,63.10,63.10,63.10,63.10,63.09,63.09,63.08,63.08,63.06,63.02,63.01,63.04,63.08,63.08,63.09,63.09,63.10,63.10,63.10,63.07,63.01,62.95,62.93,62.94,62.97,63.00,63.02,63.05,63.09,63.12,63.12,63.14,63.18,63.20,63.20,63.23,63.26,63.28,63.28,63.27,63.22,63.18,63.17,63.17,63.15,63.13,63.10,63.06,63.03,62.98,62.94,62.91,62.86,62.74,62.62,62.54,62.50,62.40,62.33,62.30,62.16,61.59
66.20,66.23,66.26,66.28,66.29,66.30,66.29,66.27,66.22,66.19,66.20,66.20,66.18,66.13,66.06,65.96,65.86,65.74,65.31,64.56,63.94,63.57,63.50,63.46,63.40,63.35,63.35,63.38,63.38,63.39,63.40,63.39,63.39,63.39,63.39,63.40,63.40,63.40,63.41,63.40,63.39,63.39,63.40,63.42,63.46,63.44,63.45,63.46,63.45,63.43,63.38,63.33,63.31,63.32,63.32,63.32,63.32,63.31,63.37,63.39,63.39,63.40,63.40,63.40,63.40,63.40,63.40,63.44,63.40,63.36,63.38,63.39,63.40,63.40,63.40,63.40,63.44,63.47,63.46,63.40,63.27,63.23,63.27,63.37,63.38,63.38,63.38,63.38,63.39,63.38,63.34,63.31,63.30,63.29,63.27,63.23,63.17,63.11,63.09,63.05,63.04,63.17,63.12,63.15,63.16,63.09,63.18,63.14,63.10,63.11,63.17,63.17,63.15,63.13,63.13,63.13,63.11,63.09,63.07,63.07,63.09,63.14,63.20,63.22,63.27,63.28,63.26,63.23,63.29,63.33,63.34,63.34,63.41,63.38,63.40,63.43,63.44,63.46,63.41,63.36,63.36,63.36,63.35,63.33,63.30,63.28,63.23,63.21,63.17,63.09,63.09,63.02,62.98,63.00,63.04,63.18,63.26,63.24,63.10,63.04,63.05,63.06,63.03,63.00,63.00,63.00,63.00,63.00,63.01,63.04,63.08,63.12,63.11,63.15,63.14,63.10,63.10,63.13,63.18,63.21,63.18,63.12,63.10,63.11,63.12,63.15,63.15,63.14,63.13,63.13,63.09,63.07,63.07,63.09,63.09,63.10,63.10,63.09,63.08,63.06,63.05,63.04,63.01,62.97,62.98,63.01,63.05,63.05,63.06,63.08,63.09,63.10,63.10,63.06,63.00,62.92,62.90,62.93,62.97,63.00,63.00,63.03,63.07,63.10,63.10,63.14,63.18,63.20,63.20,63.22,63.24,63.26,63.27,63.27,63.24,63.21,63.19,63.19,63.21,63.21,63.18,63.13,63.06,62.97,62.91,62.87,62.85,62.76,62.64,62.55,62.51,62.44,62.36,62.31,62.22,61.90
66.16,66.20,66.21,66.23,66.26,66.29,66.27,66.22,66.16,66.12,66.12,66.12,66.12,66.11,66.05,65.98,65.90,65.82,65.75,65.12,64.36,63.72,63.51,63.46,63.39,63.33,63.31,63.36,63.38,63.42,63.45,63.42,63.40,63.40,63.40,63.40,63.40,63.43,63.45,63.42,63.40,63.40,63.42,63.45,63.44,63.41,63.41,63.44,63.47,63.48,63.44,63.38,63.33,63.36,63.38,63.38,63.37,63.33,63.37,63.37,63.37,63.40,63.40,63.41,63.40,63.39,63.38,63.39,63.38,63.38,63.38,63.38,63.38,63.38,63.38,63.38,63.39,63.40,63.39,63.37,63.26,63.27,63.34,63.37,63.33,63.32,63.32,63.32,63.36,63.33,63.31,63.30,63.30,63.25,63.19,63.14,63.11,63.09,63.06,63.02,63.03,63.11,63.10,63.15,63.15,63.05,63.18,63.15,63.12,63.10,63.11,63.11,63.15,63.19,63.19,63.19,63.14,63.07,63.01,63.01,63.07,63.13,63.19,63.26,63.25,63.24,63.24,63.24,63.26,63.26,63.23,63.20,63.29,63.29,63.29,63.31,63.34,63.39,63.33,63.28,63.28,63.26,63.28,63.30,63.30,63.26,63.21,63.19,63.16,63.08,63.08,62.98,62.94,62.99,63.07,63.20,63.29,63.28,63.15,63.04,63.04,63.06,63.06,63.01,63.00,63.00,63.00,63.00,63.02,63.07,63.14,63.18,63.18,63.17,63.14,63.10,63.10,63.11,63.12,63.12,63.12,63.10,63.10,63.10,63.10,63.11,63.10,63.08,63.07,63.07,63.05,63.03,63.04,63.06,63.07,63.09,63.09,63.08,63.04,63.02,63.00,62.98,62.95,62.92,62.92,62.95,62.99,63.01,63.02,63.05,63.08,63.10,63.10,63.07,63.02,62.94,62.91,62.93,62.97,63.00,63.00,63.03,63.07,63.10,63.10,63.14,63.18,63.20,63.20,63.20,63.21,63.22,63.23,63.23,63.21,63.19,63.17,63.18,63.22,63.28,63.29,63.23,63.09,62.92,62.83,62.82,62.85,62.79,62.68,62.56,62.49,62.47,62.37,62.30,62.23,62.03
66.11,66.15,66.17,66.20,66.23,66.25,66.23,66.19,66.15,66.15,66.15,66.14,66.12,66.11,66.08,66.01,65.92,65.86,65.86,65.35,64.57,63.82,63.49,63.43,63.37,63.33,63.30,63.35,63.40,63.45,63.47,63.41,63.39,63.39,63.40,63.40,63.40,63.44,63.46,63.43,63.40,63.40,63.41,63.43,63.42,63.40,63.42,63.45,63.48,63.49,63.46,63.41,63.37,63.39,63.40,63.41,63.41,63.38,63.42,63.43,63.43,63.44,63.43,63.44,63.41,63.36,63.33,63.33,63.33,63.34,63.34,63.34,63.34,63.34,63.34,63.34,63.34,63.34,63.33,63.31,63.24,63.24,63.27,63.31,63.29,63.29,63.27,63.25,63.28,63.29,63.30,63.29,63.28,63.25,63.19,63.14,63.10,63.07,63.06,63.04,63.03,63.12,63.10,63.15,63.16,63.07,63.18,63.18,63.14,63.10,63.10,63.10,63.15,63.20,63.20,63.18,63.13,63.06,63.00,63.00,63.05,63.10,63.15,63.21,63.16,63.13,63.13,63.16,63.20,63.21,63.20,63.19,63.24,63.23,63.22,63.22,63.24,63.24,63.22,63.20,63.20,63.18,63.22,63.24,63.24,63.19,63.13,63.13,63.11,63.03,63.01,62.95,62.92,62.97,63.07,63.22,63.29,63.26,63.13,63.04,63.05,63.07,63.06,63.04,63.03,63.03,63.02,63.01,63.04,63.09,63.15,63.20,63.20,63.18,63.14,63.10,63.10,63.10,63.10,63.10,63.10,63.10,63.10,63.10,63.10,63.10,63.09,63.08,63.05,63.03,63.02,63.01,63.02,63.04,63.07,63.09,63.09,63.06,63.02,63.00,62.99,62.96,62.92,62.90,62.91,62.93,62.96,62.99,63.02,63.05,63.08,63.10,63.09,63.05,62.99,62.93,62.91,62.92,62.95,62.98,63.00,63.02,63.05,63.06,63.06,63.12,63.17,63.20,63.20,63.18,63.18,63.19,63.21,63.21,63.20,63.19,63.18,63.18,63.22,63.26,63.28,63.25,63.11,62.92,62.82,62.81,62.83,62.80,62.71,62.58,62.47,62.47,62.35,62.27,62.23,62.14
66.06,66.09,66.13,66.18,66.20,66.20,66.18,66.16,66.17,66.20,66.20,66.18,66.15,66.12,66.11,66.03,65.94,65.87,65.87,65.46,64.72,63.91,63.46,63.39,63.35,63.32,63.30,63.35,63.42,63.48,63.48,63.38,63.37,63.38,63.40,63.40,63.40,63.44,63.46,63.43,63.40,63.40,63.40,63.40,63.40,63.40,63.43,63.47,63.48,63.49,63.45,63.42,63.40,63.40,63.40,63.42,63.44,63.45,63.48,63.49,63.50,63.50,63.46,63.48,63.43,63.33,63.27,63.26,63.27,63.29,63.30,63.30,63.30,63.30,63.30,63.30,63.30,63.30,63.29,63.25,63.22,63.18,63.18,63.24,63.25,63.27,63.24,63.18,63.20,63.26,63.29,63.29,63.25,63.24,63.22,63.17,63.10,63.06,63.09,63.06,63.04,63.14,63.11,63.15,63.16,63.11,63.19,63.20,63.16,63.10,63.11,63.11,63.15,63.20,63.20,63.16,63.12,63.06,63.00,63.00,63.03,63.07,63.10,63.13,63.06,63.01,63.00,63.06,63.12,63.16,63.19,63.20,63.21,63.19,63.16,63.15,63.15,63.10,63.11,63.13,63.12,63.11,63.16,63.19,63.17,63.11,63.05,63.06,63.06,62.99,62.94,62.91,62.91,62.95,63.07,63.23,63.29,63.23,63.11,63.04,63.06,63.07,63.05,63.07,63.07,63.07,63.05,63.03,63.07,63.11,63.15,63.20,63.19,63.18,63.14,63.10,63.10,63.10,63.10,63.10,63.10,63.10,63.10,63.10,63.10,63.10,63.10,63.09,63.06,63.00,63.00,63.00,63.01,63.03,63.08,63.10,63.08,63.05,63.00,63.00,62.98,62.95,62.90,62.90,62.90,62.91,62.94,62.98,63.01,63.05,63.08,63.09,63.06,63.01,62.95,62.91,62.91,62.91,62.93,62.96,62.99,63.00,63.01,63.01,63.02,63.08,63.15,63.19,63.19,63.15,63.15,63.17,63.19,63.19,63.20,63.19,63.19,63.19,63.20,63.21,63.23,63.23,63.12,62.95,62.84,62.80,62.79,62.80,62.73,62.61,62.48,62.46,62.33,62.25,62.24,62.23
65.99,65.99,66.05,66.13,66.20,66.20,66.19,66.19,66.19,66.20,66.20,66.18,66.16,66.14,66.11,66.02,65.91,65.84,65.84,65.59,64.92,64.05,63.48,63.38,63.33,63.30,63.28,63.33,63.41,63.48,63.50,63.40,63.39,63.39,63.39,63.39,63.37,63.42,63.45,63.42,63.38,63.38,63.39,63.40,63.40,63.38,63.41,63.45,63.45,63.47,63.45,63.42,63.40,63.40,63.40,63.43,63.46,63.48,63.47,63.48,63.50,63.50,63.49,63.52,63.46,63.33,63.24,63.22,63.23,63.26,63.29,63.30,63.30,63.30,63.30,63.30,63.30,63.30,63.30,63.29,63.20,63.17,63.18,63.21,63.22,63.24,63.19,63.13,63.19,63.23,63.27,63.27,63.22,63.18,63.18,63.16,63.11,63.09,63.10,63.08,63.07,63.12,63.14,63.15,63.13,63.11,63.19,63.17,63.13,63.11,63.15,63.16,63.18,63.20,63.20,63.13,63.11,63.06,63.00,63.00,63.01,63.03,63.04,63.05,63.02,62.97,62.97,63.07,63.06,63.10,63.13,63.14,63.13,63.14,63.12,63.10,63.06,63.04,63.08,63.11,63.11,63.10,63.13,63.13,63.11,63.05,63.06,63.08,63.08,63.04,62.97,62.93,62.94,62.99,63.06,63.23,63.28,63.22,63.10,63.07,63.05,63.06,63.08,63.09,63.09,63.09,63.08,63.07,63.09,63.11,63.15,63.18,63.16,63.16,63.14,63.10,63.10,63.10,63.10,63.10,63.10,63.10,63.10,63.10,63.10,63.10,63.10,63.09,63.06,63.02,63.04,63.02,63.01,63.04,63.09,63.10,63.08,63.05,63.00,63.00,62.98,62.95,62.90,62.90,62.88,62.87,62.87,62.92,62.95,62.99,63.03,63.03,63.02,62.99,62.94,62.90,62.93,62.96,62.97,62.95,62.93,62.93,62.95,62.97,63.00,63.05,63.09,63.12,63.12,63.11,63.11,63.11,63.13,63.16,63.18,63.19,63.18,63.18,63.19,63.20,63.19,63.15,63.06,62.96,62.88,62.81,62.76,62.76,62.74,62.67,62.54,62.46,62.34,62.28,62.28,62.26
65.95,65.95,66.01,66.11,66.20,66.20,66.20,66.20,66.20,66.20,66.20,66.18,66.16,66.13,66.08,65.99,65.90,65.83,65.84,65.74,65.27,64.54,63.91,63.60,63.41,63.31,63.28,63.32,63.43,63.52,63.54,63.43,63.43,63.41,63.40,63.40,63.38,63.41,63.43,63.42,63.36,63.37,63.39,63.40,63.40,63.36,63.40,63.44,63.43,63.46,63.45,63.42,63.40,63.40,63.40,63.42,63.45,63.47,63.44,63.45,63.47,63.49,63.48,63.51,63.46,63.34,63.25,63.22,63.21,63.24,63.29,63.30,63.30,63.30,63.30,63.32,63.29,63.29,63.30,63.30,63.21,63.19,63.21,63.23,63.21,63.21,63.17,63.11,63.16,63.20,63.24,63.25,63.20,63.14,63.13,63.11,63.08,63.09,63.10,63.09,63.09,63.11,63.14,63.13,63.12,63.14,63.19,63.15,63.13,63.14,63.18,63.19,63.19,63.20,63.20,63.15,63.11,63.06,63.00,62.97,62.97,62.97,62.98,62.98,62.99,62.95,62.96,63.08,63.02,63.05,63.09,63.11,63.10,63.11,63.08,63.05,63.01,63.01,63.06,63.10,63.10,63.10,63.11,63.10,63.08,63.01,63.05,63.06,63.06,63.03,62.96,62.93,62.93,62.98,63.05,63.23,63.28,63.22,63.10,63.08,63.07,63.07,63.10,63.10,63.10,63.10,63.10,63.09,63.10,63.11,63.14,63.18,63.16,63.16,63.14,63.10,63.11,63.12,63.12,63.11,63.11,63.13,63.13,63.13,63.13,63.11,63.10,63.09,63.06,63.04,63.06,63.03,63.02,63.05,63.09,63.10,63.08,63.05,63.00,63.00,62.98,62.95,62.90,62.90,62.89,62.87,62.85,62.87,62.90,62.94,62.97,62.98,62.97,62.95,62.92,62.90,62.94,62.97,62.98,62.94,62.90,62.90,62.91,62.92,62.94,62.99,63.04,63.06,63.06,63.05,63.05,63.05,63.06,63.10,63.14,63.13,63.12,63.13,63.14,63.14,63.12,63.07,63.00,62.95,62.88,62.81,62.74,62.75,62.74,62.69,62.57,62.46,62.37,62.31,62.28,62.26
65.95,65.95,66.00,66.09,66.20,66.20,66.20,66.20,66.20,66.20,66.20,66.18,66.14,66.10,66.02,65.95,65.89,65.84,65.86,65.91,65.73,65.29,64.66,64.02,63.57,63.34,63.28,63.31,63.47,63.58,63.58,63.49,63.48,63.45,63.42,63.44,63.42,63.41,63.41,63.40,63.34,63.36,63.38,63.40,63.40,63.35,63.39,63.44,63.43,63.46,63.45,63.42,63.40,63.40,63.40,63.41,63.41,63.42,63.41,63.41,63.43,63.48,63.44,63.47,63.43,63.34,63.29,63.24,63.21,63.22,63.28,63.30,63.30,63.30,63.31,63.36,63.28,63.26,63.29,63.30,63.23,63.25,63.28,63.28,63.22,63.20,63.16,63.11,63.11,63.17,63.20,63.21,63.20,63.13,63.06,63.02,63.02,63.08,63.10,63.10,63.10,63.10,63.10,63.10,63.13,63.19,63.20,63.14,63.14,63.20,63.20,63.20,63.20,63.20,63.20,63.20,63.14,63.06,62.99,62.91,62.90,62.90,62.90,62.90,62.97,62.95,62.96,63.08,63.01,63.01,63.05,63.10,63.10,63.09,63.05,63.00,63.00,63.01,63.06,63.10,63.09,63.10,63.10,63.09,63.06,63.00,63.00,63.00,63.00,62.98,62.91,62.90,62.91,62.94,63.05,63.24,63.29,63.23,63.10,63.10,63.10,63.11,63.11,63.11,63.10,63.10,63.10,63.10,63.10,63.11,63.14,63.20,63.20,63.18,63.14,63.10,63.13,63.16,63.15,63.11,63.13,63.18,63.20,63.19,63.17,63.12,63.10,63.09,63.07,63.05,63.06,63.04,63.03,63.05,63.09,63.10,63.08,63.05,63.00,63.00,62.98,62.95,62.90,62.90,62.90,62.89,62.86,62.84,62.86,62.89,62.93,62.94,62.91,62.90,62.90,62.90,62.93,62.96,62.97,62.94,62.90,62.90,62.89,62.87,62.86,62.93,62.98,63.00,63.00,62.99,62.98,62.98,62.99,63.03,63.06,63.04,63.02,63.03,63.06,63.05,63.02,62.98,62.94,62.91,62.86,62.80,62.75,62.74,62.75,62.70,62.58,62.46,62.41,62.33,62.24,62.25
65.93,65.93,65.99,66.09,66.20,66.20,66.20,66.20,66.20,66.20,66.20,66.19,66.17,66.12,66.05,65.97,65.90,65.84,65.86,65.92,65.87,65.56,64.78,63.96,63.50,63.33,63.33,63.33,63.38,63.42,63.42,63.38,63.37,63.38,63.39,63.42,63.41,63.40,63.40,63.40,63.38,63.38,63.38,63.36,63.38,63.40,63.40,63.40,63.43,63.44,63.44,63.43,63.41,63.40,63.39,63.38,63.36,63.39,63.40,63.38,63.37,63.41,63.41,63.39,63.36,63.31,63.25,63.25,63.23,63.23,63.28,63.30,63.30,63.30,63.32,63.41,63.27,63.23,63.28,63.29,63.27,63.27,63.29,63.29,63.22,63.20,63.17,63.11,63.06,63.11,63.14,63.14,63.14,63.11,63.05,63.01,63.01,63.02,63.03,63.04,63.05,63.09,63.06,63.07,63.10,63.13,63.10,63.10,63.12,63.15,63.21,63.25,63.23,63.20,63.20,63.16,63.12,63.06,62.99,62.95,62.91,62.90,62.90,62.90,62.93,62.92,62.94,63.03,62.99,63.00,63.05,63.10,63.10,63.08,63.04,63.00,63.00,63.01,63.06,63.08,63.05,63.08,63.09,63.07,63.03,63.00,63.00,63.00,62.99,62.97,62.91,62.90,62.91,62.96,63.10,63.29,63.34,63.25,63.08,63.11,63.14,63.16,63.16,63.16,63.14,63.12,63.12,63.12,63.12,63.12,63.14,63.20,63.20,63.18,63.15,63.11,63.15,63.18,63.17,63.15,63.15,63.19,63.20,63.20,63.19,63.15,63.12,63.09,63.09,63.08,63.09,63.08,63.07,63.08,63.10,63.09,63.07,63.04,63.00,63.00,62.98,62.95,62.90,62.90,62.90,62.89,62.86,62.82,62.82,62.84,62.87,62.90,62.89,62.88,62.88,62.89,62.90,62.94,62.95,62.93,62.90,62.90,62.89,62.89,62.88,62.94,62.98,62.99,62.98,62.93,62.90,62.91,62.93,62.96,62.96,62.94,62.93,62.95,62.98,62.96,62.92,62.88,62.86,62.86,62.84,62.79,62.77,62.77,62.77,62.73,62.63,62.47,62.41,62.31,62.19,62.18
65.92,65.94,66.02,66.12,66.22,66.22,66.22,66.21,66.20,66.20,66.20,66.20,66.19,66.14,66.06,65.99,65.91,65.84,65.84,65.91,65.95,65.74,64.93,63.97,63.46,63.30,63.34,63.34,63.33,63.32,63.33,63.32,63.32,63.34,63.37,63.40,63.40,63.40,63.40,63.40,63.40,63.40,63.38,63.35,63.36,63.41,63.39,63.36,63.39,63.38,63.39,63.40,63.38,63.37,63.37,63.34,63.33,63.37,63.38,63.35,63.33,63.35,63.36,63.32,63.30,63.28,63.23,63.25,63.24,63.23,63.26,63.29,63.29,63.29,63.32,63.43,63.27,63.22,63.25,63.27,63.26,63.26,63.28,63.29,63.22,63.20,63.17,63.13,63.07,63.09,63.10,63.10,63.09,63.08,63.04,63.00,63.00,62.97,62.99,63.00,63.03,63.08,63.03,63.04,63.08,63.09,63.05,63.08,63.10,63.12,63.22,63.27,63.25,63.20,63.20,63.14,63.10,63.05,62.98,62.96,62.92,62.90,62.90,62.90,62.90,62.90,62.93,63.00,62.96,62.99,63.05,63.10,63.10,63.07,63.03,63.00,63.00,63.01,63.06,63.06,63.00,63.05,63.07,63.04,63.00,63.00,63.00,63.00,62.99,62.98,62.91,62.91,62.92,62.97,63.14,63.33,63.37,63.27,63.06,63.11,63.16,63.19,63.20,63.19,63.17,63.15,63.15,63.15,63.15,63.14,63.15,63.20,63.20,63.18,63.15,63.12,63.17,63.19,63.19,63.18,63.17,63.19,63.20,63.20,63.20,63.17,63.12,63.10,63.10,63.10,63.10,63.10,63.10,63.11,63.11,63.09,63.06,63.02,63.00,63.00,62.97,62.94,62.90,62.90,62.90,62.89,62.85,62.81,62.80,62.80,62.82,62.85,62.87,62.87,62.87,62.88,62.88,62.91,62.93,62.91,62.90,62.90,62.90,62.90,62.90,62.94,62.97,62.98,62.94,62.87,62.84,62.84,62.87,62.89,62.87,62.85,62.86,62.88,62.90,62.87,62.83,62.80,62.80,62.81,62.81,62.79,62.77,62.79,62.78,62.75,62.68,62.50,62.42,62.30,62.16,62.15
65.95,66.01,66.11,66.21,66.29,66.29,66.27,66.24,66.21,66.20,66.20,66.20,66.19,66.15,66.07,65.99,65.91,65.84,65.80,65.87,65.94,65.81,65.17,64.14,63.50,63.24,63.28,63.33,63.35,63.36,63.37,63.37,63.37,63.38,63.39,63.39,63.38,63.39,63.39,63.40,63.40,63.40,63.40,63.38,63.35,63.34,63.32,63.30,63.27,63.26,63.26,63.28,63.30,63.31,63.31,63.31,63.31,63.35,63.34,63.32,63.30,63.29,63.30,63.27,63.27,63.28,63.25,63.23,63.22,63.23,63.24,63.28,63.28,63.28,63.30,63.38,63.28,63.22,63.21,63.21,63.19,63.20,63.23,63.28,63.22,63.19,63.18,63.18,63.16,63.14,63.12,63.09,63.06,63.04,63.01,63.00,62.99,62.93,62.97,63.01,63.04,63.06,63.02,63.03,63.06,63.10,63.09,63.10,63.10,63.13,63.24,63.25,63.23,63.20,63.20,63.16,63.09,63.02,62.95,62.91,62.90,62.90,62.90,62.90,62.90,62.90,62.93,62.99,62.93,62.98,63.05,63.10,63.09,63.03,63.01,63.00,63.00,63.01,63.08,63.07,62.97,63.01,63.04,63.03,63.00,63.00,63.00,63.00,63.00,62.98,62.92,62.93,62.94,62.97,63.14,63.33,63.37,63.26,63.03,63.09,63.14,63.17,63.20,63.20,63.19,63.19,63.19,63.19,63.18,63.17,63.17,63.20,63.20,63.18,63.15,63.14,63.19,63.20,63.20,63.20,63.19,63.20,63.20,63.20,63.20,63.17,63.12,63.10,63.10,63.10,63.10,63.10,63.10,63.12,63.14,63.09,63.04,63.00,63.00,62.98,62.95,62.92,62.90,62.90,62.90,62.89,62.85,62.81,62.80,62.79,62.78,62.78,62.84,62.87,62.88,62.86,62.86,62.88,62.88,62.87,62.90,62.90,62.90,62.90,62.90,62.94,62.96,62.94,62.87,62.80,62.78,62.79,62.82,62.82,62.81,62.81,62.81,62.82,62.80,62.77,62.75,62.76,62.76,62.77,62.78,62.79,62.75,62.76,62.76,62.75,62.73,62.56,62.42,62.29,62.20,62.18
65.97,66.04,66.14,66.22,66.28,66.28,66.27,66.24,66.22,66.20,66.20,66.20,66.18,66.14,66.07,66.00,65.92,65.83,65.78,65.84,65.89,65.79,65.27,64.30,63.61,63.26,63.24,63.29,63.32,63.34,63.35,63.34,63.33,63.34,63.36,63.36,63.36,63.36,63.37,63.38,63.39,63.40,63.39,63.38,63.35,63.32,63.31,63.29,63.26,63.24,63.24,63.25,63.27,63.27,63.28,63.28,63.30,63.33,63.31,63.30,63.29,63.28,63.29,63.28,63.29,63.30,63.28,63.25,63.25,63.26,63.27,63.29,63.28,63.28,63.29,63.32,63.27,63.23,63.20,63.20,63.18,63.19,63.24,63.29,63.25,63.20,63.18,63.20,63.20,63.18,63.15,63.12,63.09,63.06,63.04,63.02,63.00,62.95,62.96,63.00,63.04,63.06,63.01,63.02,63.04,63.07,63.10,63.10,63.10,63.12,63.19,63.19,63.18,63.16,63.13,63.13,63.07,62.99,62.92,62.90,62.90,62.90,62.90,62.90,62.90,62.90,62.93,62.99,62.92,62.97,63.05,63.10,63.09,63.03,63.02,63.03,63.00,63.01,63.09,63.07,62.94,63.00,63.02,63.01,63.00,63.00,63.00,63.00,63.01,63.01,62.92,62.92,62.94,62.98,63.17,63.36,63.38,63.25,63.02,63.09,63.12,63.14,63.17,63.20,63.20,63.20,63.20,63.20,63.20,63.18,63.17,63.17,63.19,63.19,63.17,63.17,63.20,63.20,63.20,63.20,63.20,63.20,63.20,63.20,63.20,63.19,63.15,63.12,63.10,63.10,63.10,63.10,63.11,63.13,63.15,63.10,63.04,63.00,63.00,62.98,62.94,62.91,62.90,62.90,62.90,62.89,62.85,62.81,62.80,62.79,62.78,62.77,62.81,62.86,62.88,62.83,62.78,62.79,62.82,62.83,62.83,62.86,62.88,62.86,62.83,62.85,62.87,62.86,62.80,62.75,62.73,62.74,62.76,62.78,62.78,62.78,62.78,62.80,62.77,62.73,62.72,62.73,62.73,62.71,62.73,62.76,62.75,62.75,62.75,62.75,62.74,62.61,62.46,62.36,62.29,62.20
66.00,66.07,66.15,66.21,66.25,66.25,66.25,66.24,66.22,66.20,66.20,66.19,66.16,66.12,66.06,66.01,65.93,65.83,65.76,65.80,65.83,65.73,65.32,64.48,63.76,63.31,63.22,63.24,63.29,63.31,63.32,63.30,63.28,63.29,63.31,63.31,63.33,63.34,63.35,63.35,63.37,63.39,63.38,63.36,63.34,63.32,63.31,63.30,63.27,63.25,63.26,63.26,63.26,63.25,63.25,63.27,63.29,63.30,63.29,63.29,63.28,63.27,63.29,63.30,63.32,63.33,63.31,63.28,63.28,63.29,63.30,63.30,63.28,63.28,63.29,63.28,63.27,63.24,63.22,63.21,63.19,63.22,63.26,63.29,63.28,63.22,63.20,63.21,63.23,63.21,63.19,63.16,63.13,63.10,63.08,63.04,63.00,62.98,62.95,62.98,63.03,63.05,63.01,63.00,63.02,63.02,63.08,63.09,63.09,63.10,63.12,63.12,63.12,63.10,63.05,63.08,63.04,62.97,62.91,62.90,62.90,62.90,62.90,62.90,62.90,62.90,62.93,62.98,62.92,62.97,63.05,63.10,63.09,63.03,63.03,63.05,63.00,63.02,63.11,63.08,62.92,62.98,63.00,63.00,63.00,62.99,62.99,63.00,63.02,63.04,62.92,62.91,62.92,62.98,63.20,63.39,63.39,63.24,63.02,63.09,63.11,63.12,63.13,63.18,63.20,63.21,63.21,63.21,63.20,63.19,63.17,63.13,63.19,63.20,63.20,63.19,63.20,63.20,63.20,63.20,63.20,63.20,63.20,63.20,63.20,63.20,63.18,63.14,63.11,63.10,63.11,63.11,63.11,63.14,63.16,63.11,63.04,63.00,63.00,62.97,62.93,62.90,62.90,62.90,62.90,62.89,62.86,62.81,62.80,62.80,62.79,62.76,62.78,62.85,62.88,62.81,62.69,62.70,62.76,62.80,62.76,62.82,62.85,62.83,62.75,62.75,62.78,62.78,62.75,62.71,62.70,62.71,62.72,62.75,62.75,62.75,62.76,62.79,62.76,62.73,62.71,62.71,62.71,62.68,62.69,62.73,62.74,62.74,62.73,62.73,62.74,62.64,62.51,62.42,62.36,62.20
66.10,66.14,66.17,66.18,66.17,66.19,66.21,66.21,66.21,66.20,66.20,66.18,66.14,66.08,66.04,65.99,65.92,65.83,65.75,65.78,65.78,65.67,65.34,64.67,63.95,63.39,63.18,63.24,63.29,63.32,63.31,63.30,63.26,63.25,63.25,63.28,63.31,63.32,63.32,63.32,63.33,63.34,63.34,63.32,63.31,63.31,63.32,63.31,63.25,63.25,63.29,63.30,63.28,63.27,63.27,63.28,63.29,63.30,63.27,63.25,63.24,63.24,63.28,63.29,63.31,63.32,63.30,63.30,63.29,63.30,63.30,63.30,63.30,63.29,63.30,63.29,63.29,63.28,63.27,63.26,63.25,63.27,63.29,63.30,63.29,63.27,63.26,63.25,63.22,63.20,63.20,63.17,63.12,63.11,63.06,63.02,63.00,62.99,62.98,62.96,62.96,63.01,62.96,62.94,62.94,62.95,63.01,63.03,63.03,63.05,63.10,63.06,63.04,63.03,63.02,63.03,63.01,62.99,62.96,62.91,62.90,62.90,62.90,62.90,62.90,62.90,62.91,62.92,62.91,62.97,63.05,63.10,63.09,62.99,63.01,63.06,63.00,63.02,63.11,63.08,62.91,62.93,62.98,63.00,62.98,62.93,62.93,62.97,63.03,63.05,62.93,62.90,62.89,62.92,63.15,63.33,63.31,63.16,63.02,63.10,63.14,63.14,63.12,63.14,63.18,63.24,63.27,63.26,63.21,63.19,63.16,63.13,63.19,63.20,63.20,63.20,63.20,63.20,63.20,63.20,63.20,63.20,63.20,63.20,63.20,63.20,63.19,63.17,63.15,63.13,63.15,63.14,63.14,63.18,63.17,63.11,63.04,63.00,63.00,62.98,62.94,62.91,62.90,62.90,62.90,62.90,62.89,62.85,62.82,62.80,62.80,62.78,62.79,62.85,62.88,62.83,62.74,62.72,62.74,62.78,62.81,62.85,62.86,62.82,62.75,62.75,62.78,62.78,62.75,62.71,62.72,62.74,62.75,62.76,62.78,62.77,62.75,62.76,62.76,62.76,62.76,62.75,62.74,62.74,62.74,62.74,62.72,62.71,62.69,62.69,62.71,62.64,62.50,62.41,62.33,62.15
66.26,66.23,66.21,66.20,66.16,66.15,66.17,66.19,66.20,66.20,66.19,66.15,66.10,66.06,66.03,65.98,65.91,65.83,65.74,65.73,65.75,65.69,65.39,64.84,64.12,63.48,63.17,63.24,63.29,63.31,63.30,63.28,63.24,63.23,63.24,63.26,63.29,63.30,63.30,63.30,63.31,63.32,63.31,63.31,63.30,63.30,63.32,63.31,63.27,63.27,63.28,63.28,63.26,63.25,63.27,63.28,63.30,63.33,63.26,63.23,63.22,63.24,63.26,63.26,63.28,63.30,63.30,63.32,63.33,63.33,63.31,63.35,63.34,63.31,63.30,63.30,63.30,63.28,63.26,63.26,63.26,63.26,63.27,63.27,63.29,63.30,63.29,63.28,63.22,63.20,63.20,63.18,63.12,63.11,63.09,63.06,63.04,63.03,63.01,62.96,62.92,62.93,62.91,62.89,62.88,62.91,62.93,62.96,62.97,62.98,63.02,62.99,62.97,62.97,62.96,62.94,62.95,62.96,62.95,62.88,62.89,62.90,62.90,62.90,62.90,62.90,62.89,62.87,62.90,62.94,63.00,63.06,63.06,62.98,62.98,63.02,63.00,63.01,63.08,63.06,62.93,62.92,62.95,62.97,62.95,62.87,62.92,62.98,63.02,63.02,62.92,62.90,62.89,62.93,63.15,63.31,63.27,63.14,63.02,63.10,63.16,63.17,63.13,63.11,63.15,63.22,63.28,63.28,63.22,63.19,63.17,63.14,63.19,63.20,63.20,63.20,63.20,63.20,63.20,63.20,63.20,63.20,63.20,63.20,63.20,63.20,63.20,63.19,63.18,63.16,63.18,63.17,63.17,63.20,63.18,63.11,63.04,63.00,63.00,62.99,62.96,62.92,62.90,62.90,62.90,62.90,62.90,62.87,62.82,62.80,62.81,62.81,62.81,62.84,62.85,62.83,62.76,62.74,62.75,62.78,62.82,62.84,62.84,62.81,62.75,62.75,62.78,62.78,62.75,62.71,62.73,62.76,62.77,62.77,62.79,62.76,62.74,62.74,62.76,62.79,62.80,62.81,62.80,62.79,62.77,62.75,62.72,62.71,62.69,62.68,62.68,62.63,62.51,62.40,62.32,62.16
66.46,66.33,66.28,66.25,66.18,66.12,66.14,66.18,66.20,66.20,66.17,66.11,66.06,66.05,66.04,65.99,65.92,65.83,65.72,65.68,65.75,65.78,65.48,65.01,64.29,63.58,63.17,63.24,63.28,63.30,63.29,63.25,63.21,63.23,63.26,63.24,63.26,63.29,63.30,63.30,63.30,63.30,63.30,63.30,63.30,63.30,63.30,63.30,63.30,63.30,63.26,63.22,63.20,63.20,63.25,63.28,63.32,63.37,63.28,63.22,63.22,63.27,63.23,63.21,63.23,63.28,63.30,63.36,63.39,63.38,63.34,63.44,63.39,63.34,63.31,63.30,63.30,63.26,63.22,63.22,63.22,63.22,63.22,63.22,63.28,63.30,63.31,63.29,63.22,63.21,63.20,63.18,63.11,63.10,63.15,63.15,63.10,63.09,63.04,62.97,62.89,62.81,62.86,62.85,62.84,62.88,62.83,62.87,62.90,62.90,62.90,62.90,62.90,62.90,62.90,62.82,62.85,62.89,62.89,62.83,62.87,62.90,62.90,62.90,62.90,62.90,62.88,62.83,62.89,62.90,62.93,62.98,63.00,62.99,62.95,62.93,63.00,63.01,63.04,63.04,62.98,62.93,62.91,62.92,62.91,62.82,62.94,63.00,63.00,62.96,62.91,62.90,62.92,62.98,63.18,63.31,63.27,63.15,63.02,63.10,63.17,63.19,63.17,63.10,63.10,63.16,63.26,63.28,63.22,63.19,63.17,63.15,63.19,63.20,63.20,63.20,63.20,63.20,63.20,63.20,63.20,63.20,63.20,63.20,63.20,63.20,63.20,63.20,63.20,63.20,63.20,63.20,63.20,63.20,63.18,63.11,63.04,63.00,63.00,63.00,62.98,62.95,62.90,62.90,62.90,62.90,62.90,62.87,62.82,62.81,62.83,62.87,62.85,62.82,62.80,62.81,62.76,62.76,62.78,62.80,62.80,62.80,62.80,62.79,62.75,62.75,62.78,62.78,62.75,62.71,62.73,62.77,62.80,62.80,62.78,62.74,62.72,62.73,62.77,62.81,62.85,62.88,62.87,62.82,62.79,62.77,62.74,62.73,62.71,62.67,62.64,62.62,62.52,62.40,62.30,62.21
66.53,66.36,66.28,66.26,66.25,66.19,66.16,66.18,66.20,66.18,66.14,66.11,66.08,66.07,66.05,65.99,65.92,65.83,65.71,65.65,65.70,65.73,65.47,65.00,64.30,63.60,63.15,63.19,63.24,63.28,63.30,63.27,63.23,63.22,63.22,63.22,63.25,63.28,63.29,63.29,63.30,63.30,63.30,63.29,63.29,63.26,63.27,63.29,63.30,63.30,63.28,63.26,63.22,63.21,63.22,63.25,63.29,63.32,63.29,63.25,63.22,63.22,63.21,63.19,63.20,63.21,63.19,63.30,63.37,63.40,63.41,63.46,63.44,63.41,63.36,63.32,63.30,63.29,63.30,63.39,63.43,63.45,63.44,63.41,63.42,63.41,63.41,63.39,63.34,63.29,63.27,63.24,63.19,63.17,63.18,63.13,63.03,63.03,62.99,62.94,62.89,62.83,62.85,62.86,62.88,62.89,62.87,62.89,62.90,62.90,62.90,62.90,62.90,62.89,62.87,62.81,62.82,62.85,62.87,62.87,62.89,62.90,62.90,62.90,62.90,62.90,62.89,62.87,62.92,62.91,62.91,62.93,62.95,62.98,62.95,62.92,62.97,62.95,62.96,62.97,62.96,62.94,62.91,62.89,62.87,62.84,62.91,62.97,62.98,62.92,62.91,62.92,62.91,62.93,63.08,63.21,63.22,63.13,62.99,63.09,63.15,63.16,63.13,63.04,63.04,63.10,63.19,63.25,63.21,63.17,63.16,63.16,63.19,63.18,63.18,63.20,63.20,63.20,63.20,63.20,63.20,63.20,63.20,63.20,63.20,63.20,63.20,63.20,63.20,63.20,63.20,63.20,63.20,63.20,63.18,63.11,63.04,63.00,63.00,63.00,62.99,62.97,62.94,62.93,62.91,62.90,62.90,62.88,62.86,62.85,62.87,62.91,62.88,62.83,62.79,62.78,62.76,62.78,62.79,62.80,62.80,62.80,62.80,62.79,62.75,62.75,62.78,62.78,62.75,62.71,62.73,62.77,62.80,62.80,62.79,62.76,62.73,62.71,62.75,62.79,62.83,62.87,62.84,62.78,62.76,62.77,62.77,62.79,62.78,62.73,62.66,62.64,62.56,62.47,62.37,62.31
66.60,66.41,66.32,66.30,66.32,66.26,66.22,66.21,66.22,66.19,66.15,66.12,66.10,66.07,66.03,65.98,65.91,65.82,65.71,65.63,65.67,65.70,65.47,65.03,64.34,63.63,63.14,63.14,63.20,63.25,63.28,63.27,63.23,63.21,63.20,63.20,63.24,63.27,63.28,63.29,63.30,63.30,63.28,63.27,63.26,63.23,63.25,63.28,63.30,63.30,63.30,63.28,63.25,63.23,63.21,63.22,63.25,63.28,63.29,63.26,63.23,63.20,63.19,63.17,63.16,63.15,63.13,63.25,63.34,63.40,63.44,63.44,63.45,63.43,63.40,63.33,63.30,63.29,63.33,63.49,63.60,63.65,63.64,63.61,63.58,63.56,63.54,63.52,63.47,63.42,63.40,63.38,63.35,63.31,63.29,63.18,62.99,62.99,62.93,62.90,62.89,62.86,62.86,62.87,62.88,62.87,62.88,62.89,62.90,62.90,62.90,62.90,62.90,62.89,62.86,62.82,62.81,62.82,62.86,62.90,62.90,62.90,62.90,62.90,62.91,62.92,62.91,62.90,62.95,62.92,62.90,62.90,62.91,62.94,62.92,62.89,62.92,62.90,62.90,62.91,62.94,62.94,62.91,62.88,62.86,62.86,62.90,62.94,62.95,62.90,62.91,62.93,62.91,62.87,62.97,63.08,63.10,63.05,62.94,63.04,63.08,63.08,63.06,62.98,62.99,63.03,63.10,63.17,63.16,63.14,63.12,63.11,63.15,63.16,63.17,63.17,63.14,63.14,63.15,63.16,63.16,63.15,63.15,63.15,63.15,63.14,63.15,63.16,63.16,63.16,63.16,63.18,63.19,63.20,63.18,63.11,63.04,63.00,63.00,63.00,63.00,62.99,62.97,62.95,62.92,62.90,62.90,62.89,62.89,62.89,62.91,62.94,62.91,62.85,62.79,62.78,62.76,62.78,62.80,62.80,62.80,62.80,62.80,62.79,62.75,62.75,62.78,62.79,62.76,62.72,62.74,62.77,62.80,62.80,62.79,62.77,62.73,62.70,62.74,62.78,62.81,62.83,62.79,62.74,62.73,62.76,62.78,62.83,62.84,62.78,62.67,62.66,62.61,62.51,62.40,62.36
66.65,66.51,66.42,66.38,66.37,66.35,66.32,66.29,66.27,66.26,66.22,66.16,66.09,66.02,65.99,65.94,65.88,65.80,65.71,65.64,65.67,65.69,65.50,65.12,64.43,63.67,63.12,63.11,63.16,63.20,63.23,63.20,63.19,63.19,63.20,63.20,63.23,63.25,63.26,63.28,63.30,63.28,63.25,63.22,63.21,63.21,63.24,63.28,63.30,63.30,63.30,63.30,63.29,63.26,63.22,63.21,63.22,63.25,63.28,63.27,63.24,63.20,63.17,63.14,63.11,63.11,63.14,63.23,63.32,63.38,63.37,63.37,63.39,63.40,63.39,63.33,63.28,63.26,63.31,63.49,63.71,63.80,63.82,63.81,63.79,63.75,63.73,63.71,63.64,63.62,63.62,63.62,63.61,63.55,63.53,63.33,62.98,62.95,62.87,62.85,62.89,62.89,62.89,62.87,62.84,62.80,62.84,62.88,62.90,62.90,62.90,62.90,62.90,62.89,62.86,62.85,62.82,62.82,62.86,62.90,62.90,62.90,62.90,62.90,62.95,62.96,62.94,62.91,62.98,62.94,62.90,62.90,62.88,62.88,62.86,62.84,62.85,62.87,62.87,62.89,62.91,62.91,62.90,62.90,62.89,62.89,62.90,62.91,62.91,62.90,62.91,62.94,62.91,62.82,62.85,62.90,62.91,62.89,62.87,62.94,62.94,62.94,62.96,62.92,62.93,62.95,62.98,63.01,63.06,63.08,63.05,62.99,63.07,63.14,63.14,63.08,63.00,63.00,63.03,63.06,63.06,63.04,63.02,63.02,63.03,63.00,63.03,63.05,63.05,63.05,63.07,63.11,63.16,63.20,63.18,63.11,63.04,63.00,63.00,63.00,63.00,63.00,62.99,62.97,62.93,62.90,62.90,62.90,62.91,62.95,62.98,62.98,62.93,62.87,62.82,62.80,62.75,62.78,62.80,62.80,62.80,62.80,62.80,62.79,62.75,62.75,62.78,62.80,62.79,62.75,62.75,62.77,62.80,62.80,62.80,62.77,62.74,62.70,62.74,62.78,62.79,62.76,62.72,62.71,62.71,62.72,62.76,62.87,62.89,62.82,62.68,62.66,62.64,62.53,62.37,62.33
66.70,66.60,66.52,66.47,66.43,66.41,66.36,66.31,66.26,66.24,66.20,66.14,66.06,65.98,65.94,65.90,65.83,65.76,65.69,65.64,65.65,65.65,65.50,65.17,64.48,63.70,63.10,63.06,63.09,63.13,63.16,63.15,63.16,63.18,63.20,63.20,63.23,63.25,63.26,63.28,63.28,63.25,63.23,63.21,63.20,63.21,63.25,63.29,63.30,63.30,63.30,63.30,63.30,63.28,63.26,63.23,63.21,63.22,63.25,63.26,63.25,63.22,63.18,63.13,63.11,63.11,63.13,63.20,63.27,63.32,63.32,63.32,63.34,63.36,63.36,63.32,63.28,63.27,63.30,63.41,63.66,63.79,63.84,63.87,63.86,63.84,63.83,63.82,63.77,63.77,63.77,63.77,63.74,63.63,63.60,63.40,63.04,62.91,62.83,62.84,62.88,62.86,62.86,62.82,62.79,62.79,62.85,62.89,62.90,62.90,62.90,62.90,62.90,62.88,62.84,62.84,62.81,62.83,62.88,62.90,62.90,62.88,62.85,62.85,62.92,62.94,62.91,62.86,62.94,62.92,62.90,62.91,62.93,62.89,62.87,62.86,62.86,62.88,62.86,62.86,62.91,62.94,62.92,62.90,62.90,62.90,62.90,62.88,62.87,62.90,62.90,62.92,62.88,62.80,62.81,62.84,62.86,62.86,62.83,62.87,62.89,62.90,62.92,62.89,62.88,62.89,62.91,62.89,62.92,62.93,62.92,62.88,62.92,62.96,62.97,62.93,62.88,62.89,62.93,62.97,62.97,62.95,62.94,62.94,62.97,62.98,63.00,63.01,63.02,63.04,63.03,63.07,63.11,63.12,63.08,63.04,63.01,63.00,63.00,62.99,62.97,62.95,62.95,62.94,62.94,62.94,62.95,62.95,62.94,62.95,62.97,62.99,62.94,62.87,62.81,62.78,62.75,62.77,62.80,62.80,62.80,62.79,62.80,62.79,62.75,62.75,62.78,62.80,62.80,62.76,62.75,62.77,62.80,62.80,62.80,62.77,62.74,62.70,62.74,62.77,62.78,62.76,62.72,62.71,62.70,62.70,62.72,62.82,62.85,62.80,62.68,62.64,62.63,62.54,62.39,62.31
66.74,66.69,66.63,66.56,66.49,66.44,66.39,66.32,66.25,66.21,66.18,66.12,66.04,65.97,65.93,65.87,65.80,65.73,65.69,65.64,65.64,65.62,65.48,65.21,64.53,63.74,63.11,63.03,63.04,63.08,63.10,63.11,63.15,63.18,63.20,63.21,63.23,63.25,63.26,63.27,63.25,63.22,63.21,63.20,63.21,63.24,63.27,63.29,63.30,63.30,63.30,63.30,63.30,63.30,63.29,63.26,63.22,63.20,63.21,63.25,63.26,63.23,63.20,63.16,63.12,63.11,63.12,63.17,63.21,63.25,63.28,63.28,63.30,63.31,63.32,63.31,63.29,63.28,63.29,63.33,63.59,63.75,63.84,63.89,63.90,63.90,63.90,63.89,63.87,63.88,63.88,63.86,63.80,63.68,63.63,63.44,63.09,62.87,62.81,62.83,62.88,62.84,62.82,62.78,62.77,62.80,62.87,62.89,62.90,62.90,62.90,62.90,62.90,62.88,62.83,62.81,62.80,62.83,62.89,62.90,62.90,62.86,62.81,62.81,62.87,62.90,62.87,62.82,62.88,62.89,62.89,62.90,62.96,62.90,62.88,62.88,62.88,62.89,62.85,62.85,62.91,62.97,62.92,62.90,62.89,62.90,62.89,62.86,62.85,62.90,62.89,62.89,62.85,62.80,62.81,62.82,62.84,62.85,62.80,62.80,62.85,62.89,62.88,62.86,62.83,62.84,62.86,62.81,62.81,62.80,62.81,62.81,62.81,62.81,62.81,62.81,62.80,62.81,62.85,62.88,62.88,62.88,62.88,62.89,62.91,62.96,62.97,62.97,62.99,63.01,62.98,63.00,63.02,63.01,62.96,62.96,62.96,62.98,62.99,62.97,62.93,62.90,62.89,62.90,62.93,62.95,62.97,62.97,62.95,62.93,62.93,62.97,62.93,62.86,62.79,62.77,62.75,62.77,62.79,62.80,62.79,62.79,62.79,62.78,62.75,62.74,62.77,62.81,62.81,62.76,62.75,62.77,62.80,62.80,62.80,62.78,62.74,62.71,62.73,62.75,62.77,62.76,62.74,62.72,62.71,62.70,62.70,62.76,62.80,62.77,62.68,62.62,62.61,62.56,62.43,62.31
66.78,66.77,66.72,66.65,66.55,66.46,66.41,66.35,66.30,66.26,66.23,66.18,66.12,66.07,66.01,65.94,65.87,65.82,65.76,65.67,65.63,65.59,65.46,65.21,64.60,63.85,63.23,63.12,63.09,63.09,63.11,63.14,63.17,63.19,63.21,63.24,63.24,63.25,63.25,63.25,63.22,63.21,63.20,63.21,63.24,63.28,63.29,63.30,63.30,63.30,63.30,63.30,63.30,63.30,63.30,63.29,63.26,63.22,63.21,63.21,63.23,63.26,63.26,63.22,63.16,63.11,63.11,63.12,63.16,63.20,63.22,63.22,63.23,63.25,63.29,63.30,63.30,63.30,63.30,63.31,63.60,63.79,63.87,63.90,63.90,63.90,63.90,63.90,63.89,63.89,63.90,63.87,63.81,63.72,63.65,63.43,63.05,62.85,62.76,62.80,62.88,62.88,62.83,62.83,62.86,62.87,62.89,62.90,62.90,62.90,62.90,62.90,62.90,62.90,62.88,62.82,62.80,62.81,62.83,62.89,62.90,62.86,62.80,62.80,62.82,62.83,62.82,62.80,62.82,62.82,62.82,62.83,62.84,62.83,62.82,62.83,62.84,62.89,62.89,62.88,62.89,62.90,62.89,62.88,62.87,62.88,62.89,62.88,62.87,62.89,62.83,62.85,62.82,62.77,62.87,62.86,62.84,62.81,62.78,62.75,62.79,62.82,62.81,62.78,62.79,62.82,62.84,62.87,62.83,62.82,62.84,62.86,62.84,62.84,62.85,62.85,62.83,62.80,62.80,62.81,62.81,62.82,62.83,62.84,62.85,62.86,62.85,62.85,62.85,62.84,62.81,62.81,62.84,62.86,62.84,62.84,62.87,62.92,62.94,62.93,62.91,62.88,62.87,62.83,62.82,62.85,62.89,62.89,62.88,62.88,62.88,62.91,62.90,62.86,62.81,62.80,62.79,62.78,62.79,62.80,62.76,62.77,62.77,62.76,62.73,62.74,62.78,62.82,62.83,62.76,62.75,62.77,62.80,62.80,62.80,62.78,62.76,62.73,62.73,62.71,62.70,62.70,62.71,62.73,62.75,62.77,62.75,62.74,62.74,62.73,62.69,62.65,62.65,62.61,62.49,62.31
66.80,66.80,66.78,66.73,66.62,66.46,66.38,66.33,66.29,66.25,66.21,66.17,66.13,66.09,66.03,65.96,65.90,65.85,65.81,65.74,65.67,65.59,65.42,65.20,64.67,63.99,63.34,63.14,63.08,63.09,63.11,63.15,63.18,63.20,63.21,63.23,63.23,63.23,63.23,63.22,63.20,63.20,63.20,63.22,63.26,63.29,63.30,63.30,63.30,63.30,63.30,63.30,63.30,63.30,63.30,63.30,63.28,63.23,63.21,63.20,63.21,63.24,63.23,63.19,63.15,63.11,63.10,63.10,63.12,63.16,63.19,63.20,63.20,63.22,63.25,63.26,63.28,63.30,63.31,63.33,63.59,63.75,63.82,63.82,63.84,63.85,63.86,63.88,63.88,63.88,63.86,63.82,63.75,63.69,63.63,63.40,63.00,62.84,62.74,62.79,62.88,62.90,62.86,62.87,62.90,62.90,62.90,62.90,62.90,62.89,62.90,62.90,62.90,62.90,62.90,62.82,62.80,62.80,62.81,62.89,62.90,62.86,62.80,62.80,62.80,62.80,62.80,62.80,62.80,62.80,62.81,62.81,62.80,62.80,62.80,62.81,62.85,62.89,62.90,62.88,62.85,62.85,62.85,62.83,62.82,62.82,62.87,62.87,62.86,62.86,62.78,62.81,62.81,62.79,62.89,62.86,62.82,62.78,62.74,62.72,62.75,62.78,62.77,62.75,62.77,62.79,62.82,62.88,62.87,62.85,62.85,62.87,62.84,62.84,62.84,62.83,62.80,62.77,62.77,62.79,62.78,62.81,62.82,62.82,62.81,62.81,62.79,62.79,62.80,62.79,62.77,62.76,62.77,62.78,62.77,62.78,62.81,62.85,62.86,62.87,62.86,62.84,62.83,62.80,62.79,62.80,62.84,62.84,62.84,62.84,62.84,62.85,62.87,62.86,62.84,62.83,62.81,62.79,62.78,62.77,62.73,62.73,62.72,62.71,62.69,62.72,62.76,62.79,62.80,62.75,62.74,62.75,62.77,62.77,62.78,62.78,62.76,62.73,62.71,62.68,62.68,62.70,62.71,62.73,62.76,62.78,62.76,62.72,62.70,62.68,62.67,62.67,62.68,62.64,62.53,62.34
66.80,66.80,66.82,66.81,66.69,66.45,66.34,66.28,66.24,66.20,66.16,66.13,66.09,66.05,66.01,65.97,65.91,65.85,65.86,65.82,65.74,65.60,65.39,65.17,64.75,64.14,63.44,63.12,63.06,63.08,63.11,63.16,63.19,63.20,63.20,63.20,63.20,63.20,63.20,63.20,63.20,63.20,63.20,63.22,63.27,63.29,63.30,63.30,63.30,63.30,63.30,63.30,63.30,63.30,63.30,63.30,63.28,63.23,63.21,63.20,63.20,63.19,63.15,63.12,63.10,63.10,63.10,63.09,63.09,63.12,63.16,63.19,63.20,63.20,63.20,63.20,63.25,63.29,63.32,63.38,63.56,63.68,63.72,63.69,63.75,63.77,63.80,63.84,63.85,63.85,63.80,63.73,63.66,63.62,63.59,63.36,62.94,62.82,62.74,62.79,62.88,62.90,62.90,62.90,62.90,62.90,62.90,62.90,62.89,62.87,62.90,62.90,62.90,62.90,62.90,62.82,62.80,62.80,62.81,62.89,62.90,62.86,62.80,62.80,62.80,62.80,62.80,62.80,62.80,62.80,62.82,62.83,62.80,62.80,62.80,62.83,62.90,62.90,62.89,62.86,62.80,62.80,62.80,62.77,62.74,62.75,62.83,62.83,62.82,62.83,62.73,62.77,62.80,62.82,62.88,62.83,62.80,62.77,62.70,62.71,62.73,62.75,62.75,62.75,62.75,62.76,62.79,62.87,62.91,62.89,62.85,62.85,62.84,62.81,62.80,62.78,62.74,62.73,62.75,62.79,62.78,62.84,62.84,62.82,62.79,62.78,62.77,62.78,62.80,62.80,62.80,62.79,62.77,62.74,62.75,62.76,62.77,62.78,62.76,62.79,62.79,62.79,62.79,62.80,62.80,62.80,62.80,62.80,62.80,62.80,62.80,62.80,62.83,62.86,62.87,62.85,62.82,62.80,62.77,62.73,62.69,62.68,62.66,62.64,62.63,62.68,62.73,62.75,62.75,62.73,62.72,62.73,62.73,62.73,62.76,62.77,62.76,62.73,62.69,62.66,62.68,62.72,62.73,62.72,62.74,62.76,62.75,62.71,62.66,62.63,62.64,62.69,62.70,62.67,62.58,62.38
66.79,66.74,66.71,66.64,66.52,66.30,66.19,66.15,66.12,66.11,66.10,66.08,66.05,66.02,66.00,65.96,65.91,65.87,65.90,65.86,65.76,65.62,65.45,65.25,64.88,64.30,63.56,63.17,63.08,63.09,63.11,63.16,63.19,63.20,63.20,63.20,63.20,63.20,63.20,63.20,63.20,63.21,63.23,63.26,63.29,63.30,63.30,63.30,63.29,63.28,63.29,63.30,63.30,63.30,63.30,63.30,63.29,63.25,63.22,63.20,63.20,63.20,63.18,63.14,63.11,63.10,63.10,63.08,63.08,63.10,63.12,63.15,63.18,63.20,63.20,63.20,63.24,63.27,63.31,63.38,63.54,63.62,63.64,63.64,63.68,63.71,63.73,63.75,63.75,63.73,63.70,63.64,63.56,63.54,63.44,63.19,62.85,62.80,62.76,62.80,62.88,62.90,62.90,62.90,62.90,62.90,62.90,62.88,62.85,62.84,62.89,62.90,62.90,62.90,62.90,62.82,62.80,62.80,62.81,62.89,62.90,62.86,62.80,62.80,62.83,62.82,62.80,62.80,62.80,62.80,62.83,62.87,62.80,62.80,62.82,62.85,62.90,62.90,62.88,62.84,62.80,62.80,62.80,62.79,62.78,62.78,62.81,62.83,62.83,62.79,62.69,62.75,62.80,62.82,62.89,62.86,62.81,62.75,62.66,62.69,62.71,62.70,62.68,62.71,62.71,62.71,62.73,62.83,62.89,62.84,62.79,62.82,62.80,62.77,62.75,62.75,62.73,62.72,62.76,62.80,62.80,62.82,62.83,62.80,62.77,62.73,62.74,62.77,62.80,62.79,62.76,62.74,62.73,62.71,62.72,62.74,62.76,62.77,62.77,62.81,62.78,62.75,62.81,62.84,62.85,62.85,62.83,62.82,62.83,62.82,62.80,62.80,62.83,62.87,62.88,62.85,62.80,62.76,62.74,62.74,62.72,62.68,62.65,62.65,62.67,62.69,62.72,62.75,62.77,62.77,62.77,62.77,62.76,62.74,62.75,62.76,62.74,62.71,62.70,62.69,62.70,62.74,62.77,62.75,62.73,62.73,62.75,62.73,62.66,62.60,62.59,62.63,62.66,62.67,62.64,62.47
66.72,66.59,66.50,66.43,66.33,66.16,66.07,66.04,66.03,66.02,66.02,66.02,66.01,66.01,66.00,65.97,65.93,65.90,65.93,65.89,65.79,65.66,65.52,65.33,64.99,64.45,63.66,63.21,63.10,63.10,63.11,63.16,63.19,63.20,63.20,63.20,63.20,63.20,63.20,63.20,63.21,63.23,63.26,63.29,63.30,63.30,63.29,63.28,63.26,63.25,63.26,63.28,63.28,63.28,63.28,63.28,63.28,63.27,63.23,63.21,63.20,63.20,63.20,63.16,63.12,63.10,63.11,63.10,63.10,63.11,63.11,63.14,63.17,63.19,63.20,63.20,63.21,63.25,63.30,63.38,63.52,63.58,63.59,63.59,63.62,63.66,63.69,63.69,63.70,63.66,63.63,63.58,63.51,63.51,63.34,63.07,62.79,62.77,62.77,62.82,62.89,62.90,62.90,62.90,62.90,62.90,62.90,62.86,62.82,62.82,62.89,62.90,62.90,62.90,62.90,62.84,62.81,62.80,62.81,62.89,62.90,62.86,62.80,62.80,62.85,62.83,62.80,62.80,62.80,62.80,62.84,62.88,62.81,62.82,62.85,62.88,62.90,62.88,62.85,62.82,62.80,62.80,62.80,62.80,62.80,62.80,62.82,62.85,62.84,62.78,62.70,62.74,62.78,62.80,62.87,62.87,62.82,62.74,62.63,62.67,62.67,62.67,62.66,62.69,62.68,62.67,62.70,62.81,62.85,62.80,62.75,62.80,62.78,62.74,62.72,62.72,62.72,62.72,62.76,62.80,62.81,62.81,62.81,62.79,62.76,62.70,62.69,62.72,62.74,62.73,62.70,62.71,62.71,62.69,62.69,62.72,62.75,62.76,62.74,62.79,62.77,62.73,62.80,62.86,62.86,62.84,62.81,62.80,62.81,62.81,62.80,62.81,62.84,62.87,62.88,62.85,62.81,62.77,62.75,62.75,62.73,62.68,62.65,62.65,62.69,62.69,62.71,62.74,62.77,62.77,62.77,62.77,62.76,62.74,62.74,62.74,62.73,62.70,62.70,62.70,62.71,62.75,62.79,62.77,62.74,62.72,62.74,62.73,62.66,62.60,62.59,62.61,62.65,62.68,62.67,62.57
66.57,66.34,66.19,66.13,66.12,66.02,65.98,65.96,65.96,65.94,65.94,65.95,65.97,66.00,66.02,66.01,65.98,65.96,65.95,65.90,65.82,65.72,65.61,65.41,65.10,64.56,63.75,63.23,63.11,63.10,63.11,63.16,63.19,63.20,63.20,63.20,63.20,63.20,63.20,63.20,63.23,63.26,63.28,63.30,63.30,63.30,63.28,63.25,63.22,63.21,63.22,63.24,63.25,63.25,63.25,63.25,63.25,63.28,63.24,63.21,63.20,63.20,63.20,63.16,63.12,63.11,63.14,63.16,63.16,63.15,63.12,63.14,63.17,63.19,63.20,63.20,63.17,63.21,63.29,63.38,63.52,63.58,63.58,63.55,63.59,63.65,63.67,63.65,63.69,63.64,63.61,63.58,63.52,63.53,63.32,63.02,62.75,62.73,62.77,62.83,62.89,62.90,62.90,62.90,62.90,62.90,62.90,62.85,62.81,62.82,62.89,62.90,62.90,62.90,62.90,62.88,62.83,62.80,62.81,62.89,62.90,62.86,62.80,62.80,62.87,62.84,62.80,62.80,62.80,62.80,62.84,62.88,62.81,62.86,62.89,62.90,62.90,62.84,62.81,62.80,62.80,62.80,62.80,62.80,62.80,62.81,62.86,62.88,62.86,62.80,62.76,62.73,62.72,62.75,62.82,62.87,62.83,62.73,62.60,62.62,62.62,62.65,62.68,62.68,62.65,62.66,62.72,62.80,62.80,62.76,62.74,62.80,62.78,62.73,62.70,62.70,62.70,62.71,62.76,62.80,62.80,62.80,62.80,62.79,62.76,62.68,62.63,62.62,62.62,62.62,62.63,62.67,62.69,62.67,62.64,62.69,62.74,62.73,62.65,62.71,62.75,62.76,62.77,62.85,62.82,62.76,62.71,62.71,62.73,62.77,62.81,62.83,62.88,62.88,62.86,62.84,62.88,62.86,62.82,62.76,62.72,62.68,62.66,62.66,62.70,62.70,62.71,62.71,62.72,62.72,62.72,62.72,62.72,62.71,62.71,62.71,62.71,62.70,62.70,62.70,62.71,62.72,62.77,62.79,62.77,62.73,62.71,62.70,62.66,62.63,62.63,62.66,62.67,62.68,62.69,62.67
66.31,66.14,66.03,65.99,66.00,65.95,65.93,65.93,65.93,65.92,65.92,65.94,65.97,65.99,65.99,65.97,65.94,65.93,65.92,65.88,65.81,65.73,65.66,65.48,65.20,64.69,63.87,63.30,63.14,63.11,63.11,63.16,63.19,63.20,63.20,63.20,63.20,63.20,63.21,63.23,63.26,63.28,63.29,63.30,63.30,63.30,63.27,63.24,63.20,63.20,63.21,63.22,63.22,63.22,63.22,63.22,63.22,63.24,63.22,63.21,63.20,63.20,63.20,63.16,63.13,63.13,63.14,63.14,63.14,63.13,63.11,63.13,63.16,63.19,63.20,63.20,63.18,63.20,63.27,63.41,63.50,63.52,63.51,63.52,63.57,63.62,63.65,63.66,63.65,63.59,63.58,63.58,63.56,63.54,63.31,63.02,62.75,62.71,62.76,62.83,62.89,62.90,62.90,62.90,62.90,62.90,62.86,62.82,62.80,62.82,62.89,62.90,62.90,62.90,62.90,62.89,62.84,62.80,62.81,62.89,62.90,62.86,62.80,62.80,62.84,62.82,62.80,62.80,62.80,62.80,62.84,62.88,62.81,62.87,62.90,62.90,62.90,62.83,62.80,62.80,62.80,62.80,62.80,62.80,62.79,62.76,62.83,62.87,62.86,62.79,62.74,62.72,62.73,62.79,62.85,62.84,62.79,62.72,62.66,62.66,62.66,62.67,62.69,62.69,62.67,62.69,62.73,62.80,62.79,62.75,62.74,62.78,62.75,62.71,62.70,62.70,62.70,62.71,62.76,62.80,62.80,62.80,62.80,62.79,62.76,62.68,62.62,62.60,62.60,62.60,62.62,62.67,62.69,62.67,62.64,62.69,62.73,62.71,62.62,62.67,62.72,62.74,62.73,62.84,62.82,62.75,62.70,62.70,62.69,62.72,62.78,62.81,62.84,62.84,62.82,62.81,62.88,62.89,62.86,62.81,62.76,62.73,62.71,62.70,62.72,62.73,62.74,62.75,62.75,62.76,62.76,62.76,62.76,62.76,62.76,62.75,62.74,62.72,62.71,62.71,62.72,62.75,62.80,62.80,62.77,62.73,62.71,62.68,62.65,62.63,62.63,62.61,62.62,62.65,62.67,62.65
66.11,66.01,65.94,65.92,65.92,65.90,65.90,65.90,65.91,65.91,65.93,65.95,65.98,65.99,65.96,65.93,65.91,65.91,65.89,65.86,65.81,65.75,65.70,65.54,65.31,64.83,64.00,63.36,63.17,63.12,63.11,63.16,63.19,63.20,63.20,63.20,63.20,63.21,63.23,63.26,63.29,63.30,63.30,63.30,63.30,63.30,63.27,63.23,63.20,63.20,63.20,63.20,63.20,63.20,63.20,63.20,63.20,63.21,63.20,63.20,63.20,63.20,63.20,63.16,63.15,63.16,63.14,63.12,63.12,63.12,63.10,63.11,63.14,63.18,63.19,63.19,63.18,63.18,63.23,63.38,63.43,63.41,63.39,63.43,63.49,63.52,63.56,63.60,63.57,63.54,63.55,63.59,63.59,63.53,63.31,63.01,62.75,62.71,62.77,62.84,62.89,62.90,62.90,62.90,62.90,62.88,62.82,62.80,62.80,62.82,62.89,62.90,62.90,62.90,62.90,62.89,62.84,62.80,62.81,62.89,62.90,62.86,62.80,62.82,62.80,62.80,62.80,62.80,62.80,62.80,62.84,62.88,62.81,62.87,62.90,62.90,62.90,62.84,62.81,62.80,62.80,62.80,62.80,62.80,62.78,62.73,62.79,62.85,62.85,62.76,62.71,62.71,62.75,62.83,62.87,62.81,62.76,62.72,62.72,62.70,62.70,62.70,62.70,62.70,62.70,62.71,62.74,62.80,62.79,62.75,62.73,62.76,62.71,62.70,62.70,62.70,62.70,62.71,62.75,62.80,62.80,62.80,62.80,62.79,62.76,62.68,62.62,62.60,62.60,62.60,62.62,62.67,62.69,62.67,62.64,62.69,62.72,62.70,62.61,62.64,62.69,62.72,62.70,62.84,62.83,62.77,62.72,62.70,62.68,62.70,62.75,62.79,62.80,62.80,62.79,62.79,62.88,62.90,62.89,62.86,62.81,62.79,62.77,62.75,62.74,62.75,62.76,62.77,62.78,62.80,62.80,62.80,62.79,62.79,62.79,62.78,62.76,62.74,62.73,62.73,62.74,62.78,62.82,62.80,62.77,62.74,62.72,62.67,62.64,62.63,62.62,62.56,62.57,62.60,62.63,62.61
66.13,66.06,66.00,65.96,65.94,65.91,65.90,65.90,65.90,65.90,65.93,65.97,65.99,66.00,65.99,65.98,65.97,65.93,65.87,65.83,65.80,65.78,65.74,65.61,65.42,64.96,64.08,63.39,63.18,63.12,63.11,63.16,63.19,63.20,63.20,63.20,63.20,63.23,63.26,63.29,63.30,63.30,63.30,63.30,63.30,63.30,63.27,63.23,63.20,63.20,63.20,63.20,63.20,63.20,63.20,63.20,63.20,63.20,63.20,63.20,63.20,63.20,63.20,63.19,63.19,63.19,63.18,63.14,63.15,63.15,63.12,63.11,63.12,63.13,63.13,63.13,63.13,63.13,63.14,63.17,63.19,63.18,63.18,63.18,63.20,63.21,63.24,63.29,63.35,63.49,63.57,63.59,63.58,63.53,63.29,63.00,62.75,62.71,62.80,62.87,62.89,62.90,62.90,62.90,62.88,62.83,62.81,62.80,62.80,62.82,62.89,62.90,62.90,62.90,62.90,62.84,62.81,62.80,62.81,62.89,62.90,62.86,62.82,62.88,62.82,62.80,62.79,62.78,62.80,62.80,62.84,62.89,62.83,62.88,62.90,62.90,62.90,62.88,62.83,62.80,62.80,62.80,62.80,62.80,62.79,62.78,62.79,62.84,62.83,62.72,62.70,62.71,62.74,62.80,62.83,62.79,62.78,62.77,62.74,62.71,62.70,62.70,62.70,62.70,62.70,62.71,62.74,62.80,62.79,62.74,62.71,62.71,62.70,62.70,62.70,62.70,62.70,62.71,62.74,62.78,62.80,62.80,62.80,62.79,62.77,62.68,62.62,62.60,62.60,62.60,62.62,62.67,62.69,62.67,62.64,62.69,62.71,62.67,62.61,62.64,62.70,62.73,62.70,62.85,62.87,62.82,62.76,62.75,62.76,62.76,62.77,62.78,62.78,62.77,62.77,62.79,62.88,62.90,62.89,62.87,62.85,62.84,62.84,62.82,62.79,62.75,62.74,62.74,62.75,62.79,62.80,62.79,62.77,62.75,62.75,62.75,62.75,62.76,62.77,62.75,62.75,62.77,62.78,62.76,62.76,62.76,62.74,62.69,62.67,62.66,62.64,62.58,62.54,62.55,62.58,62.59
66.19,66.11,66.06,66.02,65.99,65.96,65.94,65.92,65.91,65.90,65.92,65.95,65.97,65.96,65.97,65.98,65.98,65.94,65.88,65.83,65.80,65.77,65.73,65.63,65.46,65.03,64.18,63.44,63.19,63.12,63.11,63.16,63.19,63.20,63.20,63.20,63.22,63.25,63.28,63.30,63.30,63.30,63.30,63.30,63.30,63.30,63.27,63.23,63.20,63.20,63.20,63.20,63.20,63.20,63.20,63.20,63.20,63.20,63.20,63.20,63.20,63.20,63.20,63.20,63.20,63.20,63.17,63.16,63.17,63.17,63.13,63.11,63.12,63.14,63.15,63.15,63.15,63.15,63.14,63.12,63.13,63.12,63.12,63.12,63.11,63.13,63.14,63.17,63.27,63.46,63.56,63.57,63.55,63.50,63.25,62.96,62.74,62.70,62.81,62.87,62.87,62.90,62.90,62.90,62.87,62.81,62.80,62.80,62.80,62.82,62.89,62.90,62.90,62.90,62.90,62.83,62.80,62.80,62.81,62.89,62.90,62.86,62.82,62.90,62.82,62.80,62.78,62.75,62.79,62.80,62.84,62.89,62.86,62.89,62.90,62.91,62.92,62.88,62.83,62.80,62.80,62.80,62.80,62.80,62.80,62.80,62.76,62.81,62.81,62.70,62.70,62.69,62.70,62.74,62.77,62.75,62.76,62.76,62.73,62.71,62.70,62.70,62.70,62.70,62.70,62.71,62.74,62.80,62.79,62.74,62.70,62.70,62.70,62.70,62.70,62.70,62.70,62.70,62.73,62.76,62.79,62.78,62.78,62.78,62.77,62.69,62.63,62.60,62.60,62.60,62.62,62.67,62.69,62.67,62.65,62.71,62.72,62.67,62.62,62.66,62.71,62.75,62.70,62.86,62.89,62.86,62.82,62.79,62.79,62.79,62.78,62.76,62.76,62.76,62.76,62.77,62.85,62.87,62.86,62.85,62.84,62.84,62.84,62.83,62.81,62.77,62.75,62.74,62.75,62.77,62.78,62.77,62.74,62.71,62.71,62.72,62.73,62.75,62.77,62.76,62.75,62.75,62.76,62.75,62.74,62.74,62.73,62.70,62.69,62.68,62.64,62.60,62.55,62.52,62.52,62.55
66.26,66.17,66.13,66.11,66.07,66.04,66.00,65.97,65.93,65.92,65.91,65.92,65.92,65.91,65.93,65.96,65.96,65.93,65.90,65.86,65.80,65.74,65.70,65.62,65.47,65.07,64.28,63.51,63.20,63.11,63.11,63.16,63.19,63.20,63.20,63.20,63.25,63.28,63.30,63.30,63.30,63.30,63.30,63.30,63.30,63.30,63.27,63.23,63.20,63.20,63.20,63.20,63.20,63.20,63.20,63.20,63.20,63.20,63.20,63.20,63.20,63.20,63.20,63.20,63.20,63.19,63.15,63.17,63.19,63.18,63.13,63.11,63.14,63.18,63.20,63.20,63.20,63.20,63.19,63.15,63.16,63.15,63.14,63.14,63.12,63.15,63.15,63.14,63.25,63.44,63.53,63.54,63.50,63.47,63.20,62.92,62.74,62.70,62.81,62.86,62.86,62.89,62.90,62.90,62.87,62.81,62.80,62.80,62.80,62.82,62.89,62.90,62.90,62.90,62.90,62.83,62.80,62.80,62.81,62.89,62.90,62.86,62.82,62.90,62.82,62.80,62.77,62.71,62.78,62.80,62.84,62.90,62.90,62.90,62.90,62.92,62.95,62.86,62.82,62.80,62.80,62.80,62.80,62.80,62.80,62.79,62.73,62.77,62.79,62.70,62.69,62.66,62.65,62.67,62.70,62.70,62.72,62.72,62.70,62.70,62.70,62.70,62.70,62.70,62.70,62.71,62.74,62.80,62.78,62.74,62.70,62.70,62.70,62.70,62.70,62.70,62.70,62.70,62.71,62.73,62.78,62.74,62.74,62.76,62.77,62.69,62.63,62.60,62.60,62.60,62.62,62.67,62.69,62.67,62.66,62.73,62.74,62.68,62.65,62.68,62.74,62.77,62.70,62.86,62.90,62.89,62.87,62.83,62.80,62.80,62.80,62.73,62.74,62.75,62.76,62.75,62.81,62.82,62.82,62.82,62.82,62.82,62.82,62.82,62.80,62.79,62.78,62.77,62.75,62.75,62.75,62.74,62.70,62.66,62.66,62.68,62.70,62.71,62.75,62.75,62.73,62.71,62.74,62.74,62.72,62.71,62.71,62.70,62.70,62.68,62.65,62.61,62.56,62.50,62.46,62.52
66.42,66.42,66.42,66.40,66.32,66.22,66.16,66.10,66.03,65.98,65.97,65.97,65.96,65.92,65.91,65.92,65.92,65.91,65.88,65.84,65.80,65.75,65.71,65.64,65.50,65.15,64.46,63.66,63.26,63.11,63.11,63.16,63.19,63.20,63.20,63.20,63.25,63.28,63.30,63.30,63.30,63.30,63.30,63.30,63.30,63.30,63.27,63.23,63.20,63.20,63.20,63.20,63.20,63.20,63.20,63.20,63.20,63.20,63.20,63.20,63.20,63.20,63.22,63.24,63.24,63.23,63.20,63.19,63.18,63.16,63.12,63.10,63.14,63.17,63.17,63.19,63.20,63.18,63.17,63.18,63.17,63.15,63.15,63.17,63.15,63.15,63.14,63.14,63.25,63.39,63.46,63.46,63.42,63.42,63.20,62.94,62.74,62.70,62.81,62.88,62.89,62.90,62.90,62.90,62.88,62.85,62.81,62.80,62.80,62.82,62.89,62.90,62.90,62.90,62.90,62.83,62.80,62.80,62.81,62.88,62.90,62.86,62.82,62.90,62.82,62.78,62.74,62.71,62.78,62.80,62.84,62.90,62.90,62.90,62.93,62.96,62.98,62.85,62.81,62.80,62.80,62.80,62.80,62.80,62.79,62.74,62.72,62.76,62.79,62.75,62.70,62.65,62.65,62.70,62.75,62.75,62.73,62.71,62.70,62.70,62.70,62.70,62.70,62.70,62.70,62.70,62.72,62.75,62.77,62.74,62.70,62.70,62.70,62.70,62.70,62.70,62.70,62.70,62.70,62.71,62.73,62.71,62.72,62.75,62.77,62.69,62.63,62.60,62.60,62.60,62.62,62.67,62.70,62.69,62.70,62.74,62.74,62.69,62.68,62.72,62.77,62.78,62.70,62.86,62.90,62.90,62.89,62.88,62.85,62.84,62.83,62.79,62.74,62.72,62.73,62.77,62.83,62.82,62.82,62.84,62.87,62.87,62.87,62.87,62.84,62.80,62.79,62.78,62.75,62.72,62.72,62.71,62.70,62.68,62.66,62.64,62.64,62.67,62.71,62.72,62.71,62.71,62.72,62.71,62.69,62.67,62.67,62.66,62.66,62.66,62.64,62.61,62.57,62.52,62.50,62.54
66.53,66.56,66.59,66.57,66.50,66.39,66.30,66.20,66.10,66.04,66.02,66.00,65.97,65.92,65.89,65.89,65.90,65.91,65.89,65.86,65.82,65.79,65.75,65.67,65.51,65.17,64.53,63.73,63.29,63.11,63.11,63.16,63.18,63.19,63.19,63.20,63.24,63.27,63.29,63.30,63.30,63.30,63.30,63.30,63.30,63.30,63.27,63.23,63.20,63.20,63.20,63.20,63.20,63.20,63.20,63.20,63.20,63.20,63.20,63.21,63.21,63.20,63.23,63.26,63.26,63.25,63.22,63.20,63.18,63.14,63.11,63.12,63.15,63.17,63.15,63.18,63.19,63.17,63.15,63.19,63.18,63.17,63.16,63.17,63.17,63.16,63.14,63.14,63.23,63.32,63.36,63.35,63.31,63.31,63.15,62.93,62.74,62.70,62.80,62.86,62.87,62.87,62.89,62.90,62.89,62.87,62.82,62.80,62.80,62.82,62.89,62.90,62.91,62.92,62.90,62.83,62.80,62.80,62.81,62.86,62.89,62.86,62.82,62.90,62.82,62.76,62.71,62.71,62.78,62.80,62.84,62.90,62.90,62.90,62.94,62.98,62.97,62.83,62.80,62.80,62.80,62.80,62.80,62.79,62.76,62.72,62.73,62.77,62.78,62.75,62.70,62.64,62.65,62.72,62.78,62.78,62.75,62.72,62.70,62.70,62.70,62.70,62.70,62.70,62.70,62.71,62.72,62.73,62.77,62.74,62.70,62.70,62.70,62.70,62.70,62.70,62.70,62.70,62.70,62.70,62.71,62.70,62.71,62.74,62.76,62.67,62.62,62.60,62.60,62.60,62.62,62.67,62.70,62.70,62.72,62.75,62.74,62.70,62.70,62.74,62.79,62.80,62.72,62.86,62.90,62.91,62.92,62.93,62.91,62.88,62.85,62.82,62.72,62.69,62.72,62.78,62.86,62.85,62.84,62.86,62.89,62.89,62.89,62.87,62.84,62.81,62.80,62.78,62.75,62.71,62.70,62.69,62.68,62.66,62.65,62.63,62.62,62.63,62.68,62.69,62.69,62.69,62.70,62.71,62.68,62.64,62.63,62.62,62.63,62.63,62.63,62.60,62.58,62.55,62.52,62.53
66.59,66.60,66.60,66.60,66.59,66.55,66.43,66.28,66.14,66.10,66.06,66.01,65.96,65.90,65.88,65.89,65.91,65.93,65.93,65.89,65.87,65.85,65.81,65.71,65.50,65.11,64.47,63.70,63.27,63.10,63.11,63.16,63.16,63.17,63.18,63.20,63.22,63.25,63.28,63.30,63.30,63.30,63.30,63.30,63.30,63.30,63.27,63.23,63.20,63.20,63.20,63.20,63.20,63.20,63.20,63.20,63.20,63.20,63.20,63.23,63.22,63.18,63.23,63.28,63.27,63.24,63.21,63.20,63.17,63.12,63.10,63.15,63.18,63.17,63.14,63.17,63.19,63.16,63.14,63.18,63.19,63.19,63.17,63.14,63.17,63.18,63.16,63.13,63.19,63.22,63.24,63.22,63.16,63.15,63.04,62.88,62.73,62.70,62.77,62.81,62.82,62.82,62.87,62.90,62.90,62.89,62.82,62.80,62.80,62.82,62.89,62.90,62.94,62.96,62.91,62.83,62.80,62.80,62.80,62.81,62.87,62.86,62.82,62.90,62.82,62.75,62.70,62.71,62.78,62.80,62.84,62.90,62.90,62.90,62.95,62.98,62.90,62.82,62.80,62.80,62.80,62.80,62.79,62.75,62.71,62.71,62.77,62.79,62.76,62.71,62.69,62.64,62.65,62.72,62.78,62.79,62.78,62.76,62.70,62.70,62.70,62.70,62.70,62.70,62.71,62.74,62.76,62.72,62.77,62.74,62.70,62.70,62.70,62.69,62.69,62.70,62.70,62.70,62.70,62.70,62.70,62.70,62.71,62.73,62.74,62.62,62.60,62.60,62.60,62.60,62.62,62.67,62.70,62.70,62.73,62.76,62.74,62.70,62.70,62.75,62.81,62.82,62.76,62.87,62.91,62.92,62.95,62.99,62.97,62.94,62.88,62.80,62.68,62.67,62.72,62.78,62.87,62.89,62.89,62.88,62.87,62.87,62.86,62.84,62.80,62.80,62.79,62.77,62.74,62.71,62.69,62.67,62.64,62.61,62.63,62.63,62.63,62.61,62.64,62.67,62.68,62.68,62.71,62.72,62.68,62.62,62.59,62.59,62.60,62.60,62.60,62.60,62.60,62.58,62.54,62.51
66.51,66.47,66.47,66.49,66.50,66.47,66.36,66.23,66.12,66.10,66.07,66.02,65.97,65.93,65.90,65.90,65.90,65.91,65.91,65.90,65.89,65.88,65.84,65.73,65.55,65.19,64.58,63.76,63.27,63.07,63.09,63.15,63.15,63.14,63.14,63.18,63.20,63.24,63.28,63.30,63.30,63.30,63.30,63.30,63.30,63.30,63.27,63.23,63.20,63.20,63.20,63.20,63.20,63.20,63.20,63.20,63.20,63.20,63.20,63.21,63.21,63.19,63.25,63.28,63.27,63.23,63.21,63.20,63.16,63.12,63.10,63.15,63.19,63.17,63.13,63.13,63.17,63.16,63.13,63.17,63.19,63.20,63.19,63.17,63.15,63.17,63.16,63.13,63.18,63.17,63.14,63.10,63.06,63.02,62.95,62.85,62.73,62.70,62.79,62.80,62.78,62.79,62.83,62.84,62.84,62.84,62.81,62.80,62.80,62.81,62.84,62.84,62.87,62.88,62.85,62.81,62.80,62.80,62.80,62.80,62.85,62.83,62.79,62.88,62.81,62.75,62.71,62.71,62.78,62.80,62.85,62.92,62.89,62.88,62.92,62.95,62.88,62.82,62.80,62.79,62.78,62.78,62.76,62.72,62.70,62.72,62.76,62.74,62.71,62.68,62.68,62.65,62.66,62.71,62.74,62.74,62.72,62.70,62.70,62.69,62.69,62.70,62.70,62.70,62.71,62.74,62.77,62.72,62.76,62.73,62.70,62.70,62.69,62.67,62.67,62.70,62.69,62.69,62.69,62.70,62.70,62.70,62.71,62.73,62.73,62.62,62.60,62.60,62.60,62.61,62.64,62.67,62.70,62.72,62.76,62.77,62.74,62.70,62.71,62.77,62.84,62.86,62.78,62.88,62.92,62.95,62.98,63.00,62.98,62.95,62.89,62.78,62.67,62.66,62.71,62.78,62.88,62.90,62.89,62.88,62.86,62.86,62.85,62.83,62.80,62.80,62.79,62.76,62.72,62.69,62.67,62.64,62.61,62.60,62.60,62.60,62.59,62.57,62.61,62.64,62.64,62.64,62.66,62.67,62.63,62.59,62.56,62.58,62.59,62.60,62.60,62.60,62.59,62.56,62.51,62.47
66.39,66.32,66.32,66.34,66.37,66.33,66.24,66.15,66.09,66.08,66.05,66.02,65.98,65.95,65.91,65.90,65.90,65.90,65.90,65.90,65.90,65.89,65.86,65.75,65.60,65.30,64.74,63.89,63.34,63.09,63.07,63.14,63.15,63.13,63.12,63.15,63.18,63.22,63.26,63.29,63.30,63.30,63.30,63.30,63.30,63.30,63.27,63.23,63.20,63.20,63.20,63.20,63.20,63.20,63.20,63.20,63.20,63.20,63.20,63.21,63.21,63.22,63.27,63.28,63.26,63.22,63.20,63.19,63.16,63.12,63.10,63.16,63.19,63.17,63.13,63.10,63.15,63.15,63.13,63.16,63.19,63.20,63.20,63.19,63.14,63.15,63.14,63.13,63.17,63.14,63.08,63.02,63.00,62.93,62.89,62.82,62.74,62.71,62.80,62.80,62.75,62.77,62.79,62.79,62.78,62.80,62.79,62.80,62.81,62.80,62.80,62.80,62.80,62.80,62.80,62.80,62.80,62.80,62.81,62.80,62.83,62.80,62.77,62.86,62.79,62.75,62.73,62.72,62.78,62.80,62.85,62.91,62.86,62.83,62.87,62.90,62.86,62.81,62.80,62.78,62.76,62.76,62.72,62.70,62.71,62.73,62.75,62.71,62.67,62.66,62.67,62.65,62.66,62.70,62.69,62.69,62.66,62.66,62.70,62.67,62.68,62.69,62.70,62.70,62.71,62.74,62.77,62.71,62.74,62.72,62.70,62.70,62.68,62.65,62.66,62.70,62.69,62.67,62.68,62.70,62.70,62.70,62.71,62.73,62.74,62.62,62.60,62.60,62.60,62.61,62.65,62.68,62.71,62.73,62.79,62.78,62.74,62.70,62.71,62.79,62.87,62.89,62.80,62.90,62.95,62.98,63.00,62.99,62.97,62.93,62.86,62.74,62.65,62.64,62.69,62.78,62.88,62.90,62.89,62.87,62.85,62.86,62.85,62.83,62.81,62.80,62.78,62.75,62.70,62.68,62.64,62.61,62.60,62.60,62.58,62.56,62.54,62.54,62.57,62.59,62.60,62.59,62.61,62.62,62.59,62.56,62.54,62.56,62.58,62.59,62.59,62.59,62.58,62.53,62.45,62.40
66.21,66.16,66.15,66.16,66.16,66.13,66.08,66.04,66.03,66.02,66.01,66.00,65.99,65.96,65.92,65.90,65.90,65.90,65.91,65.91,65.90,65.90,65.88,65.78,65.66,65.42,64.96,64.22,63.60,63.21,63.07,63.13,63.17,63.16,63.13,63.10,63.14,63.18,63.22,63.26,63.29,63.30,63.30,63.30,63.30,63.29,63.26,63.21,63.18,63.19,63.20,63.20,63.20,63.20,63.20,63.20,63.20,63.20,63.20,63.23,63.26,63.27,63.28,63.26,63.23,63.20,63.20,63.16,63.12,63.10,63.10,63.16,63.19,63.17,63.13,63.10,63.15,63.15,63.12,63.11,63.17,63.19,63.20,63.20,63.15,63.13,63.12,63.13,63.16,63.14,63.10,63.06,63.03,62.95,62.86,62.81,62.78,62.72,62.75,62.78,62.77,62.76,62.78,62.76,62.75,62.79,62.76,62.81,62.83,62.81,62.80,62.80,62.80,62.80,62.80,62.80,62.80,62.81,62.83,62.80,62.78,62.78,62.79,62.81,62.77,62.77,62.77,62.74,62.76,62.78,62.80,62.79,62.78,62.74,62.76,62.80,62.81,62.80,62.78,62.74,62.71,62.71,62.70,62.70,62.71,62.75,62.75,62.74,62.69,62.62,62.65,62.65,62.67,62.69,62.66,62.66,62.65,62.66,62.70,62.66,62.63,62.65,62.70,62.70,62.71,62.73,62.74,62.70,62.71,62.71,62.70,62.69,62.66,62.66,62.68,62.70,62.68,62.65,62.66,62.70,62.70,62.70,62.71,62.73,62.74,62.62,62.60,62.60,62.60,62.61,62.64,62.68,62.71,62.73,62.79,62.78,62.74,62.70,62.72,62.81,62.89,62.91,62.84,62.94,62.98,62.99,63.00,62.96,62.90,62.82,62.75,62.67,62.62,62.63,62.68,62.78,62.88,62.90,62.89,62.87,62.86,62.88,62.88,62.87,62.83,62.81,62.79,62.77,62.73,62.67,62.63,62.60,62.60,62.60,62.57,62.54,62.51,62.51,62.52,62.53,62.54,62.55,62.60,62.60,62.57,62.52,62.52,62.53,62.55,62.57,62.57,62.57,62.56,62.49,62.36,62.25
66.12,66.10,66.10,66.10,66.10,66.08,66.06,66.04,66.03,66.00,66.00,66.00,65.99,65.97,65.94,65.92,65.91,65.90,65.92,65.93,65.91,65.89,65.87,65.78,65.69,65.51,65.16,64.54,63.84,63.31,63.06,63.12,63.19,63.24,63.24,63.15,63.11,63.13,63.17,63.22,63.25,63.28,63.29,63.30,63.30,63.28,63.23,63.17,63.15,63.16,63.18,63.19,63.20,63.20,63.20,63.20,63.20,63.20,63.20,63.24,63.27,63.28,63.28,63.25,63.22,63.20,63.20,63.15,63.11,63.10,63.10,63.16,63.19,63.17,63.13,63.10,63.15,63.15,63.12,63.10,63.16,63.19,63.20,63.20,63.18,63.15,63.14,63.17,63.21,63.21,63.20,63.18,63.16,63.10,62.95,62.83,62.80,62.75,62.75,62.76,62.77,62.77,62.79,62.76,62.75,62.77,62.77,62.81,62.83,62.83,62.81,62.80,62.80,62.80,62.80,62.80,62.80,62.80,62.81,62.80,62.78,62.78,62.80,62.80,62.78,62.79,62.79,62.77,62.79,62.80,62.77,62.73,62.73,62.71,62.73,62.76,62.77,62.77,62.75,62.72,62.70,62.70,62.70,62.70,62.71,62.73,62.74,62.73,62.68,62.60,62.63,62.67,62.68,62.66,62.63,62.63,62.63,62.65,62.70,62.67,62.62,62.62,62.67,62.67,62.67,62.68,62.69,62.70,62.70,62.70,62.70,62.68,62.64,62.66,62.69,62.70,62.68,62.64,62.66,62.70,62.70,62.70,62.71,62.73,62.74,62.62,62.60,62.60,62.60,62.61,62.63,62.67,62.71,62.73,62.79,62.78,62.74,62.70,62.73,62.82,62.90,62.94,62.88,62.97,62.99,62.99,62.96,62.89,62.82,62.77,62.73,62.66,62.64,62.64,62.69,62.80,62.88,62.90,62.89,62.86,62.84,62.86,62.88,62.89,62.87,62.82,62.79,62.76,62.74,62.67,62.62,62.59,62.58,62.56,62.54,62.52,62.50,62.50,62.49,62.47,62.48,62.50,62.55,62.56,62.52,62.48,62.46,62.48,62.51,62.53,62.53,62.51,62.49,62.43,62.33,62.22
66.07,66.08,66.09,66.10,66.10,66.10,66.10,66.08,66.05,66.01,66.00,66.00,65.99,65.98,65.95,65.93,65.91,65.91,65.94,65.95,65.92,65.87,65.83,65.77,65.70,65.57,65.35,64.85,64.07,63.41,63.06,63.09,63.20,63.33,63.39,63.25,63.11,63.09,63.12,63.16,63.20,63.25,63.28,63.30,63.30,63.26,63.19,63.13,63.10,63.13,63.16,63.19,63.20,63.20,63.20,63.20,63.20,63.20,63.20,63.24,63.27,63.27,63.28,63.25,63.22,63.20,63.20,63.15,63.11,63.10,63.10,63.16,63.19,63.17,63.12,63.10,63.15,63.15,63.12,63.10,63.16,63.19,63.20,63.20,63.20,63.18,63.18,63.21,63.28,63.30,63.32,63.33,63.34,63.30,63.07,62.88,62.80,62.77,62.76,62.75,62.75,62.79,62.80,62.78,62.76,62.74,62.78,62.80,62.82,62.85,62.81,62.80,62.80,62.80,62.80,62.80,62.80,62.79,62.77,62.80,62.80,62.80,62.80,62.80,62.80,62.80,62.80,62.80,62.83,62.81,62.76,62.70,62.70,62.70,62.73,62.76,62.73,62.73,62.72,62.71,62.71,62.71,62.71,62.71,62.71,62.71,62.72,62.71,62.67,62.60,62.62,62.69,62.68,62.62,62.60,62.60,62.60,62.63,62.69,62.69,62.63,62.60,62.62,62.62,62.62,62.63,62.64,62.69,62.69,62.69,62.69,62.67,62.62,62.66,62.69,62.69,62.67,62.64,62.65,62.69,62.69,62.69,62.71,62.73,62.74,62.62,62.60,62.60,62.60,62.60,62.61,62.66,62.71,62.74,62.79,62.78,62.74,62.70,62.73,62.82,62.92,62.96,62.92,62.98,63.00,62.97,62.91,62.79,62.75,62.74,62.74,62.69,62.67,62.66,62.71,62.83,62.89,62.90,62.88,62.85,62.80,62.83,62.86,62.89,62.89,62.84,62.78,62.75,62.75,62.68,62.63,62.59,62.55,62.50,62.50,62.50,62.49,62.49,62.45,62.42,62.42,62.45,62.49,62.50,62.47,62.43,62.40,62.44,62.48,62.50,62.49,62.44,62.41,62.38,62.33,62.26
66.06,66.06,66.07,66.09,66.10,66.10,66.10,66.08,66.05,66.02,66.02,66.00,65.97,65.93,65.91,65.92,65.91,65.90,65.93,65.93,65.91,65.87,65.83,65.76,65.68,65.59,65.46,65.04,64.22,63.47,63.04,63.08,63.10,63.19,63.34,63.51,63.32,63.14,63.06,63.10,63.14,63.19,63.24,63.28,63.30,63.26,63.19,63.13,63.10,63.13,63.17,63.19,63.20,63.20,63.20,63.20,63.19,63.17,63.18,63.21,63.24,63.25,63.27,63.25,63.22,63.19,63.17,63.13,63.11,63.10,63.10,63.16,63.17,63.13,63.08,63.09,63.14,63.15,63.12,63.10,63.13,63.16,63.19,63.20,63.20,63.17,63.16,63.20,63.28,63.34,63.37,63.39,63.43,63.32,63.06,62.86,62.80,62.75,62.77,62.78,62.78,62.80,62.80,62.79,62.77,62.73,62.78,62.80,62.83,62.87,62.81,62.80,62.83,62.84,62.81,62.80,62.77,62.74,62.73,62.79,62.80,62.80,62.80,62.80,62.80,62.80,62.78,62.74,62.75,62.74,62.72,62.70,62.70,62.66,62.68,62.72,62.71,62.71,62.74,62.79,62.83,62.83,62.83,62.83,62.82,62.76,62.72,62.73,62.71,62.60,62.60,62.55,62.55,62.61,62.60,62.60,62.60,62.59,62.57,62.62,62.65,62.64,62.62,62.67,62.67,62.64,62.61,62.63,62.63,62.63,62.63,62.61,62.56,62.56,62.59,62.61,62.58,62.60,62.62,62.63,62.63,62.63,62.64,62.66,62.68,62.60,62.59,62.60,62.60,62.59,62.61,62.66,62.72,62.77,62.78,62.77,62.74,62.71,62.74,62.86,62.96,62.99,62.93,62.98,62.95,62.87,62.77,62.73,62.71,62.70,62.71,62.68,62.63,62.62,62.66,62.76,62.87,62.88,62.85,62.80,62.79,62.81,62.82,62.83,62.85,62.83,62.79,62.77,62.77,62.73,62.68,62.62,62.56,62.49,62.47,62.44,62.42,62.42,62.40,62.39,62.39,62.41,62.44,62.45,62.42,62.37,62.35,62.41,62.46,62.48,62.43,62.39,62.39,62.38,62.35,62.29
66.12,66.11,66.10,66.11,66.12,66.12,66.12,66.10,66.07,66.05,66.05,66.02,65.96,65.88,65.87,65.88,65.88,65.88,65.88,65.86,65.84,65.82,65.80,65.73,65.66,65.59,65.53,65.24,64.41,63.57,63.02,63.05,63.03,63.08,63.22,63.46,63.31,63.14,63.04,63.06,63.08,63.13,63.19,63.25,63.29,63.25,63.19,63.13,63.12,63.15,63.18,63.20,63.20,63.20,63.19,63.18,63.16,63.13,63.17,63.21,63.23,63.21,63.24,63.24,63.22,63.18,63.14,63.11,63.10,63.09,63.08,63.16,63.17,63.11,63.05,63.07,63.13,63.14,63.12,63.10,63.11,63.15,63.19,63.20,63.20,63.16,63.15,63.19,63.25,63.32,63.36,63.38,63.41,63.30,63.04,62.86,62.82,62.76,62.78,62.80,62.82,62.81,62.80,62.80,62.77,62.71,62.75,62.78,62.83,62.87,62.81,62.80,62.83,62.84,62.78,62.77,62.72,62.69,62.71,62.78,62.80,62.80,62.80,62.80,62.80,62.80,62.77,62.71,62.73,62.72,62.70,62.70,62.70,62.64,62.66,62.70,62.69,62.67,62.75,62.84,62.88,62.89,62.89,62.89,62.88,62.83,62.76,62.75,62.71,62.59,62.59,62.51,62.52,62.60,62.60,62.60,62.59,62.57,62.54,62.59,62.64,62.63,62.59,62.65,62.64,62.60,62.57,62.57,62.59,62.60,62.60,62.59,62.56,62.55,62.56,62.58,62.61,62.63,62.63,62.61,62.60,62.60,62.59,62.59,62.61,62.57,62.57,62.58,62.59,62.56,62.57,62.62,62.67,62.72,62.72,62.72,62.70,62.68,62.72,62.83,62.91,62.93,62.88,62.91,62.85,62.76,62.67,62.67,62.65,62.65,62.66,62.66,62.62,62.61,62.64,62.70,62.81,62.82,62.78,62.74,62.74,62.76,62.77,62.77,62.77,62.77,62.76,62.74,62.73,62.71,62.67,62.61,62.53,62.45,62.42,62.39,62.37,62.36,62.36,62.36,62.36,62.36,62.39,62.40,62.37,62.32,62.31,62.38,62.43,62.44,62.39,62.36,62.36,62.36,62.34,62.30
66.25,66.22,66.19,66.17,66.18,66.18,66.16,66.12,66.09,66.09,66.09,66.04,65.96,65.85,65.82,65.82,65.83,65.82,65.79,65.73,65.70,65.71,65.73,65.68,65.63,65.59,65.55,65.45,64.65,63.71,63.00,63.01,63.01,63.01,63.04,63.11,63.09,63.06,63.05,63.04,63.02,63.06,63.12,63.19,63.26,63.25,63.19,63.14,63.16,63.19,63.20,63.20,63.20,63.20,63.16,63.13,63.11,63.10,63.16,63.22,63.23,63.17,63.18,63.23,63.22,63.15,63.11,63.10,63.10,63.08,63.04,63.18,63.18,63.11,63.04,63.07,63.09,63.10,63.10,63.10,63.10,63.14,63.19,63.20,63.20,63.15,63.14,63.18,63.20,63.26,63.29,63.30,63.30,63.24,63.02,62.87,62.87,62.82,62.80,62.83,62.86,62.82,62.80,62.80,62.77,62.71,62.71,62.76,62.83,62.87,62.81,62.80,62.80,62.78,62.72,62.71,62.67,62.65,62.70,62.78,62.80,62.80,62.80,62.80,62.80,62.80,62.77,62.71,62.76,62.73,62.70,62.70,62.70,62.64,62.66,62.70,62.68,62.62,62.75,62.86,62.86,62.88,62.89,62.90,62.90,62.89,62.83,62.75,62.66,62.58,62.58,62.57,62.58,62.60,62.60,62.59,62.58,62.58,62.59,62.60,62.60,62.57,62.52,62.57,62.53,62.52,62.52,62.52,62.56,62.59,62.60,62.61,62.64,62.62,62.60,62.61,62.76,62.73,62.68,62.64,62.61,62.61,62.55,62.51,62.51,62.51,62.54,62.56,62.57,62.51,62.51,62.54,62.57,62.60,62.59,62.62,62.64,62.64,62.66,62.73,62.78,62.79,62.78,62.78,62.70,62.63,62.62,62.61,62.59,62.59,62.62,62.63,62.63,62.62,62.63,62.67,62.70,62.72,62.69,62.65,62.65,62.68,62.71,62.71,62.68,62.67,62.66,62.65,62.62,62.64,62.61,62.54,62.45,62.39,62.36,62.34,62.33,62.30,62.30,62.30,62.30,62.31,62.32,62.33,62.31,62.29,62.30,62.34,62.37,62.38,62.37,62.35,62.33,62.32,62.30,62.30
66.37,66.34,66.31,66.29,66.25,66.18,66.14,66.11,66.10,66.10,66.10,66.07,66.01,65.93,65.90,65.88,65.86,65.83,65.76,65.68,65.65,65.66,65.68,65.68,65.65,65.60,65.52,65.44,64.78,64.00,63.41,63.40,63.34,63.26,63.18,63.15,63.11,63.08,63.06,63.04,63.01,63.00,63.01,63.03,63.08,63.09,63.07,63.06,63.10,63.14,63.16,63.17,63.17,63.15,63.12,63.10,63.10,63.12,63.13,63.15,63.15,63.13,63.15,63.21,63.21,63.16,63.09,63.07,63.08,63.07,63.03,63.18,63.15,63.07,63.02,63.06,63.09,63.10,63.10,63.10,63.11,63.15,63.19,63.20,63.20,63.15,63.13,63.14,63.15,63.20,63.23,63.24,63.24,63.21,63.01,62.87,62.87,62.86,62.83,62.83,62.84,62.84,62.81,62.80,62.78,62.72,62.70,62.76,62.81,62.83,62.81,62.80,62.80,62.78,62.73,62.72,62.72,62.72,62.73,62.78,62.80,62.80,62.80,62.80,62.80,62.80,62.77,62.70,62.73,62.71,62.70,62.70,62.70,62.66,62.67,62.68,62.63,62.61,62.70,62.79,62.82,62.85,62.89,62.90,62.90,62.88,62.85,62.76,62.64,62.53,62.53,62.55,62.58,62.60,62.60,62.57,62.56,62.57,62.58,62.59,62.56,62.53,62.50,62.50,62.48,62.47,62.47,62.45,62.50,62.53,62.53,62.52,62.54,62.55,62.56,62.60,62.72,62.71,62.67,62.62,62.58,62.58,62.53,62.49,62.48,62.51,62.54,62.57,62.56,62.50,62.51,62.55,62.58,62.58,62.55,62.56,62.57,62.56,62.58,62.64,62.67,62.67,62.66,62.68,62.64,62.60,62.59,62.58,62.58,62.60,62.62,62.61,62.61,62.58,62.54,62.52,62.52,62.55,62.55,62.54,62.52,62.55,62.58,62.59,62.58,62.61,62.61,62.56,62.49,62.46,62.44,62.42,62.41,62.39,62.37,62.35,62.33,62.30,62.30,62.30,62.29,62.28,62.29,62.30,62.30,62.29,62.31,62.31,62.31,62.31,62.30,62.27,62.25,62.26,62.28,62.30
66.45,66.41,66.39,66.37,66.30,66.18,66.12,66.10,66.10,66.10,66.10,66.08,66.05,66.00,65.98,65.95,65.91,65.87,65.78,65.71,65.68,65.67,65.69,65.70,65.67,65.61,65.51,65.43,64.97,64.43,64.00,63.96,63.81,63.63,63.46,63.37,63.31,63.26,63.21,63.14,63.09,63.03,62.98,62.95,62.95,62.97,62.98,62.99,63.03,63.07,63.09,63.10,63.10,63.08,63.06,63.06,63.08,63.11,63.09,63.08,63.08,63.09,63.11,63.14,63.16,63.14,63.06,63.04,63.03,63.03,63.02,63.17,63.12,63.03,63.00,63.06,63.09,63.10,63.10,63.11,63.13,63.16,63.19,63.19,63.20,63.15,63.12,63.12,63.10,63.15,63.18,63.19,63.19,63.16,62.99,62.86,62.85,62.88,62.86,62.82,62.81,62.84,62.81,62.80,62.79,62.75,62.71,62.76,62.79,62.79,62.80,62.80,62.80,62.79,62.75,62.75,62.77,62.78,62.76,62.80,62.81,62.81,62.80,62.81,62.81,62.81,62.77,62.71,62.72,62.72,62.71,62.71,62.70,62.67,62.67,62.67,62.61,62.59,62.66,62.75,62.82,62.85,62.88,62.90,62.89,62.85,62.84,62.75,62.63,62.50,62.51,62.55,62.59,62.62,62.60,62.57,62.56,62.56,62.55,62.57,62.52,62.48,62.47,62.43,62.44,62.43,62.42,62.40,62.44,62.46,62.46,62.43,62.44,62.46,62.50,62.56,62.64,62.64,62.60,62.55,62.51,62.53,62.50,62.46,62.44,62.48,62.51,62.53,62.54,62.49,62.50,62.54,62.56,62.55,62.52,62.52,62.52,62.51,62.54,62.57,62.57,62.57,62.57,62.60,62.60,62.58,62.57,62.58,62.60,62.61,62.62,62.59,62.58,62.52,62.44,62.37,62.36,62.40,62.42,62.41,62.38,62.41,62.45,62.48,62.49,62.54,62.53,62.48,62.38,62.32,62.30,62.31,62.35,62.36,62.35,62.33,62.31,62.29,62.30,62.31,62.31,62.28,62.27,62.28,62.29,62.30,62.31,62.28,62.25,62.23,62.23,62.19,62.18,62.20,62.25,62.28
66.43,66.39,66.37,66.34,66.28,66.17,66.12,66.10,66.10,66.10,66.10,66.09,66.06,66.02,66.00,65.99,65.97,65.94,65.90,65.88,65.86,65.82,65.78,65.72,65.67,65.61,65.55,65.47,65.32,65.12,64.92,64.79,64.51,64.20,63.96,63.89,63.84,63.78,63.67,63.49,63.32,63.23,63.14,63.05,62.97,62.95,62.96,62.96,62.97,62.96,62.95,62.94,62.95,62.97,62.98,63.00,63.01,63.01,62.99,63.00,63.02,63.02,63.01,63.01,63.01,63.03,63.02,62.98,62.95,62.95,62.99,63.17,63.10,63.01,62.98,63.04,63.08,63.10,63.11,63.13,63.17,63.19,63.19,63.17,63.19,63.15,63.13,63.13,63.08,63.12,63.15,63.16,63.16,63.10,62.95,62.84,62.82,62.87,62.86,62.82,62.77,62.77,62.79,62.80,62.80,62.78,62.72,62.76,62.78,62.76,62.79,62.80,62.80,62.80,62.79,62.79,62.79,62.80,62.80,62.83,62.85,62.83,62.81,62.85,62.85,62.82,62.78,62.75,62.79,62.77,62.75,62.74,62.70,62.67,62.66,62.65,62.65,62.57,62.67,62.80,62.88,62.89,62.90,62.90,62.88,62.81,62.80,62.72,62.60,62.50,62.55,62.61,62.67,62.69,62.61,62.59,62.59,62.56,62.51,62.53,62.47,62.42,62.42,62.37,62.39,62.40,62.38,62.39,62.40,62.41,62.41,62.38,62.39,62.40,62.42,62.46,62.49,62.48,62.44,62.40,62.39,62.40,62.41,62.40,62.37,62.41,62.40,62.43,62.46,62.44,62.44,62.45,62.47,62.47,62.50,62.51,62.52,62.52,62.56,62.53,62.50,62.49,62.53,62.54,62.55,62.58,62.62,62.66,62.65,62.63,62.61,62.57,62.52,62.45,62.37,62.29,62.28,62.31,62.32,62.28,62.22,62.27,62.33,62.39,62.43,62.45,62.43,62.38,62.32,62.30,62.27,62.25,62.25,62.27,62.28,62.26,62.24,62.26,62.32,62.36,62.36,62.33,62.30,62.30,62.30,62.30,62.30,62.24,62.17,62.14,62.17,62.16,62.13,62.14,62.18,62.22
66.43,66.35,66.30,66.27,66.23,66.16,66.13,66.11,66.10,66.10,66.10,66.09,66.07,66.05,66.02,66.01,65.99,65.98,65.96,65.96,65.95,65.91,65.87,65.79,65.70,65.63,65.58,65.52,65.47,65.38,65.25,65.12,64.90,64.65,64.46,64.38,64.30,64.21,64.08,63.91,63.74,63.64,63.53,63.42,63.32,63.23,63.20,63.20,63.18,63.14,63.09,63.04,63.00,62.97,62.95,62.96,62.97,62.97,62.97,62.99,63.00,63.00,62.98,62.97,62.96,62.96,62.96,62.92,62.89,62.90,62.95,63.08,63.04,62.97,62.95,62.99,63.02,63.03,63.04,63.07,63.11,63.14,63.15,63.14,63.14,63.10,63.08,63.08,63.05,63.09,63.13,63.16,63.16,63.10,62.97,62.87,62.84,62.88,62.84,62.79,62.76,62.76,62.76,62.76,62.76,62.76,62.71,62.74,62.75,62.74,62.79,62.80,62.82,62.82,62.80,62.80,62.78,62.77,62.78,62.85,62.85,62.84,62.84,62.88,62.88,62.84,62.80,62.78,62.81,62.80,62.77,62.74,62.70,62.68,62.63,62.60,62.64,62.58,62.67,62.80,62.90,62.86,62.89,62.88,62.85,62.80,62.76,62.66,62.55,62.50,62.54,62.60,62.67,62.71,62.65,62.61,62.55,62.50,62.46,62.46,62.43,62.39,62.36,62.33,62.38,62.41,62.43,62.43,62.44,62.45,62.45,62.46,62.44,62.43,62.44,62.45,62.43,62.43,62.42,62.40,62.37,62.38,62.41,62.42,62.38,62.43,62.40,62.40,62.42,62.41,62.41,62.42,62.42,62.43,62.45,62.46,62.46,62.47,62.50,62.50,62.49,62.49,62.51,62.52,62.52,62.54,62.58,62.61,62.63,62.62,62.58,62.54,62.49,62.41,62.32,62.24,62.23,62.24,62.22,62.18,62.14,62.17,62.21,62.25,62.28,62.29,62.29,62.29,62.27,62.27,62.23,62.19,62.17,62.19,62.22,62.21,62.20,62.22,62.28,62.32,62.33,62.30,62.26,62.27,62.28,62.28,62.26,62.20,62.14,62.11,62.13,62.12,62.11,62.11,62.14,62.18
66.43,66.30,66.23,66.19,66.17,66.15,66.14,66.12,66.10,66.10,66.10,66.11,66.10,66.08,66.04,66.01,66.00,66.00,66.00,66.00,65.99,65.98,65.95,65.86,65.75,65.65,65.60,65.57,65.54,65.47,65.36,65.25,65.15,65.03,64.91,64.80,64.69,64.57,64.44,64.32,64.20,64.09,63.99,63.88,63.77,63.63,63.55,63.53,63.51,63.44,63.36,63.27,63.18,63.07,62.99,62.97,62.97,62.97,62.98,63.01,63.03,63.03,63.02,63.02,63.00,62.96,62.95,62.90,62.89,62.91,62.95,63.02,63.02,62.99,62.96,62.95,62.96,62.96,62.96,62.97,63.02,63.06,63.09,63.09,63.06,63.03,63.02,63.02,63.00,63.05,63.11,63.16,63.16,63.10,62.99,62.90,62.88,62.89,62.81,62.77,62.77,62.78,62.74,62.72,62.72,62.72,62.70,62.71,62.71,62.72,62.79,62.80,62.83,62.85,62.81,62.80,62.76,62.73,62.74,62.86,62.84,62.85,62.88,62.90,62.90,62.85,62.81,62.80,62.81,62.81,62.77,62.72,62.70,62.69,62.61,62.55,62.61,62.60,62.66,62.78,62.88,62.83,62.87,62.86,62.81,62.79,62.73,62.60,62.51,62.50,62.50,62.57,62.65,62.72,62.70,62.62,62.51,62.42,62.41,62.40,62.39,62.36,62.31,62.32,62.38,62.45,62.50,62.51,62.51,62.51,62.54,62.58,62.53,62.51,62.50,62.48,62.43,62.43,62.46,62.47,62.42,62.43,62.46,62.46,62.43,62.48,62.43,62.41,62.41,62.41,62.40,62.40,62.40,62.41,62.41,62.41,62.40,62.40,62.41,62.47,62.50,62.50,62.50,62.50,62.49,62.49,62.50,62.52,62.57,62.59,62.56,62.50,62.47,62.39,62.29,62.20,62.20,62.18,62.14,62.10,62.10,62.10,62.10,62.10,62.11,62.13,62.16,62.20,62.22,62.24,62.18,62.13,62.11,62.13,62.16,62.17,62.18,62.18,62.22,62.25,62.26,62.24,62.21,62.24,62.26,62.25,62.21,62.17,62.13,62.11,62.10,62.09,62.09,62.10,62.12,62.16
66.38,66.29,66.22,66.17,66.15,66.16,66.15,66.13,66.10,66.12,66.14,66.15,66.14,66.10,66.03,66.01,66.00,66.00,66.00,66.00,66.00,65.99,65.99,65.89,65.75,65.65,65.63,65.62,65.60,65.56,65.49,65.40,65.32,65.16,64.98,64.83,64.76,64.67,64.57,64.46,64.37,64.30,64.23,64.17,64.09,63.97,63.91,63.87,63.84,63.79,63.75,63.70,63.62,63.50,63.38,63.27,63.18,63.09,63.06,63.13,63.25,63.37,63.39,63.43,63.41,63.35,63.32,63.23,63.22,63.24,63.25,63.33,63.44,63.42,63.26,63.14,63.08,63.01,62.95,62.92,62.94,62.93,62.93,62.95,62.96,62.95,62.94,62.94,62.93,62.99,63.06,63.09,63.06,62.99,62.93,62.88,62.84,62.83,62.80,62.79,62.78,62.74,62.72,62.71,62.71,62.71,62.70,62.70,62.70,62.72,62.79,62.80,62.81,62.82,62.80,62.76,62.72,62.73,62.77,62.82,62.81,62.84,62.89,62.89,62.89,62.85,62.81,62.81,62.86,62.86,62.81,62.72,62.70,62.65,62.61,62.59,62.60,62.60,62.70,62.79,62.84,62.87,62.85,62.83,62.80,62.75,62.77,62.64,62.51,62.50,62.46,62.51,62.66,62.82,62.75,62.63,62.53,62.47,62.45,62.40,62.38,62.38,62.37,62.42,62.42,62.46,62.52,62.57,62.58,62.59,62.60,62.62,62.63,62.60,62.56,62.55,62.60,62.57,62.55,62.54,62.55,62.50,62.50,62.50,62.49,62.49,62.48,62.47,62.47,62.46,62.43,62.42,62.44,62.47,62.47,62.46,62.43,62.38,62.36,62.42,62.47,62.49,62.48,62.47,62.45,62.45,62.48,62.51,62.56,62.58,62.55,62.48,62.43,62.35,62.26,62.20,62.19,62.17,62.14,62.12,62.11,62.10,62.11,62.12,62.13,62.13,62.14,62.16,62.17,62.18,62.14,62.11,62.10,62.11,62.12,62.13,62.14,62.15,62.18,62.21,62.22,62.20,62.20,62.24,62.26,62.25,62.22,62.19,62.15,62.12,62.10,62.08,62.08,62.10,62.13,62.15
66.35,66.26,66.19,66.16,66.15,66.17,66.17,66.15,66.12,66.12,66.15,66.16,66.15,66.09,66.04,66.03,66.03,66.03,66.02,66.01,66.00,66.00,66.00,65.91,65.78,65.68,65.67,65.57,65.43,65.33,65.29,65.25,65.19,65.07,64.91,64.76,64.71,64.66,64.59,64.51,64.46,64.42,64.39,64.34,64.29,64.20,64.14,64.10,64.06,64.03,63.99,63.95,63.89,63.79,63.70,63.60,63.50,63.40,63.35,63.40,63.50,63.62,63.66,63.71,63.70,63.64,63.62,63.54,63.52,63.52,63.51,63.59,63.72,63.72,63.57,63.45,63.39,63.32,63.24,63.17,63.13,63.07,63.04,63.05,63.00,62.95,62.93,62.94,62.93,62.96,63.00,63.02,62.98,62.90,62.89,62.87,62.82,62.80,62.80,62.80,62.79,62.75,62.74,62.73,62.73,62.73,62.73,62.73,62.73,62.73,62.78,62.80,62.80,62.79,62.79,62.75,62.72,62.72,62.76,62.79,62.80,62.83,62.86,62.85,62.85,62.82,62.79,62.79,62.84,62.86,62.81,62.73,62.70,62.64,62.62,62.63,62.61,62.62,62.69,62.75,62.80,62.90,62.87,62.83,62.82,62.77,62.81,62.67,62.52,62.50,62.45,62.52,62.69,62.86,62.75,62.62,62.53,62.48,62.44,62.38,62.37,62.38,62.39,62.44,62.45,62.48,62.53,62.61,62.65,62.66,62.66,62.67,62.71,62.68,62.65,62.64,62.70,62.66,62.62,62.61,62.64,62.58,62.56,62.56,62.56,62.53,62.52,62.52,62.52,62.50,62.48,62.47,62.49,62.52,62.51,62.48,62.42,62.35,62.32,62.40,62.46,62.48,62.45,62.43,62.41,62.41,62.44,62.48,62.54,62.56,62.52,62.44,62.39,62.31,62.23,62.19,62.19,62.17,62.15,62.14,62.14,62.11,62.11,62.11,62.12,62.10,62.11,62.13,62.13,62.14,62.12,62.10,62.09,62.09,62.10,62.11,62.13,62.14,62.16,62.18,62.18,62.16,62.18,62.22,62.24,62.24,62.22,62.19,62.15,62.12,62.10,62.08,62.08,62.10,62.13,62.14
66.33,66.21,66.16,66.16,66.20,66.20,66.20,66.18,66.15,66.11,66.13,66.15,66.14,66.06,66.04,66.07,66.10,66.09,66.05,66.02,66.00,66.00,66.00,65.93,65.83,65.75,65.72,65.43,65.04,64.81,64.78,64.81,64.81,64.78,64.71,64.59,64.55,64.54,64.52,64.48,64.48,64.48,64.45,64.42,64.39,64.34,64.28,64.22,64.19,64.15,64.09,64.04,64.00,63.95,63.96,63.94,63.91,63.87,63.82,63.80,63.79,63.79,63.84,63.86,63.86,63.85,63.85,63.81,63.79,63.77,63.74,63.82,63.87,63.89,63.88,63.87,63.87,63.86,63.82,63.69,63.55,63.45,63.40,63.36,63.17,63.03,62.99,63.01,63.00,62.96,62.94,62.93,62.90,62.84,62.86,62.87,62.83,62.80,62.80,62.80,62.80,62.80,62.80,62.80,62.80,62.80,62.80,62.78,62.77,62.77,62.77,62.79,62.79,62.78,62.77,62.79,62.75,62.71,62.71,62.78,62.80,62.80,62.80,62.78,62.77,62.77,62.77,62.77,62.77,62.79,62.79,62.76,62.70,62.66,62.65,62.66,62.64,62.65,62.65,62.68,62.78,62.91,62.91,62.88,62.86,62.85,62.86,62.70,62.54,62.50,62.47,62.58,62.73,62.83,62.70,62.59,62.50,62.45,62.40,62.35,62.36,62.37,62.36,62.41,62.47,62.51,62.55,62.64,62.71,62.74,62.74,62.75,62.77,62.76,62.74,62.74,62.74,62.71,62.70,62.69,62.69,62.65,62.64,62.64,62.63,62.59,62.57,62.57,62.58,62.55,62.55,62.55,62.55,62.55,62.53,62.46,62.38,62.32,62.29,62.39,62.47,62.48,62.40,62.39,62.37,62.36,62.37,62.44,62.52,62.53,62.48,62.41,62.36,62.28,62.20,62.16,62.19,62.17,62.15,62.16,62.17,62.12,62.10,62.10,62.08,62.07,62.08,62.10,62.11,62.12,62.11,62.09,62.08,62.06,62.09,62.11,62.13,62.14,62.16,62.17,62.15,62.13,62.14,62.18,62.20,62.20,62.20,62.18,62.16,62.13,62.10,62.10,62.10,62.11,62.13,62.13
66.27,66.20,66.17,66.15,66.14,66.16,66.20,66.21,66.19,66.13,66.17,66.19,66.18,66.13,66.10,66.10,66.11,66.11,66.07,66.03,66.02,66.04,66.06,65.97,65.84,65.73,65.69,65.30,64.80,64.51,64.48,64.47,64.45,64.43,64.42,64.37,64.34,64.33,64.33,64.32,64.32,64.32,64.34,64.35,64.33,64.28,64.24,64.22,64.21,64.21,64.18,64.14,64.11,64.06,64.05,64.04,64.01,63.96,63.92,63.89,63.86,63.84,63.85,63.83,63.80,63.77,63.74,63.76,63.76,63.76,63.76,63.79,63.80,63.81,63.82,63.83,63.83,63.83,63.82,63.77,63.72,63.67,63.63,63.58,63.46,63.37,63.33,63.32,63.26,63.17,63.10,63.04,62.97,62.88,62.87,62.88,62.87,62.82,62.80,62.80,62.79,62.78,62.77,62.77,62.77,62.77,62.77,62.75,62.73,62.73,62.73,62.75,62.75,62.74,62.73,62.76,62.73,62.71,62.71,62.75,62.77,62.77,62.76,62.73,62.71,62.72,62.73,62.73,62.73,62.75,62.75,62.72,62.67,62.67,62.67,62.67,62.67,62.63,62.62,62.66,62.74,62.81,62.85,62.83,62.79,62.79,62.81,62.65,62.49,62.50,62.45,62.56,62.68,62.72,62.63,62.56,62.50,62.45,62.43,62.39,62.40,62.41,62.40,62.38,62.46,62.51,62.55,62.68,62.76,62.80,62.82,62.82,62.85,62.83,62.82,62.82,62.81,62.79,62.76,62.75,62.78,62.76,62.74,62.72,62.71,62.69,62.65,62.64,62.64,62.62,62.62,62.60,62.60,62.61,62.55,62.46,62.38,62.33,62.29,62.36,62.43,62.45,62.40,62.38,62.34,62.31,62.33,62.45,62.51,62.51,62.45,62.35,62.31,62.25,62.19,62.18,62.19,62.18,62.17,62.16,62.14,62.11,62.10,62.10,62.09,62.08,62.09,62.10,62.10,62.11,62.10,62.09,62.06,62.05,62.09,62.10,62.11,62.12,62.13,62.13,62.13,62.11,62.12,62.16,62.18,62.19,62.18,62.15,62.13,62.12,62.10,62.08,62.07,62.09,62.11,62.09
66.20,66.18,66.17,66.14,66.10,66.14,66.21,66.24,66.23,66.17,66.21,66.23,66.23,66.20,66.16,66.15,66.15,66.14,66.11,66.06,66.05,66.07,66.10,66.01,65.85,65.72,65.67,65.21,64.64,64.31,64.28,64.25,64.21,64.20,64.21,64.22,64.19,64.19,64.19,64.21,64.20,64.22,64.26,64.30,64.29,64.23,64.21,64.21,64.23,64.25,64.23,64.20,64.16,64.13,64.11,64.10,64.08,64.04,64.01,63.96,63.91,63.87,63.87,63.82,63.77,63.73,63.70,63.72,63.73,63.73,63.74,63.72,63.69,63.69,63.71,63.71,63.71,63.71,63.71,63.72,63.72,63.72,63.70,63.66,63.60,63.57,63.54,63.52,63.43,63.33,63.24,63.14,63.03,62.92,62.89,62.89,62.88,62.82,62.81,62.80,62.79,62.75,62.74,62.74,62.74,62.74,62.74,62.71,62.70,62.70,62.70,62.72,62.72,62.71,62.70,62.73,62.72,62.71,62.70,62.71,62.72,62.72,62.71,62.68,62.65,62.66,62.68,62.68,62.68,62.70,62.70,62.68,62.66,62.69,62.68,62.66,62.68,62.62,62.60,62.62,62.67,62.71,62.77,62.76,62.71,62.70,62.73,62.58,62.45,62.49,62.42,62.53,62.62,62.62,62.54,62.52,62.49,62.47,62.46,62.41,62.42,62.43,62.43,62.37,62.44,62.51,62.57,62.71,62.80,62.86,62.89,62.88,62.90,62.90,62.89,62.88,62.87,62.85,62.83,62.82,62.85,62.84,62.80,62.78,62.78,62.78,62.73,62.71,62.71,62.69,62.67,62.65,62.64,62.64,62.55,62.45,62.37,62.33,62.30,62.33,62.38,62.40,62.37,62.35,62.31,62.30,62.34,62.46,62.49,62.47,62.40,62.29,62.26,62.22,62.19,62.19,62.19,62.19,62.17,62.14,62.12,62.11,62.10,62.09,62.07,62.08,62.09,62.10,62.10,62.10,62.09,62.07,62.04,62.03,62.07,62.09,62.10,62.10,62.11,62.11,62.10,62.10,62.11,62.13,62.16,62.17,62.15,62.12,62.10,62.10,62.08,62.06,62.04,62.05,62.07,62.05
66.12,66.13,66.14,66.13,66.10,66.14,66.22,66.27,66.27,66.23,66.25,66.27,66.28,66.26,66.24,66.23,66.23,66.22,66.17,66.11,66.09,66.09,66.10,66.03,65.88,65.74,65.67,65.19,64.61,64.28,64.25,64.23,64.19,64.18,64.19,64.20,64.18,64.18,64.20,64.22,64.22,64.22,64.25,64.28,64.27,64.23,64.22,64.24,64.27,64.25,64.22,64.18,64.14,64.11,64.10,64.11,64.12,64.13,64.14,64.05,63.95,63.91,63.94,63.90,63.85,63.81,63.80,63.78,63.73,63.69,63.67,63.60,63.54,63.51,63.51,63.52,63.52,63.50,63.48,63.46,63.45,63.47,63.49,63.47,63.46,63.48,63.48,63.45,63.39,63.38,63.31,63.20,63.06,62.95,62.91,62.88,62.85,62.82,62.80,62.80,62.78,62.73,62.71,62.71,62.71,62.71,62.71,62.67,62.67,62.69,62.70,62.70,62.70,62.70,62.70,62.71,62.70,62.70,62.69,62.65,62.64,62.64,62.64,62.63,62.61,62.62,62.63,62.63,62.63,62.64,62.64,62.64,62.67,62.69,62.66,62.63,62.63,62.61,62.57,62.56,62.57,62.63,62.66,62.65,62.62,62.56,62.58,62.49,62.43,62.49,62.42,62.48,62.53,62.52,62.44,62.44,62.46,62.49,62.48,62.42,62.40,62.41,62.41,62.39,62.42,62.50,62.61,62.72,62.84,62.93,62.94,62.90,62.91,62.94,62.94,62.89,62.89,62.89,62.88,62.88,62.89,62.88,62.83,62.80,62.82,62.85,62.81,62.78,62.78,62.76,62.71,62.68,62.65,62.59,62.51,62.42,62.35,62.31,62.30,62.31,62.32,62.31,62.29,62.26,62.29,62.35,62.41,62.46,62.44,62.39,62.33,62.22,62.21,62.20,62.19,62.17,62.15,62.16,62.15,62.11,62.13,62.15,62.12,62.06,62.01,62.04,62.08,62.10,62.10,62.10,62.08,62.04,62.01,62.01,62.04,62.07,62.10,62.10,62.10,62.10,62.10,62.10,62.10,62.11,62.11,62.11,62.11,62.10,62.08,62.06,62.05,62.04,62.02,62.00,62.01,62.01
