86.68,86.67,86.71,86.77,86.80,86.72,86.65,86.56,86.48,86.47,86.55,86.62,86.67,86.68,86.69,86.70,86.72,86.74,86.77,86.78,86.80,86.84,86.87,86.88,86.89,86.90,86.90,86.90,86.90,86.89,86.88,86.84,86.76,86.66,86.58,86.56,86.49,86.42,86.34,86.26,86.16,86.06,86.01,85.98,85.93,85.87,85.85,85.86,85.90,85.99,86.08,86.15,86.23,86.32,86.40,86.46,86.49,86.50,86.51,86.52,86.55,86.59,86.60,86.58,86.55,86.50,86.44,86.39,86.38,86.39,86.43,86.44,86.38,86.30,86.20,86.13,86.11,86.09,86.08,86.05,86.01,86.02,86.05,86.09,86.14,86.16,86.19,86.21,86.20,86.11,86.06,86.07,86.15,86.23,86.28,86.32,86.33,86.29,86.23,86.18,86.13,86.11,86.12,86.14,86.18,86.21,86.25,86.32,86.39,86.43,86.38,86.37,86.41,86.46,86.48,86.43,86.37,86.29,86.18,86.09,86.00,85.95,85.90,85.84,85.82,85.81,85.80,85.80,85.80,85.77,85.72,85.67,85.64,85.61,85.64,85.67,85.68,85.68,85.62,85.61,85.69,85.72,85.68,85.63,85.61,85.61,85.72,85.78,85.81,85.84,85.72,85.64,85.59,85.57,85.59,85.55,85.56,85.59,85.63,85.63,85.69,85.74,85.75,85.71,85.65,85.64,85.67,85.61,85.45,85.38,85.37,85.37,85.40,85.47,85.51,85.49,85.50,85.48,85.42,85.38,85.40,85.47,85.54,85.59,85.60,85.60,85.60,85.56,85.49,85.46,85.48,85.54,85.60,85.60,85.60,85.56,85.56,85.59,85.61,85.49,85.32,85.19,85.14,85.08,85.11,85.09,84.95,85.00,85.07,85.14,85.21,85.25,85.19,85.13,85.10,85.11,85.07,85.03,85.04,85.10,85.13,85.14,85.17,85.20,85.21,85.23,85.21,85.15,85.09,85.05,85.05,85.07,85.10,85.09,85.06,85.02,84.99,84.98,84.92,84.93,84.94,84.94,84.94,84.94,84.92,84.88,84.80,84.48,84.30,84.28,84.39,84.47,84.44,84.40,84.37,84.30
86.75,86.69,86.66,86.64,86.65,86.58,86.52,86.46,86.41,86.51,86.63,86.68,86.67,86.63,86.63,86.64,86.67,86.73,86.78,86.81,86.84,86.88,86.89,86.90,86.90,86.90,86.90,86.90,86.90,86.89,86.86,86.80,86.71,86.64,86.59,86.57,86.49,86.42,86.34,86.26,86.15,86.03,85.96,85.92,85.91,85.89,85.89,85.90,85.93,86.01,86.09,86.17,86.25,86.36,86.45,86.49,86.50,86.50,86.50,86.54,86.61,86.68,86.66,86.62,86.59,86.58,86.54,86.44,86.36,86.33,86.40,86.44,86.39,86.32,86.24,86.16,86.12,86.08,86.05,86.01,85.96,85.95,85.97,86.02,86.06,86.06,86.08,86.12,86.15,86.08,86.03,86.02,86.10,86.21,86.27,86.29,86.29,86.28,86.25,86.19,86.13,86.10,86.13,86.17,86.19,86.21,86.26,86.32,86.38,86.40,86.40,86.36,86.38,86.42,86.43,86.41,86.37,86.31,86.24,86.19,86.10,86.01,85.93,85.87,85.84,85.82,85.82,85.82,85.82,85.81,85.80,85.78,85.72,85.65,85.64,85.65,85.63,85.63,85.63,85.67,85.75,85.78,85.74,85.68,85.63,85.63,85.72,85.76,85.77,85.77,85.64,85.57,85.54,85.53,85.56,85.56,85.58,85.61,85.67,85.57,85.59,85.65,85.68,85.70,85.66,85.65,85.63,85.47,85.34,85.30,85.31,85.32,85.40,85.49,85.52,85.48,85.50,85.45,85.37,85.34,85.39,85.47,85.54,85.59,85.60,85.60,85.60,85.56,85.48,85.41,85.45,85.53,85.60,85.60,85.60,85.59,85.58,85.57,85.61,85.50,85.33,85.20,85.19,85.05,85.06,85.07,85.00,85.04,85.08,85.14,85.20,85.21,85.17,85.13,85.11,85.13,85.07,85.02,85.02,85.08,85.14,85.15,85.17,85.20,85.20,85.20,85.17,85.13,85.10,85.09,85.09,85.10,85.10,85.08,85.03,85.00,84.99,84.98,84.92,84.91,84.92,84.94,84.93,84.91,84.91,84.91,84.88,84.52,84.32,84.29,84.42,84.48,84.46,84.42,84.36,84.29
86.77,86.70,86.64,86.61,86.61,86.55,86.45,86.38,86.38,86.51,86.58,86.62,86.63,86.63,86.69,86.72,86.75,86.79,86.80,86.81,86.85,86.89,86.90,86.89,86.87,86.86,86.86,86.89,86.90,86.89,86.85,86.78,86.70,86.62,86.56,86.53,86.48,86.42,86.33,86.24,86.10,85.99,85.92,85.88,85.86,85.86,85.89,85.95,86.01,86.11,86.18,86.23,86.29,86.38,86.47,86.50,86.49,86.47,86.52,86.60,86.67,86.72,86.69,86.65,86.62,86.60,86.58,86.50,86.43,86.38,86.38,86.40,86.39,86.36,86.32,86.24,86.14,86.06,86.01,85.96,85.90,85.89,85.91,85.96,85.99,85.99,85.99,86.02,86.07,86.04,85.99,85.97,85.99,86.08,86.14,86.16,86.17,86.20,86.20,86.17,86.13,86.09,86.11,86.14,86.18,86.23,86.28,86.33,86.38,86.40,86.40,86.36,86.35,86.36,86.36,86.37,86.36,86.34,86.30,86.24,86.14,86.05,85.97,85.91,85.88,85.86,85.86,85.86,85.86,85.86,85.86,85.85,85.77,85.68,85.64,85.63,85.61,85.63,85.66,85.71,85.76,85.77,85.72,85.67,85.64,85.64,85.72,85.73,85.71,85.68,85.56,85.50,85.48,85.50,85.55,85.54,85.54,85.57,85.65,85.57,85.54,85.55,85.60,85.66,85.65,85.63,85.58,85.43,85.30,85.28,85.30,85.33,85.43,85.49,85.50,85.47,85.47,85.43,85.36,85.33,85.39,85.44,85.51,85.57,85.60,85.60,85.60,85.55,85.45,85.37,85.44,85.53,85.60,85.60,85.60,85.60,85.59,85.56,85.52,85.43,85.30,85.20,85.20,85.07,85.07,85.06,84.98,85.06,85.09,85.14,85.20,85.20,85.16,85.14,85.13,85.13,85.05,85.01,85.01,85.05,85.12,85.15,85.18,85.20,85.20,85.16,85.14,85.11,85.10,85.10,85.10,85.10,85.10,85.09,85.05,85.02,84.98,84.95,84.91,84.90,84.91,84.92,84.92,84.90,84.90,84.90,84.88,84.58,84.36,84.30,84.44,84.51,84.50,84.45,84.41,84.34
86.78,86.71,86.65,86.60,86.59,86.55,86.42,86.35,86.39,86.49,86.52,86.55,86.59,86.64,86.74,86.78,86.81,86.84,86.80,86.81,86.84,86.88,86.90,86.89,86.85,86.82,86.82,86.87,86.89,86.88,86.84,86.76,86.68,86.60,86.52,86.48,86.47,86.41,86.32,86.20,86.05,85.94,85.89,85.86,85.83,85.84,85.90,86.00,86.10,86.20,86.25,86.28,86.30,86.38,86.44,86.47,86.45,86.44,86.53,86.64,86.71,86.73,86.70,86.68,86.65,86.61,86.59,86.55,86.50,86.43,86.38,86.36,86.38,86.40,86.39,86.31,86.17,86.05,85.97,85.91,85.85,85.83,85.86,85.91,85.93,85.92,85.92,85.94,85.98,85.98,85.95,85.91,85.87,85.93,85.99,86.02,86.03,86.09,86.13,86.13,86.11,86.07,86.08,86.11,86.16,86.24,86.29,86.33,86.37,86.39,86.39,86.37,86.33,86.31,86.30,86.32,86.34,86.34,86.33,86.26,86.14,86.05,85.99,85.93,85.90,85.89,85.89,85.90,85.90,85.90,85.89,85.88,85.79,85.71,85.65,85.62,85.60,85.62,85.68,85.72,85.73,85.73,85.68,85.64,85.64,85.65,85.70,85.69,85.64,85.58,85.50,85.44,85.44,85.48,85.54,85.53,85.51,85.52,85.60,85.58,85.51,85.48,85.53,85.60,85.61,85.59,85.53,85.42,85.27,85.26,85.31,85.36,85.44,85.48,85.48,85.46,85.44,85.40,85.35,85.31,85.37,85.41,85.48,85.55,85.59,85.59,85.59,85.53,85.43,85.34,85.42,85.52,85.59,85.60,85.61,85.60,85.59,85.56,85.45,85.36,85.26,85.19,85.19,85.08,85.08,85.05,84.96,85.06,85.09,85.14,85.20,85.20,85.16,85.16,85.16,85.11,85.05,85.01,85.01,85.04,85.11,85.16,85.18,85.19,85.18,85.13,85.11,85.10,85.10,85.10,85.10,85.10,85.10,85.10,85.07,85.03,84.97,84.92,84.90,84.90,84.91,84.91,84.90,84.90,84.90,84.89,84.86,84.62,84.37,84.28,84.43,84.55,84.53,84.50,84.46,84.40
86.77,86.71,86.67,86.62,86.57,86.52,86.47,86.45,86.46,86.51,86.55,86.55,86.56,86.62,86.68,86.71,86.73,86.77,86.78,86.78,86.80,86.83,86.88,86.91,86.89,86.85,86.82,86.82,86.85,86.85,86.78,86.69,86.60,86.52,86.46,86.43,86.42,86.37,86.28,86.16,86.02,85.92,85.87,85.87,85.89,85.90,85.96,86.05,86.13,86.19,86.21,86.22,86.22,86.26,86.32,86.35,86.37,86.42,86.49,86.58,86.66,86.71,86.69,86.68,86.66,86.63,86.57,86.53,86.49,86.46,86.41,86.36,86.37,86.39,86.41,86.31,86.17,86.03,85.92,85.85,85.82,85.81,85.83,85.87,85.87,85.87,85.88,85.91,85.90,85.89,85.87,85.85,85.81,85.80,85.83,85.88,85.92,85.98,86.03,86.06,86.06,86.04,86.04,86.07,86.12,86.20,86.27,86.31,86.34,86.35,86.35,86.35,86.33,86.30,86.26,86.25,86.26,86.27,86.26,86.22,86.08,85.98,85.92,85.87,85.87,85.87,85.87,85.89,85.90,85.88,85.86,85.83,85.77,85.72,85.68,85.65,85.61,85.58,85.61,85.64,85.66,85.66,85.58,85.56,85.60,85.66,85.66,85.63,85.56,85.49,85.48,85.47,85.46,85.46,85.55,85.56,85.53,85.50,85.49,85.55,85.53,85.48,85.46,85.52,85.51,85.50,85.49,85.42,85.24,85.23,85.31,85.38,85.38,85.41,85.45,85.47,85.42,85.36,85.29,85.25,85.27,85.37,85.45,85.51,85.53,85.53,85.53,85.51,85.45,85.32,85.39,85.48,85.55,85.60,85.66,85.63,85.60,85.58,85.49,85.36,85.23,85.13,85.13,85.00,85.03,85.06,84.98,84.97,85.05,85.14,85.20,85.20,85.19,85.18,85.16,85.10,85.08,85.03,85.04,85.10,85.17,85.18,85.16,85.12,85.12,85.11,85.10,85.10,85.10,85.10,85.10,85.10,85.10,85.09,85.04,85.00,84.96,84.90,84.90,84.91,84.93,84.95,84.91,84.90,84.90,84.88,84.83,84.51,84.28,84.21,84.35,84.55,84.57,84.55,84.51,84.45
86.73,86.69,86.64,86.59,86.54,86.50,86.48,86.46,86.45,86.48,86.55,86.56,86.55,86.61,86.63,86.65,86.68,86.73,86.72,86.72,86.74,86.77,86.84,86.91,86.92,86.88,86.83,86.80,86.82,86.81,86.73,86.65,86.54,86.45,86.38,86.37,86.33,86.27,86.18,86.06,85.95,85.88,85.85,85.87,85.95,85.96,86.01,86.09,86.16,86.21,86.21,86.19,86.17,86.18,86.22,86.26,86.31,86.38,86.45,86.54,86.63,86.68,86.67,86.66,86.65,86.63,86.57,86.52,86.49,86.47,86.43,86.35,86.33,86.35,86.38,86.29,86.15,86.02,85.91,85.83,85.81,85.80,85.81,85.82,85.83,85.85,85.87,85.88,85.84,85.80,85.79,85.79,85.77,85.75,85.75,85.78,85.82,85.87,85.93,85.98,86.01,86.01,86.01,86.03,86.08,86.15,86.23,86.29,86.34,86.36,86.36,86.36,86.35,86.32,86.27,86.22,86.21,86.21,86.19,86.17,86.06,85.96,85.91,85.86,85.86,85.84,85.84,85.86,85.88,85.87,85.85,85.81,85.73,85.70,85.69,85.67,85.60,85.52,85.53,85.56,85.58,85.58,85.53,85.52,85.56,85.63,85.61,85.54,85.47,85.43,85.50,85.52,85.51,85.50,85.55,85.57,85.53,85.47,85.46,85.50,85.50,85.47,85.43,85.46,85.42,85.43,85.47,85.41,85.22,85.21,85.30,85.35,85.33,85.37,85.42,85.44,85.41,85.34,85.25,85.18,85.21,85.34,85.42,85.45,85.47,85.49,85.48,85.46,85.42,85.31,85.35,85.41,85.49,85.56,85.63,85.59,85.56,85.55,85.50,85.34,85.20,85.11,85.14,84.97,85.02,85.06,84.96,84.93,85.03,85.12,85.17,85.20,85.19,85.17,85.14,85.10,85.10,85.07,85.07,85.12,85.15,85.16,85.11,85.04,85.04,85.07,85.06,85.05,85.04,85.04,85.05,85.05,85.05,85.03,84.99,84.95,84.92,84.87,84.86,84.89,84.93,84.96,84.90,84.89,84.88,84.86,84.80,84.52,84.30,84.22,84.31,84.49,84.51,84.48,84.43,84.41
86.69,86.65,86.59,86.53,86.50,86.49,86.46,86.43,86.40,86.43,86.54,86.58,86.57,86.60,86.60,86.62,86.66,86.71,86.65,86.65,86.68,86.72,86.78,86.90,86.94,86.92,86.86,86.80,86.80,86.77,86.69,86.61,86.49,86.38,86.30,86.31,86.22,86.13,86.02,85.92,85.85,85.82,85.82,85.87,85.99,86.01,86.06,86.13,86.20,86.23,86.22,86.19,86.15,86.11,86.14,86.20,86.27,86.33,86.41,86.51,86.61,86.66,86.66,86.63,86.61,86.61,86.56,86.52,86.50,86.49,86.45,86.34,86.29,86.29,86.33,86.24,86.12,86.02,85.92,85.84,85.81,85.80,85.79,85.77,85.80,85.86,85.88,85.84,85.78,85.73,85.72,85.73,85.75,85.74,85.72,85.71,85.72,85.76,85.84,85.91,85.97,86.00,86.00,86.01,86.03,86.09,86.16,86.27,86.35,86.39,86.39,86.39,86.39,86.37,86.32,86.21,86.17,86.16,86.14,86.11,86.05,85.98,85.92,85.89,85.85,85.82,85.80,85.81,85.86,85.88,85.87,85.80,85.67,85.67,85.68,85.67,85.56,85.46,85.46,85.49,85.50,85.50,85.50,85.50,85.51,85.57,85.54,85.44,85.36,85.39,85.53,85.58,85.60,85.59,85.53,85.56,85.51,85.45,85.48,85.43,85.45,85.46,85.41,85.40,85.35,85.38,85.46,85.41,85.21,85.21,85.28,85.30,85.29,85.34,85.38,85.39,85.39,85.33,85.21,85.12,85.17,85.32,85.37,85.38,85.40,85.46,85.42,85.40,85.37,85.29,85.29,85.33,85.41,85.48,85.55,85.52,85.49,85.50,85.49,85.31,85.17,85.12,85.18,84.98,85.02,85.04,84.92,84.92,85.02,85.09,85.12,85.19,85.18,85.14,85.10,85.10,85.10,85.10,85.11,85.12,85.08,85.10,85.04,84.94,84.94,85.02,85.00,84.96,84.95,84.95,84.97,84.97,84.96,84.95,84.93,84.89,84.84,84.82,84.79,84.86,84.92,84.94,84.88,84.87,84.85,84.82,84.77,84.60,84.41,84.29,84.31,84.39,84.38,84.32,84.26,84.29
86.73,86.67,86.60,86.54,86.50,86.50,86.47,86.43,86.40,86.41,86.50,86.54,86.54,86.55,86.55,86.56,86.58,86.60,86.59,86.64,86.66,86.66,86.70,86.80,86.87,86.89,86.83,86.80,86.79,86.74,86.65,86.51,86.37,86.27,86.21,86.18,86.08,85.98,85.90,85.87,85.86,85.83,85.85,85.91,85.99,86.01,86.04,86.09,86.17,86.20,86.17,86.14,86.13,86.11,86.12,86.15,86.20,86.27,86.35,86.44,86.53,86.59,86.64,86.64,86.61,86.57,86.53,86.51,86.50,86.49,86.45,86.39,86.33,86.28,86.25,86.22,86.17,86.13,86.08,85.98,85.84,85.77,85.73,85.73,85.76,85.79,85.78,85.75,85.73,85.71,85.71,85.72,85.76,85.77,85.73,85.68,85.65,85.69,85.79,85.87,85.92,85.94,85.96,86.01,86.06,86.10,86.16,86.24,86.32,86.37,86.39,86.40,86.40,86.38,86.33,86.21,86.14,86.12,86.10,86.07,86.03,85.97,85.91,85.85,85.85,85.82,85.77,85.74,85.79,85.81,85.81,85.77,85.67,85.70,85.70,85.66,85.58,85.51,85.49,85.47,85.45,85.44,85.42,85.42,85.43,85.43,85.44,85.42,85.42,85.49,85.53,85.58,85.62,85.62,85.58,85.54,85.48,85.45,85.49,85.44,85.43,85.41,85.38,85.36,85.39,85.45,85.47,85.41,85.24,85.20,85.24,85.26,85.24,85.29,85.33,85.33,85.33,85.23,85.12,85.05,85.08,85.20,85.25,85.28,85.33,85.36,85.38,85.37,85.32,85.22,85.23,85.28,85.35,85.41,85.45,85.44,85.46,85.49,85.44,85.32,85.19,85.11,85.15,85.03,85.05,85.06,84.97,84.97,85.01,85.06,85.12,85.19,85.15,85.11,85.10,85.10,85.08,85.11,85.14,85.15,85.07,85.11,85.09,84.98,84.85,84.86,84.82,84.78,84.79,84.75,84.77,84.81,84.83,84.76,84.73,84.69,84.64,84.62,84.61,84.67,84.71,84.73,84.72,84.70,84.68,84.64,84.54,84.42,84.31,84.24,84.21,84.24,84.22,84.17,84.12,84.13
86.74,86.67,86.61,86.56,86.52,86.50,86.48,86.44,86.40,86.40,86.46,86.49,86.50,86.51,86.51,86.50,86.51,86.54,86.57,86.63,86.63,86.59,86.61,86.69,86.78,86.83,86.79,86.80,86.77,86.70,86.59,86.44,86.29,86.19,86.13,86.06,85.97,85.86,85.81,85.83,85.85,85.85,85.89,85.94,85.97,85.97,85.99,86.04,86.11,86.14,86.10,86.07,86.06,86.07,86.08,86.11,86.16,86.24,86.32,86.40,86.47,86.54,86.60,86.62,86.60,86.55,86.51,86.51,86.52,86.51,86.47,86.41,86.33,86.25,86.18,86.19,86.19,86.18,86.15,86.05,85.89,85.77,85.70,85.69,85.71,85.72,85.71,85.71,85.72,85.73,85.73,85.73,85.76,85.79,85.73,85.66,85.61,85.66,85.74,85.82,85.86,85.88,85.95,86.04,86.11,86.16,86.19,86.24,86.29,86.35,86.39,86.40,86.40,86.39,86.34,86.21,86.12,86.08,86.07,86.05,86.03,85.98,85.92,85.84,85.85,85.82,85.76,85.71,85.74,85.74,85.73,85.71,85.66,85.72,85.72,85.67,85.61,85.55,85.50,85.45,85.41,85.39,85.36,85.36,85.36,85.33,85.37,85.41,85.46,85.53,85.52,85.56,85.60,85.61,85.59,85.52,85.47,85.45,85.49,85.46,85.42,85.40,85.39,85.36,85.43,85.48,85.48,85.40,85.25,85.20,85.20,85.21,85.20,85.25,85.28,85.30,85.29,85.17,85.06,85.01,85.04,85.13,85.18,85.23,85.29,85.30,85.35,85.35,85.28,85.16,85.18,85.24,85.31,85.35,85.40,85.41,85.45,85.49,85.41,85.33,85.21,85.11,85.16,85.07,85.07,85.07,85.00,85.00,85.00,85.03,85.10,85.18,85.12,85.10,85.10,85.10,85.07,85.12,85.17,85.18,85.09,85.13,85.12,85.02,84.83,84.75,84.68,84.65,84.66,84.58,84.59,84.64,84.67,84.55,84.53,84.51,84.47,84.45,84.45,84.49,84.51,84.51,84.56,84.54,84.52,84.49,84.38,84.29,84.24,84.20,84.15,84.14,84.14,84.11,84.08,84.09
86.70,86.63,86.60,86.59,86.57,86.51,86.49,86.45,86.40,86.40,86.41,86.42,86.45,86.50,86.49,86.46,86.46,86.53,86.60,86.64,86.60,86.52,86.52,86.56,86.65,86.73,86.75,86.81,86.74,86.63,86.53,86.39,86.28,86.16,86.05,85.98,85.88,85.80,85.77,85.81,85.83,85.89,85.93,85.95,85.90,85.90,85.91,85.95,86.03,86.05,86.01,85.97,85.96,86.00,86.02,86.07,86.15,86.24,86.31,86.38,86.44,86.49,86.53,86.57,86.58,86.56,86.53,86.53,86.55,86.55,86.50,86.39,86.28,86.19,86.14,86.17,86.16,86.13,86.10,86.06,85.95,85.82,85.71,85.65,85.64,85.64,85.68,85.74,85.78,85.79,85.79,85.78,85.77,85.77,85.73,85.67,85.63,85.66,85.71,85.75,85.79,85.84,85.97,86.09,86.19,86.25,86.25,86.26,86.28,86.32,86.36,86.39,86.40,86.39,86.34,86.21,86.11,86.05,86.04,86.07,86.06,86.01,85.93,85.86,85.85,85.82,85.78,85.73,85.71,85.67,85.63,85.62,85.64,85.72,85.74,85.70,85.63,85.55,85.48,85.43,85.40,85.38,85.31,85.30,85.32,85.27,85.36,85.44,85.49,85.50,85.50,85.51,85.51,85.52,85.54,85.50,85.46,85.46,85.49,85.46,85.43,85.43,85.46,85.42,85.45,85.49,85.48,85.38,85.23,85.19,85.17,85.13,85.18,85.22,85.26,85.29,85.26,85.16,85.05,84.99,85.07,85.13,85.18,85.23,85.29,85.30,85.33,85.33,85.27,85.12,85.14,85.22,85.30,85.31,85.42,85.45,85.47,85.49,85.41,85.33,85.21,85.12,85.19,85.08,85.07,85.07,85.00,85.00,85.00,85.02,85.06,85.13,85.11,85.10,85.10,85.10,85.07,85.14,85.20,85.19,85.16,85.16,85.13,85.05,84.93,84.73,84.61,84.57,84.58,84.45,84.43,84.46,84.45,84.29,84.33,84.35,84.34,84.32,84.32,84.32,84.31,84.30,84.37,84.37,84.39,84.39,84.30,84.23,84.21,84.19,84.16,84.13,84.15,84.16,84.17,84.21
86.70,86.64,86.62,86.61,86.59,86.53,86.50,86.48,86.44,86.40,86.40,86.38,86.39,86.43,86.40,86.41,86.45,86.53,86.59,86.63,86.63,86.59,86.55,86.56,86.60,86.64,86.65,86.68,86.62,86.54,86.45,86.34,86.22,86.09,85.98,85.90,85.84,85.79,85.78,85.80,85.82,85.87,85.90,85.90,85.86,85.82,85.82,85.86,85.93,85.96,85.94,85.92,85.92,85.94,85.96,86.01,86.10,86.22,86.28,86.33,86.38,86.42,86.45,86.51,86.56,86.58,86.58,86.62,86.64,86.61,86.52,86.40,86.28,86.18,86.10,86.10,86.10,86.09,86.09,86.08,86.01,85.88,85.75,85.66,85.60,85.58,85.62,85.69,85.76,85.77,85.75,85.72,85.71,85.72,85.70,85.67,85.64,85.67,85.69,85.70,85.74,85.82,85.97,86.10,86.21,86.28,86.28,86.28,86.29,86.31,86.36,86.38,86.38,86.35,86.29,86.18,86.11,86.07,86.05,86.08,86.07,86.01,85.94,85.88,85.87,85.85,85.79,85.73,85.69,85.63,85.59,85.57,85.61,85.67,85.70,85.67,85.62,85.55,85.49,85.45,85.45,85.38,85.31,85.30,85.32,85.35,85.42,85.48,85.52,85.51,85.52,85.55,85.55,85.54,85.55,85.53,85.51,85.50,85.50,85.45,85.44,85.44,85.46,85.44,85.47,85.48,85.45,85.38,85.22,85.16,85.15,85.15,85.21,85.23,85.24,85.24,85.19,85.13,85.05,85.00,85.09,85.12,85.15,85.18,85.21,85.22,85.28,85.29,85.23,85.12,85.09,85.16,85.26,85.30,85.37,85.39,85.40,85.40,85.32,85.28,85.19,85.10,85.11,85.08,85.06,85.04,85.00,84.96,84.95,84.98,85.04,85.11,85.07,85.05,85.07,85.10,85.09,85.12,85.13,85.11,85.14,85.13,85.09,85.04,85.01,84.86,84.71,84.59,84.53,84.42,84.40,84.41,84.39,84.27,84.30,84.31,84.31,84.30,84.30,84.29,84.27,84.23,84.28,84.31,84.33,84.34,84.29,84.25,84.22,84.19,84.18,84.16,84.18,84.21,84.24,84.27
86.72,86.68,86.65,86.63,86.62,86.55,86.53,86.51,86.47,86.41,86.40,86.37,86.34,86.35,86.33,86.37,86.45,86.52,86.57,86.62,86.65,86.66,86.59,86.56,86.55,86.55,86.55,86.54,86.49,86.43,86.36,86.27,86.13,86.01,85.91,85.85,85.82,85.80,85.80,85.80,85.81,85.84,85.85,85.84,85.81,85.75,85.75,85.79,85.86,85.89,85.90,85.90,85.90,85.90,85.91,85.96,86.06,86.19,86.24,86.27,86.31,86.35,86.38,86.46,86.53,86.59,86.61,86.67,86.70,86.66,86.53,86.41,86.29,86.17,86.07,86.02,86.03,86.04,86.07,86.09,86.04,85.93,85.80,85.67,85.58,85.54,85.56,85.64,85.72,85.71,85.67,85.63,85.61,85.63,85.64,85.64,85.64,85.67,85.67,85.67,85.69,85.79,85.94,86.08,86.19,86.27,86.29,86.30,86.30,86.31,86.34,86.35,86.34,86.30,86.25,86.16,86.12,86.08,86.05,86.06,86.05,85.99,85.93,85.89,85.89,85.85,85.79,85.72,85.67,85.60,85.55,85.54,85.58,85.62,85.64,85.63,85.60,85.55,85.49,85.48,85.49,85.37,85.32,85.31,85.35,85.44,85.48,85.52,85.54,85.52,85.55,85.60,85.62,85.60,85.59,85.58,85.56,85.53,85.50,85.44,85.44,85.44,85.42,85.45,85.47,85.46,85.42,85.38,85.23,85.15,85.15,85.19,85.24,85.23,85.23,85.23,85.15,85.11,85.05,85.00,85.09,85.11,85.12,85.12,85.14,85.15,85.23,85.26,85.21,85.12,85.04,85.11,85.23,85.30,85.32,85.32,85.32,85.31,85.23,85.22,85.16,85.08,85.03,85.06,85.04,85.01,85.01,84.94,84.92,84.95,85.00,85.08,85.03,85.01,85.03,85.08,85.07,85.07,85.05,85.02,85.08,85.09,85.05,85.02,85.07,84.98,84.80,84.62,84.49,84.42,84.41,84.41,84.38,84.32,84.31,84.30,84.30,84.29,84.29,84.29,84.26,84.22,84.23,84.28,84.30,84.30,84.29,84.27,84.23,84.20,84.20,84.21,84.23,84.26,84.30,84.31
86.78,86.76,86.72,86.68,86.66,86.60,86.57,86.54,86.48,86.44,86.41,86.38,86.36,86.31,86.32,86.37,86.45,86.51,86.54,86.61,86.65,86.62,86.55,86.50,86.48,86.48,86.48,86.45,86.38,86.31,86.24,86.12,86.01,85.94,85.89,85.85,85.84,85.81,85.78,85.77,85.80,85.80,85.79,85.77,85.76,85.73,85.73,85.77,85.85,85.86,85.89,85.90,85.90,85.90,85.92,85.98,86.06,86.15,86.20,86.23,86.27,86.32,86.35,86.42,86.49,86.53,86.56,86.60,86.64,86.62,86.52,86.39,86.27,86.15,86.06,85.97,85.92,85.93,85.99,86.04,86.00,85.92,85.82,85.71,85.60,85.54,85.53,85.58,85.61,85.56,85.51,85.47,85.44,85.45,85.49,85.54,85.60,85.65,85.68,85.67,85.65,85.69,85.84,85.99,86.12,86.21,86.26,86.29,86.30,86.30,86.29,86.27,86.25,86.25,86.24,86.20,86.13,86.05,85.98,85.97,85.96,85.92,85.87,85.84,85.84,85.80,85.75,85.71,85.65,85.58,85.53,85.52,85.57,85.60,85.59,85.57,85.58,85.54,85.48,85.46,85.47,85.33,85.32,85.37,85.44,85.48,85.49,85.54,85.56,85.52,85.56,85.63,85.67,85.66,85.66,85.63,85.55,85.48,85.49,85.43,85.42,85.39,85.35,85.40,85.42,85.42,85.41,85.40,85.26,85.20,85.20,85.25,85.23,85.25,85.30,85.33,85.21,85.14,85.03,84.97,85.08,85.10,85.10,85.11,85.12,85.17,85.21,85.24,85.24,85.12,85.04,85.10,85.22,85.29,85.30,85.27,85.26,85.29,85.22,85.20,85.15,85.07,85.01,85.02,85.01,85.02,85.06,84.99,84.97,84.96,84.95,85.02,85.01,85.00,85.00,85.00,84.96,84.94,84.96,84.99,85.01,85.05,85.03,85.00,85.06,84.97,84.80,84.61,84.48,84.42,84.45,84.44,84.41,84.42,84.35,84.31,84.29,84.24,84.23,84.26,84.29,84.28,84.27,84.29,84.32,84.32,84.27,84.22,84.19,84.19,84.21,84.27,84.28,84.30,84.32,84.35
86.80,86.79,86.74,86.70,86.68,86.62,86.59,86.55,86.49,86.46,86.42,86.39,86.36,86.30,86.29,86.34,86.39,86.43,86.49,86.56,86.59,86.56,86.48,86.40,86.39,86.39,86.38,86.37,86.30,86.21,86.11,86.00,85.90,85.87,85.87,85.87,85.86,85.83,85.79,85.76,85.77,85.76,85.74,85.72,85.72,85.71,85.70,85.73,85.81,85.84,85.88,85.90,85.90,85.90,85.92,85.97,86.04,86.14,86.18,86.20,86.23,86.29,86.34,86.40,86.44,86.47,86.51,86.58,86.62,86.59,86.47,86.33,86.24,86.16,86.07,85.96,85.87,85.84,85.87,85.94,85.93,85.88,85.80,85.71,85.61,85.52,85.49,85.52,85.54,85.50,85.45,85.39,85.33,85.33,85.37,85.44,85.52,85.62,85.68,85.68,85.65,85.65,85.78,85.93,86.08,86.20,86.27,86.29,86.30,86.29,86.26,86.23,86.22,86.22,86.25,86.25,86.18,86.06,85.94,85.89,85.87,85.85,85.82,85.79,85.77,85.76,85.75,85.71,85.64,85.59,85.54,85.52,85.56,85.59,85.57,85.54,85.54,85.52,85.48,85.43,85.39,85.30,85.33,85.41,85.47,85.48,85.49,85.54,85.58,85.56,85.59,85.65,85.68,85.67,85.61,85.58,85.54,85.50,85.50,85.46,85.45,85.42,85.38,85.38,85.39,85.39,85.39,85.40,85.30,85.23,85.21,85.24,85.21,85.23,85.30,85.36,85.25,85.15,85.03,84.95,85.04,85.09,85.13,85.15,85.15,85.19,85.20,85.22,85.21,85.08,85.01,85.07,85.17,85.25,85.29,85.27,85.26,85.25,85.21,85.18,85.12,85.05,85.00,84.99,84.96,84.97,85.04,85.01,84.98,84.96,84.97,85.00,85.00,84.98,84.95,84.95,84.91,84.89,84.89,84.91,84.93,84.95,84.92,84.90,84.93,84.87,84.72,84.56,84.45,84.43,84.47,84.46,84.43,84.47,84.41,84.37,84.34,84.28,84.25,84.27,84.32,84.35,84.29,84.31,84.31,84.30,84.27,84.23,84.20,84.19,84.20,84.28,84.30,84.30,84.31,84.33
86.80,86.79,86.75,86.70,86.69,86.62,86.59,86.55,86.50,86.48,86.43,86.39,86.36,86.29,86.26,86.29,86.32,86.32,86.43,86.50,86.52,86.49,86.40,86.30,86.29,86.30,86.27,86.29,86.22,86.12,86.00,85.89,85.80,85.80,85.85,85.90,85.89,85.87,85.82,85.76,85.72,85.71,85.70,85.70,85.70,85.68,85.66,85.67,85.75,85.81,85.87,85.90,85.90,85.90,85.91,85.94,86.01,86.14,86.16,86.16,86.18,86.26,86.33,86.38,86.40,86.42,86.48,86.58,86.61,86.55,86.38,86.24,86.20,86.17,86.09,85.97,85.86,85.77,85.73,85.80,85.84,85.80,85.74,85.69,85.62,85.51,85.45,85.46,85.49,85.50,85.45,85.36,85.25,85.25,85.28,85.34,85.43,85.59,85.67,85.70,85.69,85.64,85.74,85.89,86.07,86.21,86.28,86.30,86.30,86.29,86.24,86.21,86.20,86.22,86.26,86.29,86.24,86.10,85.91,85.82,85.80,85.79,85.77,85.73,85.71,85.74,85.76,85.72,85.65,85.61,85.57,85.53,85.55,85.58,85.56,85.52,85.49,85.49,85.47,85.40,85.28,85.28,85.35,85.43,85.47,85.44,85.48,85.54,85.60,85.61,85.62,85.66,85.68,85.65,85.49,85.48,85.53,85.57,85.52,85.51,85.50,85.49,85.47,85.38,85.38,85.39,85.38,85.40,85.32,85.24,85.18,85.18,85.18,85.18,85.25,85.36,85.26,85.16,85.03,84.93,84.97,85.08,85.17,85.21,85.20,85.20,85.20,85.19,85.14,85.02,84.98,85.03,85.12,85.19,85.27,85.31,85.29,85.21,85.20,85.15,85.08,85.02,85.00,84.98,84.91,84.90,84.97,84.99,84.96,84.97,85.02,85.00,85.00,84.95,84.90,84.90,84.90,84.88,84.84,84.81,84.85,84.82,84.78,84.76,84.76,84.72,84.60,84.48,84.41,84.45,84.48,84.48,84.46,84.48,84.48,84.46,84.43,84.37,84.31,84.31,84.35,84.41,84.32,84.32,84.30,84.27,84.30,84.28,84.23,84.19,84.19,84.28,84.30,84.30,84.28,84.27
86.80,86.80,86.77,86.74,86.69,86.62,86.60,86.58,86.54,86.49,86.43,86.40,86.38,86.34,86.26,86.30,86.32,86.28,86.40,86.44,86.47,86.47,86.39,86.31,86.26,86.23,86.21,86.17,86.08,85.97,85.87,85.81,85.76,85.78,85.82,85.83,85.83,85.83,85.83,85.80,85.71,85.66,85.64,85.63,85.63,85.64,85.66,85.69,85.72,85.76,85.81,85.85,85.87,85.86,85.87,85.90,85.95,86.09,86.16,86.18,86.20,86.24,86.30,86.34,86.37,86.41,86.48,86.53,86.48,86.37,86.26,86.21,86.19,86.17,86.11,85.98,85.83,85.71,85.65,85.68,85.72,85.72,85.70,85.68,85.64,85.55,85.48,85.44,85.43,85.43,85.41,85.37,85.30,85.26,85.26,85.30,85.39,85.54,85.64,85.68,85.68,85.67,85.74,85.89,86.06,86.19,86.24,86.26,86.27,86.25,86.22,86.24,86.26,86.29,86.31,86.34,86.29,86.18,86.02,85.88,85.79,85.74,85.71,85.68,85.68,85.72,85.74,85.70,85.63,85.60,85.57,85.52,85.48,85.48,85.48,85.47,85.43,85.39,85.34,85.30,85.28,85.32,85.39,85.44,85.47,85.47,85.51,85.57,85.62,85.66,85.67,85.66,85.64,85.61,85.53,85.52,85.55,85.58,85.54,85.53,85.53,85.51,85.46,85.43,85.43,85.40,85.35,85.37,85.28,85.19,85.12,85.12,85.13,85.14,85.18,85.23,85.24,85.16,85.04,84.95,84.93,85.07,85.18,85.21,85.17,85.17,85.17,85.14,85.08,84.98,84.94,85.01,85.12,85.19,85.27,85.32,85.28,85.18,85.17,85.15,85.08,85.00,85.00,84.94,84.89,84.88,84.93,84.96,84.97,85.00,85.02,84.96,84.96,84.93,84.90,84.90,84.90,84.90,84.88,84.84,84.82,84.81,84.78,84.75,84.72,84.68,84.57,84.47,84.45,84.51,84.53,84.53,84.53,84.56,84.56,84.54,84.52,84.49,84.46,84.43,84.45,84.49,84.42,84.42,84.42,84.42,84.42,84.44,84.34,84.23,84.20,84.25,84.28,84.27,84.24,84.24
86.80,86.80,86.79,86.76,86.69,86.63,86.61,86.58,86.55,86.49,86.42,86.38,86.37,86.34,86.28,86.29,86.29,86.25,86.35,86.38,86.41,86.43,86.36,86.29,86.22,86.16,86.14,86.07,85.98,85.88,85.79,85.78,85.77,85.78,85.79,85.77,85.77,85.78,85.80,85.81,85.71,85.64,85.60,85.60,85.61,85.63,85.67,85.70,85.70,85.71,85.73,85.76,85.79,85.81,85.86,85.89,85.94,86.07,86.16,86.20,86.22,86.24,86.28,86.31,86.35,86.39,86.46,86.46,86.37,86.26,86.21,86.19,86.18,86.15,86.10,86.00,85.84,85.70,85.61,85.59,85.60,85.62,85.64,85.64,85.61,85.54,85.47,85.41,85.38,85.37,85.36,85.34,85.29,85.24,85.24,85.28,85.36,85.48,85.57,85.61,85.63,85.67,85.74,85.87,86.01,86.12,86.16,86.20,86.22,86.22,86.22,86.26,86.30,86.33,86.34,86.36,86.32,86.22,86.07,85.90,85.78,85.70,85.66,85.63,85.65,85.69,85.71,85.68,85.60,85.58,85.55,85.51,85.45,85.42,85.41,85.41,85.37,85.30,85.24,85.23,85.27,85.32,85.38,85.43,85.46,85.49,85.52,85.55,85.59,85.65,85.65,85.61,85.58,85.57,85.54,85.52,85.54,85.56,85.56,85.55,85.54,85.52,85.47,85.46,85.46,85.41,85.35,85.36,85.26,85.16,85.09,85.11,85.10,85.13,85.16,85.19,85.23,85.16,85.06,84.96,84.93,85.05,85.14,85.17,85.12,85.12,85.12,85.09,85.03,84.95,84.91,84.98,85.10,85.17,85.24,85.27,85.22,85.10,85.11,85.11,85.05,84.97,85.00,84.91,84.88,84.87,84.88,84.90,84.94,84.97,84.97,84.93,84.91,84.89,84.88,84.90,84.88,84.89,84.88,84.84,84.80,84.80,84.79,84.76,84.73,84.69,84.58,84.51,84.53,84.56,84.57,84.59,84.61,84.62,84.61,84.59,84.59,84.60,84.58,84.54,84.53,84.56,84.51,84.52,84.53,84.53,84.52,84.52,84.40,84.26,84.19,84.22,84.25,84.24,84.21,84.22
86.79,86.80,86.79,86.76,86.70,86.67,86.62,86.56,86.50,86.48,86.41,86.35,86.31,86.31,86.30,86.26,86.22,86.23,86.29,86.32,86.35,86.36,86.31,86.26,86.17,86.09,86.08,86.02,85.92,85.83,85.78,85.80,85.84,85.82,85.76,85.71,85.70,85.71,85.73,85.77,85.73,85.67,85.61,85.59,85.62,85.65,85.68,85.69,85.70,85.67,85.63,85.62,85.65,85.76,85.86,85.93,85.99,86.07,86.15,86.20,86.23,86.24,86.27,86.29,86.32,86.36,86.41,86.38,86.31,86.24,86.22,86.18,86.15,86.11,86.07,86.01,85.91,85.77,85.63,85.51,85.49,85.51,85.54,85.55,85.53,85.47,85.42,85.38,85.34,85.32,85.30,85.27,85.22,85.21,85.22,85.26,85.33,85.41,85.46,85.50,85.55,85.63,85.73,85.83,85.93,86.00,86.04,86.09,86.15,86.20,86.25,86.28,86.31,86.34,86.38,86.37,86.31,86.20,86.05,85.87,85.75,85.66,85.62,85.58,85.61,85.64,85.66,85.65,85.57,85.54,85.53,85.50,85.47,85.42,85.36,85.32,85.31,85.20,85.17,85.19,85.24,85.28,85.32,85.38,85.44,85.49,85.47,85.48,85.51,85.57,85.55,85.50,85.50,85.54,85.51,85.48,85.48,85.50,85.57,85.55,85.54,85.52,85.50,85.47,85.48,85.44,85.38,85.37,85.27,85.16,85.10,85.14,85.12,85.15,85.21,85.25,85.22,85.18,85.07,84.96,84.96,85.01,85.05,85.06,85.04,85.04,85.04,85.03,84.99,84.92,84.90,84.96,85.05,85.13,85.16,85.17,85.10,84.98,85.03,85.03,84.98,84.93,85.00,84.87,84.87,84.87,84.83,84.83,84.85,84.86,84.87,84.90,84.85,84.83,84.85,84.90,84.84,84.83,84.83,84.82,84.80,84.80,84.80,84.79,84.78,84.76,84.66,84.60,84.65,84.60,84.60,84.63,84.68,84.67,84.62,84.60,84.63,84.68,84.67,84.62,84.59,84.59,84.59,84.63,84.63,84.59,84.57,84.51,84.41,84.28,84.13,84.19,84.21,84.21,84.20,84.19
86.75,86.77,86.77,86.74,86.67,86.64,86.59,86.54,86.49,86.47,86.41,86.35,86.31,86.33,86.34,86.31,86.27,86.25,86.27,86.29,86.31,86.31,86.29,86.23,86.13,86.03,85.99,85.91,85.85,85.80,85.78,85.81,85.85,85.83,85.75,85.70,85.67,85.65,85.66,85.68,85.66,85.63,85.59,85.57,85.58,85.60,85.61,85.60,85.57,85.57,85.56,85.57,85.65,85.78,85.87,85.95,86.04,86.13,86.19,86.21,86.22,86.24,86.27,86.27,86.28,86.30,86.33,86.31,86.30,86.28,86.27,86.22,86.17,86.14,86.12,86.09,86.03,85.91,85.75,85.56,85.43,85.40,85.41,85.44,85.43,85.40,85.37,85.34,85.30,85.27,85.24,85.21,85.18,85.18,85.20,85.23,85.27,85.35,85.41,85.46,85.53,85.63,85.72,85.81,85.87,85.92,85.96,86.04,86.13,86.20,86.25,86.29,86.31,86.33,86.37,86.34,86.24,86.12,85.99,85.85,85.73,85.65,85.60,85.56,85.58,85.63,85.68,85.68,85.60,85.55,85.52,85.50,85.49,85.43,85.34,85.25,85.24,85.17,85.14,85.16,85.21,85.24,85.28,85.35,85.41,85.45,85.41,85.40,85.40,85.40,85.37,85.35,85.35,85.37,85.32,85.33,85.37,85.43,85.49,85.48,85.47,85.47,85.49,85.49,85.47,85.42,85.35,85.34,85.25,85.16,85.11,85.13,85.14,85.18,85.23,85.27,85.26,85.21,85.06,84.89,84.84,84.92,84.96,84.97,84.96,84.96,84.99,84.99,84.94,84.91,84.90,84.93,84.98,85.05,85.07,85.04,84.99,84.93,84.95,84.96,84.93,84.91,84.95,84.85,84.86,84.89,84.86,84.86,84.87,84.87,84.88,84.90,84.87,84.86,84.87,84.90,84.83,84.82,84.82,84.82,84.85,84.82,84.80,84.81,84.84,84.80,84.74,84.68,84.63,84.60,84.60,84.64,84.68,84.65,84.65,84.65,84.66,84.69,84.68,84.63,84.60,84.60,84.60,84.65,84.66,84.63,84.59,84.54,84.43,84.29,84.14,84.20,84.21,84.19,84.16,84.15
86.70,86.73,86.74,86.71,86.64,86.59,86.55,86.51,86.47,86.43,86.38,86.34,86.32,86.36,86.38,86.37,86.33,86.30,86.26,86.27,86.27,86.25,86.25,86.19,86.08,85.97,85.89,85.81,85.79,85.78,85.78,85.83,85.86,85.83,85.76,85.70,85.66,85.62,85.60,85.60,85.60,85.59,85.58,85.55,85.54,85.54,85.54,85.51,85.45,85.48,85.49,85.54,85.65,85.78,85.84,85.94,86.05,86.14,86.16,86.17,86.19,86.23,86.25,86.24,86.24,86.26,86.27,86.27,86.30,86.32,86.32,86.26,86.22,86.19,86.17,86.17,86.14,86.05,85.88,85.64,85.42,85.32,85.29,85.31,85.33,85.32,85.31,85.29,85.26,85.23,85.20,85.17,85.15,85.16,85.18,85.20,85.22,85.30,85.36,85.44,85.52,85.64,85.72,85.77,85.82,85.86,85.91,86.02,86.13,86.22,86.26,86.28,86.29,86.31,86.35,86.30,86.18,86.05,85.93,85.84,85.73,85.65,85.58,85.53,85.55,85.62,85.69,85.70,85.64,85.57,85.52,85.50,85.49,85.43,85.31,85.20,85.19,85.16,85.13,85.13,85.17,85.20,85.24,85.30,85.34,85.37,85.32,85.30,85.29,85.27,85.23,85.22,85.23,85.23,85.18,85.21,85.28,85.36,85.39,85.38,85.38,85.40,85.45,85.46,85.44,85.38,85.33,85.31,85.24,85.18,85.13,85.13,85.19,85.22,85.26,85.31,85.30,85.24,85.06,84.86,84.76,84.86,84.90,84.91,84.92,84.90,84.96,84.96,84.91,84.90,84.89,84.88,84.91,84.99,84.99,84.94,84.91,84.90,84.90,84.90,84.90,84.90,84.90,84.84,84.86,84.88,84.89,84.88,84.89,84.90,84.90,84.89,84.89,84.90,84.90,84.90,84.84,84.83,84.83,84.83,84.89,84.85,84.82,84.82,84.87,84.82,84.78,84.72,84.62,84.59,84.60,84.65,84.68,84.64,84.66,84.68,84.68,84.69,84.68,84.63,84.60,84.59,84.61,84.65,84.66,84.65,84.60,84.55,84.45,84.31,84.18,84.24,84.24,84.21,84.18,84.16
86.65,86.66,86.66,86.65,86.60,86.55,86.50,86.45,86.42,86.36,86.32,86.31,86.33,86.39,86.40,86.40,86.40,86.40,86.30,86.25,86.20,86.16,86.15,86.15,86.02,85.87,85.79,85.75,85.75,85.78,85.82,85.88,85.88,85.84,85.78,85.74,85.67,85.62,85.59,85.59,85.60,85.60,85.59,85.55,85.50,85.47,85.46,85.45,85.41,85.42,85.44,85.50,85.60,85.68,85.73,85.83,85.93,85.94,85.91,86.03,86.16,86.20,86.21,86.21,86.22,86.24,86.28,86.28,86.31,86.34,86.35,86.29,86.27,86.25,86.23,86.20,86.18,86.13,86.00,85.76,85.50,85.32,85.21,85.18,85.20,85.23,85.24,85.23,85.22,85.21,85.20,85.18,85.15,85.15,85.16,85.16,85.18,85.26,85.34,85.43,85.53,85.64,85.69,85.72,85.76,85.83,85.92,86.04,86.17,86.28,86.28,86.24,86.24,86.28,86.31,86.26,86.16,86.04,85.93,85.85,85.76,85.67,85.56,85.47,85.48,85.54,85.61,85.67,85.64,85.57,85.52,85.49,85.45,85.34,85.25,85.20,85.20,85.19,85.15,85.12,85.12,85.17,85.20,85.20,85.18,85.17,85.16,85.16,85.19,85.26,85.20,85.19,85.21,85.22,85.22,85.26,85.30,85.32,85.28,85.26,85.25,85.27,85.32,85.34,85.37,85.37,85.32,85.30,85.25,85.21,85.19,85.19,85.26,85.32,85.36,85.37,85.35,85.26,85.11,84.97,84.87,84.89,84.93,84.96,84.97,84.92,84.96,84.96,84.91,84.89,84.83,84.82,84.88,84.99,84.94,84.91,84.90,84.90,84.90,84.90,84.90,84.90,84.88,84.88,84.85,84.83,84.84,84.82,84.87,84.90,84.89,84.85,84.87,84.89,84.90,84.90,84.87,84.90,84.92,84.88,84.88,84.88,84.86,84.82,84.82,84.80,84.77,84.71,84.64,84.56,84.60,84.66,84.69,84.68,84.63,84.63,84.66,84.67,84.65,84.63,84.61,84.59,84.62,84.62,84.62,84.61,84.59,84.52,84.43,84.35,84.28,84.32,84.33,84.34,84.34,84.29
86.62,86.60,86.59,86.58,86.55,86.52,86.46,86.42,86.40,86.36,86.32,86.30,86.31,86.40,86.40,86.40,86.40,86.38,86.30,86.21,86.13,86.06,86.03,86.01,85.90,85.78,85.73,85.73,85.78,85.82,85.86,85.90,85.89,85.86,85.81,85.77,85.72,85.66,85.61,85.59,85.60,85.59,85.57,85.53,85.48,85.43,85.41,85.40,85.36,85.37,85.40,85.46,85.54,85.62,85.65,85.70,85.75,85.71,85.71,85.85,86.00,86.05,86.06,86.11,86.18,86.25,86.30,86.33,86.35,86.36,86.36,86.31,86.28,86.26,86.22,86.19,86.18,86.15,86.07,85.87,85.60,85.38,85.22,85.14,85.14,85.15,85.17,85.19,85.20,85.20,85.20,85.19,85.17,85.17,85.17,85.19,85.21,85.27,85.34,85.43,85.53,85.64,85.69,85.72,85.75,85.83,85.96,86.09,86.22,86.32,86.29,86.23,86.21,86.23,86.25,86.20,86.11,86.01,85.92,85.85,85.77,85.68,85.58,85.49,85.46,85.48,85.53,85.60,85.57,85.50,85.44,85.40,85.35,85.26,85.20,85.17,85.17,85.19,85.18,85.17,85.15,85.16,85.16,85.14,85.12,85.11,85.13,85.14,85.19,85.29,85.25,85.24,85.27,85.33,85.37,85.39,85.40,85.38,85.33,85.31,85.29,85.29,85.32,85.32,85.36,85.37,85.35,85.29,85.24,85.21,85.20,85.23,85.30,85.35,85.37,85.34,85.31,85.21,85.10,85.00,84.93,84.91,84.92,84.96,84.99,84.94,84.96,84.94,84.89,84.85,84.78,84.79,84.86,84.95,84.90,84.91,84.91,84.90,84.90,84.90,84.89,84.87,84.85,84.89,84.85,84.81,84.84,84.81,84.86,84.90,84.89,84.86,84.86,84.88,84.90,84.90,84.87,84.90,84.91,84.87,84.84,84.87,84.86,84.83,84.80,84.80,84.78,84.72,84.65,84.56,84.59,84.64,84.67,84.65,84.61,84.61,84.61,84.61,84.61,84.61,84.60,84.58,84.61,84.60,84.59,84.57,84.57,84.52,84.43,84.33,84.25,84.33,84.37,84.40,84.42,84.36
86.58,86.54,86.52,86.51,86.50,86.49,86.44,86.40,86.40,86.38,86.36,86.30,86.28,86.39,86.39,86.38,86.35,86.30,86.27,86.15,86.04,85.97,85.90,85.83,85.76,85.71,85.71,85.74,85.83,85.89,85.90,85.90,85.90,85.89,85.86,85.80,85.78,85.72,85.65,85.60,85.60,85.58,85.54,85.49,85.47,85.42,85.39,85.35,85.30,85.33,85.37,85.42,85.47,85.58,85.59,85.58,85.55,85.50,85.55,85.66,85.77,85.85,85.86,85.99,86.13,86.25,86.33,86.38,86.40,86.39,86.36,86.31,86.28,86.24,86.20,86.16,86.15,86.14,86.10,85.95,85.70,85.45,85.26,85.15,85.11,85.09,85.11,85.16,85.20,85.20,85.20,85.20,85.20,85.20,85.21,85.23,85.28,85.31,85.35,85.43,85.53,85.62,85.69,85.73,85.77,85.86,86.01,86.15,86.27,86.34,86.29,86.23,86.19,86.17,86.17,86.12,86.06,85.98,85.92,85.84,85.76,85.68,85.61,85.55,85.46,85.43,85.46,85.50,85.48,85.39,85.31,85.27,85.22,85.18,85.15,85.14,85.13,85.17,85.21,85.23,85.21,85.16,85.13,85.12,85.12,85.13,85.17,85.19,85.24,85.35,85.35,85.33,85.37,85.49,85.55,85.55,85.53,85.50,85.45,85.42,85.40,85.38,85.37,85.35,85.38,85.40,85.38,85.27,85.24,85.20,85.19,85.24,85.32,85.35,85.33,85.27,85.22,85.14,85.06,85.00,84.95,84.92,84.91,84.93,84.99,84.96,84.96,84.92,84.86,84.81,84.74,84.77,84.85,84.89,84.87,84.91,84.93,84.90,84.90,84.90,84.87,84.84,84.80,84.88,84.85,84.81,84.84,84.81,84.86,84.90,84.90,84.90,84.86,84.87,84.90,84.89,84.86,84.85,84.85,84.84,84.80,84.83,84.84,84.83,84.80,84.80,84.79,84.75,84.64,84.57,84.58,84.61,84.62,84.58,84.59,84.59,84.57,84.54,84.57,84.58,84.58,84.58,84.58,84.58,84.57,84.54,84.54,84.54,84.45,84.30,84.16,84.29,84.37,84.43,84.44,84.39
86.53,86.52,86.51,86.48,86.44,86.43,86.42,86.41,86.41,86.40,86.38,86.35,86.33,86.33,86.30,86.24,86.18,86.16,86.14,86.06,85.97,85.87,85.78,85.79,85.79,85.78,85.79,85.85,85.92,85.96,85.96,85.96,85.92,85.90,85.88,85.85,85.79,85.72,85.64,85.58,85.55,85.56,85.54,85.50,85.48,85.43,85.39,85.36,85.32,85.35,85.35,85.37,85.41,85.46,85.49,85.49,85.48,85.49,85.49,85.51,85.57,85.66,85.77,85.91,86.06,86.20,86.30,86.35,86.39,86.39,86.36,86.29,86.26,86.24,86.23,86.17,86.12,86.07,85.98,85.82,85.62,85.41,85.25,85.14,85.07,85.04,85.06,85.12,85.18,85.20,85.20,85.20,85.20,85.20,85.23,85.29,85.35,85.37,85.41,85.46,85.51,85.54,85.60,85.69,85.82,85.96,86.09,86.20,86.27,86.31,86.30,86.22,86.15,86.10,86.08,86.02,85.97,85.92,85.88,85.81,85.72,85.66,85.62,85.58,85.46,85.41,85.40,85.39,85.35,85.27,85.19,85.14,85.13,85.15,85.17,85.18,85.18,85.19,85.23,85.28,85.31,85.24,85.16,85.14,85.16,85.18,85.21,85.23,85.27,85.36,85.38,85.35,85.39,85.51,85.57,85.56,85.53,85.50,85.48,85.46,85.44,85.43,85.45,85.43,85.46,85.46,85.42,85.31,85.20,85.15,85.13,85.17,85.24,85.27,85.26,85.23,85.21,85.14,85.07,84.99,84.94,84.94,84.92,84.93,84.99,84.98,84.95,84.89,84.82,84.80,84.74,84.74,84.78,84.83,84.85,84.90,84.92,84.90,84.90,84.87,84.84,84.81,84.80,84.88,84.85,84.81,84.81,84.80,84.83,84.85,84.85,84.85,84.84,84.84,84.85,84.85,84.88,84.88,84.85,84.81,84.80,84.81,84.81,84.81,84.80,84.80,84.77,84.72,84.67,84.59,84.58,84.57,84.55,84.53,84.58,84.56,84.54,84.56,84.54,84.56,84.58,84.58,84.58,84.56,84.56,84.57,84.57,84.53,84.46,84.34,84.17,84.25,84.35,84.39,84.38,84.39
86.55,86.54,86.52,86.49,86.44,86.42,86.45,86.47,86.46,86.42,86.36,86.31,86.28,86.24,86.21,86.14,86.08,86.06,86.04,85.99,85.90,85.79,85.72,85.76,85.81,85.85,85.87,85.91,85.96,85.98,85.99,85.97,85.92,85.90,85.90,85.88,85.81,85.73,85.65,85.58,85.53,85.53,85.53,85.50,85.49,85.45,85.41,85.37,85.33,85.35,85.33,85.32,85.36,85.39,85.43,85.44,85.44,85.47,85.46,85.44,85.46,85.54,85.68,85.84,85.99,86.14,86.25,86.32,86.36,86.37,86.34,86.27,86.24,86.25,86.25,86.17,86.11,86.02,85.88,85.67,85.51,85.36,85.23,85.13,85.07,85.02,85.02,85.07,85.14,85.17,85.18,85.18,85.19,85.20,85.24,85.31,85.37,85.40,85.43,85.46,85.49,85.50,85.58,85.71,85.87,86.02,86.13,86.21,86.27,86.30,86.31,86.23,86.15,86.07,86.01,85.94,85.89,85.86,85.81,85.75,85.67,85.62,85.59,85.55,85.44,85.40,85.37,85.32,85.25,85.19,85.13,85.10,85.11,85.14,85.17,85.19,85.18,85.19,85.22,85.28,85.34,85.27,85.17,85.15,85.18,85.21,85.23,85.25,85.29,85.37,85.41,85.38,85.41,85.52,85.56,85.54,85.52,85.51,85.52,85.49,85.47,85.48,85.51,85.50,85.53,85.52,85.46,85.38,85.22,85.13,85.10,85.14,85.20,85.22,85.22,85.21,85.20,85.15,85.07,84.99,84.93,84.94,84.92,84.93,84.99,84.98,84.93,84.87,84.81,84.80,84.72,84.70,84.74,84.79,84.83,84.89,84.91,84.90,84.88,84.84,84.81,84.81,84.83,84.88,84.85,84.80,84.80,84.80,84.81,84.82,84.82,84.82,84.82,84.82,84.81,84.82,84.88,84.87,84.84,84.80,84.80,84.80,84.79,84.78,84.80,84.80,84.77,84.73,84.68,84.58,84.56,84.55,84.54,84.54,84.58,84.57,84.55,84.57,84.54,84.57,84.59,84.59,84.58,84.54,84.54,84.57,84.58,84.52,84.46,84.34,84.17,84.22,84.30,84.33,84.33,84.36
86.62,86.59,86.56,86.52,86.51,86.46,86.53,86.58,86.55,86.44,86.28,86.18,86.14,86.13,86.09,86.08,86.05,86.00,85.98,85.94,85.84,85.72,85.70,85.74,85.84,85.93,85.93,85.94,85.95,85.97,85.99,85.96,85.92,85.90,85.90,85.89,85.83,85.76,85.69,85.61,85.54,85.51,85.50,85.50,85.50,85.48,85.44,85.38,85.32,85.34,85.31,85.29,85.30,85.36,85.40,85.43,85.45,85.45,85.45,85.45,85.46,85.50,85.61,85.75,85.91,86.06,86.20,86.28,86.31,86.32,86.31,86.25,86.24,86.25,86.25,86.17,86.11,85.99,85.79,85.51,85.37,85.29,85.21,85.13,85.09,85.04,85.00,84.99,85.06,85.12,85.14,85.15,85.17,85.19,85.23,85.29,85.36,85.39,85.41,85.43,85.46,85.50,85.62,85.78,85.93,86.05,86.13,86.19,86.26,86.31,86.33,86.25,86.17,86.07,85.97,85.87,85.84,85.78,85.70,85.66,85.61,85.57,85.53,85.45,85.40,85.39,85.37,85.29,85.20,85.16,85.15,85.16,85.16,85.14,85.15,85.17,85.15,85.18,85.19,85.23,85.29,85.25,85.17,85.15,85.18,85.24,85.24,85.26,85.30,85.37,85.44,85.42,85.43,85.49,85.51,85.51,85.50,85.51,85.56,85.53,85.50,85.51,85.56,85.57,85.59,85.56,85.51,85.48,85.30,85.14,85.08,85.15,85.19,85.20,85.20,85.20,85.20,85.15,85.07,84.99,84.91,84.91,84.91,84.93,84.98,84.93,84.91,84.86,84.81,84.80,84.68,84.66,84.72,84.79,84.81,84.86,84.90,84.89,84.82,84.81,84.80,84.82,84.88,84.90,84.85,84.80,84.80,84.80,84.80,84.80,84.80,84.80,84.80,84.80,84.80,84.81,84.88,84.84,84.80,84.80,84.80,84.80,84.76,84.73,84.80,84.80,84.80,84.76,84.68,84.53,84.51,84.55,84.59,84.59,84.60,84.60,84.59,84.59,84.59,84.60,84.60,84.60,84.59,84.53,84.51,84.53,84.59,84.52,84.43,84.30,84.13,84.20,84.22,84.26,84.29,84.30
86.67,86.64,86.60,86.57,86.56,86.52,86.56,86.57,86.50,86.37,86.15,86.04,86.02,86.03,86.03,86.05,86.03,85.97,85.88,85.84,85.77,85.68,85.68,85.75,85.88,85.99,86.01,86.01,86.01,86.00,85.98,85.93,85.91,85.90,85.90,85.90,85.86,85.80,85.74,85.68,85.59,85.51,85.48,85.49,85.47,85.49,85.46,85.41,85.34,85.32,85.30,85.28,85.28,85.38,85.43,85.46,85.48,85.48,85.48,85.48,85.49,85.51,85.59,85.70,85.83,85.98,86.13,86.23,86.27,86.29,86.29,86.30,86.28,86.26,86.22,86.17,86.11,86.00,85.82,85.53,85.41,85.33,85.27,85.21,85.17,85.12,85.05,84.99,84.98,85.03,85.06,85.08,85.12,85.18,85.24,85.29,85.33,85.33,85.33,85.38,85.47,85.57,85.68,85.80,85.91,86.01,86.09,86.14,86.19,86.24,86.29,86.25,86.18,86.08,85.95,85.80,85.73,85.68,85.61,85.57,85.55,85.50,85.44,85.37,85.32,85.30,85.27,85.21,85.14,85.12,85.12,85.13,85.13,85.14,85.17,85.18,85.18,85.16,85.15,85.17,85.22,85.22,85.19,85.18,85.20,85.26,85.27,85.30,85.35,85.39,85.42,85.41,85.42,85.44,85.45,85.47,85.51,85.55,85.58,85.53,85.53,85.55,85.57,85.55,85.54,85.51,85.47,85.48,85.34,85.21,85.14,85.13,85.14,85.14,85.16,85.18,85.16,85.12,85.06,84.98,84.87,84.92,84.94,84.94,84.94,84.91,84.90,84.87,84.81,84.76,84.66,84.63,84.67,84.74,84.82,84.87,84.88,84.84,84.81,84.77,84.75,84.76,84.80,84.86,84.86,84.83,84.80,84.83,84.81,84.80,84.81,84.84,84.84,84.84,84.84,84.85,84.88,84.84,84.80,84.80,84.80,84.80,84.77,84.74,84.74,84.74,84.76,84.74,84.67,84.57,84.55,84.55,84.57,84.63,84.61,84.60,84.58,84.56,84.58,84.59,84.60,84.60,84.59,84.54,84.52,84.54,84.57,84.51,84.46,84.34,84.18,84.23,84.25,84.25,84.24,84.25
86.71,86.68,86.64,86.61,86.60,86.57,86.58,86.53,86.41,86.27,86.03,85.93,85.92,85.94,85.98,86.01,85.99,85.93,85.79,85.76,85.72,85.67,85.67,85.79,85.92,86.03,86.07,86.08,86.07,86.03,85.97,85.92,85.90,85.90,85.90,85.90,85.89,85.84,85.79,85.75,85.64,85.51,85.46,85.46,85.44,85.47,85.47,85.44,85.38,85.32,85.27,85.25,85.27,85.39,85.46,85.50,85.52,85.52,85.52,85.52,85.52,85.54,85.58,85.66,85.78,85.94,86.08,86.18,86.23,86.24,86.25,86.31,86.31,86.26,86.20,86.17,86.12,86.03,85.86,85.60,85.48,85.40,85.34,85.30,85.25,85.19,85.09,84.99,84.92,84.93,84.97,85.01,85.07,85.16,85.24,85.28,85.29,85.27,85.27,85.35,85.49,85.63,85.72,85.81,85.89,85.97,86.05,86.08,86.11,86.15,86.22,86.21,86.15,86.05,85.91,85.73,85.63,85.57,85.52,85.49,85.48,85.43,85.35,85.28,85.23,85.20,85.16,85.13,85.11,85.10,85.10,85.10,85.11,85.14,85.17,85.18,85.18,85.13,85.10,85.10,85.14,85.17,85.18,85.18,85.21,85.27,85.29,85.33,85.37,85.39,85.40,85.40,85.40,85.40,85.39,85.44,85.51,85.57,85.59,85.54,85.54,85.56,85.56,85.49,85.47,85.45,85.43,85.48,85.36,85.25,85.17,85.12,85.10,85.09,85.11,85.15,85.12,85.09,85.04,84.95,84.83,84.90,84.94,84.94,84.91,84.90,84.90,84.87,84.81,84.74,84.65,84.61,84.63,84.71,84.80,84.86,84.85,84.80,84.80,84.74,84.72,84.73,84.73,84.82,84.86,84.84,84.80,84.83,84.81,84.80,84.81,84.86,84.87,84.87,84.87,84.87,84.87,84.83,84.80,84.80,84.80,84.79,84.78,84.74,84.70,84.70,84.71,84.71,84.66,84.60,84.57,84.54,84.53,84.63,84.61,84.59,84.57,84.53,84.55,84.58,84.60,84.60,84.59,84.56,84.55,84.55,84.55,84.51,84.48,84.38,84.21,84.25,84.27,84.24,84.20,84.22
86.77,86.75,86.70,86.64,86.60,86.59,86.58,86.49,86.31,86.16,85.98,85.88,85.86,85.91,85.93,85.94,85.91,85.84,85.74,85.75,85.74,85.70,85.72,85.88,85.98,86.04,86.11,86.14,86.11,86.05,85.99,85.96,85.92,85.90,85.90,85.90,85.90,85.88,85.86,85.81,85.67,85.53,85.45,85.42,85.41,85.42,85.44,85.47,85.49,85.34,85.22,85.19,85.25,85.36,85.47,85.54,85.57,85.57,85.57,85.58,85.58,85.59,85.60,85.66,85.79,85.95,86.06,86.17,86.19,86.18,86.17,86.24,86.26,86.24,86.20,86.16,86.12,86.04,85.92,85.73,85.58,85.48,85.42,85.41,85.31,85.21,85.10,84.99,84.88,84.84,84.87,84.95,85.05,85.13,85.18,85.22,85.25,85.25,85.28,85.38,85.52,85.65,85.73,85.81,85.88,85.96,86.03,86.05,86.05,86.04,86.08,86.07,86.02,85.93,85.81,85.65,85.53,85.46,85.43,85.42,85.41,85.36,85.27,85.18,85.13,85.09,85.07,85.08,85.10,85.10,85.10,85.11,85.14,85.15,85.13,85.11,85.10,85.10,85.07,85.04,85.04,85.07,85.10,85.13,85.18,85.26,85.29,85.31,85.33,85.36,85.38,85.39,85.39,85.39,85.36,85.40,85.48,85.56,85.56,85.53,85.52,85.51,85.47,85.39,85.39,85.40,85.42,85.48,85.33,85.20,85.13,85.10,85.10,85.08,85.09,85.10,85.10,85.07,84.99,84.89,84.81,84.84,84.86,84.88,84.89,84.90,84.90,84.88,84.84,84.77,84.66,84.61,84.64,84.73,84.74,84.79,84.81,84.78,84.80,84.74,84.74,84.77,84.75,84.77,84.80,84.81,84.79,84.74,84.77,84.80,84.80,84.81,84.82,84.83,84.84,84.82,84.85,84.82,84.80,84.80,84.80,84.77,84.74,84.71,84.70,84.70,84.68,84.66,84.65,84.57,84.53,84.51,84.51,84.53,84.58,84.58,84.55,84.54,84.52,84.57,84.60,84.60,84.60,84.59,84.58,84.57,84.51,84.50,84.48,84.38,84.20,84.22,84.24,84.23,84.20,84.21
86.79,86.78,86.73,86.67,86.64,86.60,86.55,86.42,86.21,86.03,85.90,85.84,85.83,85.86,85.89,85.87,85.81,85.72,85.67,85.69,85.73,85.75,85.77,85.91,86.01,86.07,86.12,86.14,86.13,86.09,86.03,85.98,85.92,85.88,85.86,85.86,85.89,85.89,85.86,85.80,85.64,85.51,85.43,85.40,85.40,85.42,85.46,85.51,85.54,85.40,85.27,85.21,85.23,85.31,85.44,85.54,85.59,85.59,85.59,85.60,85.59,85.58,85.56,85.61,85.72,85.86,85.97,86.10,86.17,86.17,86.14,86.16,86.19,86.19,86.17,86.15,86.13,86.06,85.94,85.78,85.64,85.53,85.45,85.40,85.31,85.21,85.11,85.01,84.92,84.87,84.87,84.91,84.97,85.06,85.11,85.15,85.17,85.20,85.28,85.40,85.55,85.68,85.76,85.82,85.88,85.93,85.98,86.00,86.00,85.99,85.98,85.95,85.90,85.84,85.75,85.62,85.50,85.42,85.39,85.38,85.36,85.30,85.21,85.12,85.05,85.02,85.03,85.07,85.09,85.10,85.10,85.11,85.15,85.13,85.09,85.06,85.05,85.06,85.04,85.02,85.00,85.02,85.06,85.10,85.15,85.23,85.28,85.30,85.31,85.33,85.33,85.35,85.37,85.37,85.35,85.40,85.48,85.56,85.57,85.56,85.54,85.50,85.46,85.41,85.41,85.42,85.43,85.48,85.34,85.20,85.12,85.10,85.11,85.12,85.12,85.12,85.11,85.08,85.01,84.93,84.84,84.85,84.86,84.88,84.89,84.88,84.88,84.86,84.83,84.75,84.65,84.61,84.62,84.69,84.70,84.72,84.74,84.74,84.77,84.73,84.74,84.78,84.74,84.75,84.77,84.77,84.76,84.71,84.74,84.78,84.80,84.80,84.80,84.82,84.83,84.80,84.81,84.80,84.79,84.77,84.77,84.74,84.72,84.70,84.70,84.68,84.65,84.64,84.64,84.60,84.55,84.51,84.47,84.49,84.54,84.53,84.51,84.53,84.54,84.58,84.60,84.60,84.60,84.60,84.61,84.61,84.54,84.53,84.49,84.38,84.19,84.18,84.20,84.20,84.17,84.17
86.79,86.79,86.74,86.70,86.68,86.62,86.52,86.35,86.11,85.91,85.82,85.80,85.80,85.80,85.85,85.80,85.70,85.60,85.60,85.63,85.71,85.81,85.83,85.93,86.04,86.12,86.12,86.12,86.16,86.15,86.08,86.01,85.93,85.85,85.80,85.81,85.86,85.87,85.84,85.75,85.59,85.48,85.42,85.40,85.40,85.43,85.49,85.54,85.57,85.47,85.35,85.26,85.22,85.25,85.38,85.51,85.59,85.59,85.60,85.59,85.58,85.55,85.52,85.54,85.62,85.74,85.85,86.01,86.13,86.18,86.12,86.08,86.10,86.13,86.14,86.13,86.13,86.06,85.93,85.79,85.68,85.57,85.45,85.35,85.28,85.20,85.12,85.05,84.98,84.95,84.91,84.89,84.89,84.98,85.04,85.07,85.09,85.15,85.28,85.42,85.57,85.72,85.80,85.85,85.88,85.90,85.92,85.95,85.97,85.96,85.91,85.85,85.80,85.75,85.70,85.59,85.49,85.42,85.37,85.33,85.29,85.24,85.16,85.07,84.99,84.98,85.02,85.08,85.10,85.10,85.10,85.10,85.13,85.10,85.05,85.01,85.00,85.03,85.03,85.01,85.00,85.00,85.04,85.08,85.12,85.20,85.26,85.29,85.29,85.29,85.27,85.30,85.33,85.35,85.35,85.42,85.49,85.54,85.58,85.59,85.55,85.51,85.50,85.47,85.46,85.46,85.46,85.49,85.36,85.22,85.12,85.11,85.14,85.17,85.18,85.16,85.12,85.10,85.06,84.99,84.88,84.88,84.89,84.89,84.89,84.85,84.84,84.83,84.79,84.71,84.64,84.61,84.61,84.63,84.67,84.66,84.66,84.69,84.72,84.71,84.74,84.77,84.70,84.74,84.75,84.73,84.73,84.70,84.71,84.75,84.79,84.79,84.80,84.81,84.82,84.80,84.77,84.78,84.78,84.73,84.73,84.71,84.70,84.69,84.69,84.64,84.63,84.63,84.62,84.62,84.58,84.50,84.44,84.48,84.50,84.47,84.45,84.52,84.57,84.59,84.60,84.60,84.60,84.61,84.64,84.65,84.59,84.58,84.52,84.39,84.19,84.14,84.17,84.16,84.12,84.12
86.70,86.72,86.71,86.69,86.67,86.70,86.52,86.24,85.96,85.82,85.76,85.76,85.77,85.74,85.77,85.71,85.63,85.60,85.62,85.70,85.78,85.84,85.92,86.05,86.14,86.18,86.18,86.14,86.16,86.17,86.12,86.06,85.98,85.88,85.80,85.77,85.80,85.77,85.70,85.60,85.57,85.52,85.47,85.42,85.42,85.46,85.51,85.54,85.57,85.47,85.37,85.29,85.25,85.23,85.31,85.42,85.53,85.54,85.55,85.55,85.55,85.53,85.54,85.56,85.62,85.71,85.80,85.90,85.99,86.03,86.02,86.03,86.06,86.07,86.08,86.07,86.04,85.96,85.86,85.76,85.71,85.61,85.48,85.35,85.28,85.20,85.12,85.05,85.00,84.98,84.97,84.96,84.96,84.98,84.99,85.02,85.07,85.17,85.31,85.46,85.62,85.76,85.82,85.85,85.85,85.86,85.88,85.91,85.92,85.91,85.87,85.80,85.73,85.68,85.63,85.55,85.47,85.38,85.30,85.22,85.17,85.10,85.03,84.96,84.94,84.97,85.02,85.05,85.08,85.09,85.09,85.07,85.06,85.04,85.02,85.00,85.00,85.01,85.01,85.00,85.00,84.97,85.00,85.03,85.06,85.10,85.16,85.21,85.24,85.25,85.23,85.26,85.31,85.35,85.36,85.38,85.42,85.46,85.49,85.50,85.50,85.50,85.51,85.56,85.55,85.54,85.53,85.51,85.38,85.23,85.14,85.14,85.17,85.19,85.19,85.18,85.12,85.11,85.06,84.98,84.86,84.85,84.84,84.84,84.84,84.82,84.81,84.81,84.79,84.71,84.64,84.61,84.60,84.61,84.63,84.65,84.66,84.65,84.70,84.70,84.72,84.72,84.65,84.70,84.72,84.71,84.70,84.65,84.65,84.68,84.74,84.74,84.78,84.80,84.81,84.80,84.78,84.79,84.79,84.76,84.72,84.70,84.67,84.64,84.63,84.61,84.61,84.59,84.54,84.49,84.42,84.40,84.42,84.48,84.45,84.43,84.46,84.57,84.59,84.60,84.60,84.60,84.61,84.65,84.68,84.68,84.66,84.66,84.62,84.47,84.20,84.18,84.14,84.12,84.11,84.11
86.61,86.66,86.68,86.69,86.70,86.75,86.50,86.15,85.84,85.75,85.71,85.72,85.74,85.70,85.68,85.63,85.60,85.62,85.64,85.76,85.85,85.90,86.00,86.14,86.20,86.21,86.22,86.17,86.17,86.16,86.12,86.07,86.00,85.91,85.82,85.77,85.77,85.69,85.60,85.52,85.54,85.53,85.49,85.44,85.43,85.48,85.51,85.54,85.57,85.48,85.38,85.30,85.25,85.20,85.23,85.31,85.42,85.46,85.47,85.48,85.49,85.49,85.53,85.56,85.60,85.66,85.73,85.78,85.85,85.91,85.94,85.99,86.02,86.02,86.00,85.98,85.95,85.90,85.83,85.78,85.74,85.64,85.50,85.35,85.25,85.16,85.08,85.03,85.00,85.01,85.02,85.03,85.02,84.99,84.98,84.99,85.04,85.13,85.27,85.42,85.58,85.74,85.81,85.83,85.83,85.83,85.85,85.87,85.87,85.87,85.83,85.74,85.66,85.60,85.55,85.49,85.42,85.34,85.25,85.15,85.07,85.00,84.94,84.91,84.91,84.94,84.98,85.02,85.05,85.07,85.05,85.02,84.98,84.96,84.95,84.96,84.97,84.97,84.97,84.97,84.97,84.94,84.96,84.98,85.00,85.02,85.04,85.08,85.13,85.17,85.19,85.23,85.27,85.31,85.32,85.31,85.35,85.41,85.46,85.46,85.49,85.51,85.52,85.59,85.60,85.59,85.57,85.50,85.36,85.22,85.13,85.12,85.15,85.18,85.19,85.17,85.14,85.12,85.07,84.98,84.84,84.82,84.83,84.83,84.82,84.80,84.78,84.78,84.78,84.71,84.64,84.61,84.60,84.60,84.60,84.63,84.64,84.62,84.68,84.67,84.67,84.66,84.62,84.66,84.67,84.67,84.66,84.62,84.61,84.65,84.71,84.73,84.78,84.80,84.80,84.80,84.79,84.80,84.80,84.78,84.73,84.70,84.65,84.60,84.57,84.57,84.57,84.54,84.46,84.44,84.37,84.36,84.42,84.49,84.45,84.46,84.52,84.63,84.63,84.64,84.64,84.64,84.64,84.68,84.70,84.70,84.69,84.69,84.68,84.54,84.27,84.24,84.16,84.13,84.14,84.14
86.52,86.59,86.64,86.69,86.76,86.76,86.46,86.07,85.74,85.70,85.67,85.68,85.70,85.68,85.59,85.56,85.59,85.65,85.67,85.80,85.91,85.98,86.07,86.19,86.22,86.22,86.24,86.20,86.16,86.12,86.09,86.05,86.00,85.93,85.86,85.80,85.76,85.63,85.53,85.50,85.50,85.50,85.49,85.47,85.43,85.48,85.51,85.54,85.57,85.48,85.37,85.28,85.22,85.18,85.14,85.18,85.26,85.35,85.36,85.37,85.39,85.42,85.50,85.54,85.57,85.60,85.64,85.67,85.73,85.80,85.88,85.95,85.98,85.96,85.90,85.87,85.86,85.86,85.86,85.84,85.77,85.66,85.52,85.35,85.19,85.07,85.00,84.98,85.00,85.02,85.06,85.08,85.05,85.00,84.99,84.98,84.98,85.04,85.16,85.30,85.47,85.68,85.78,85.81,85.80,85.80,85.81,85.82,85.82,85.82,85.78,85.66,85.57,85.51,85.47,85.40,85.34,85.29,85.23,85.11,85.00,84.93,84.90,84.89,84.90,84.91,84.93,84.98,85.01,85.01,84.99,84.94,84.88,84.84,84.86,84.89,84.91,84.91,84.91,84.91,84.91,84.90,84.91,84.92,84.93,84.97,84.91,84.90,84.95,85.07,85.15,85.19,85.21,85.22,85.22,85.21,85.28,85.38,85.47,85.49,85.54,85.55,85.53,85.57,85.59,85.60,85.57,85.46,85.30,85.18,85.10,85.03,85.08,85.14,85.16,85.13,85.17,85.14,85.07,84.97,84.83,84.81,84.84,84.86,84.82,84.80,84.75,84.74,84.77,84.71,84.64,84.61,84.60,84.59,84.59,84.60,84.60,84.61,84.67,84.63,84.61,84.61,84.61,84.61,84.61,84.61,84.60,84.60,84.61,84.65,84.71,84.77,84.79,84.80,84.80,84.80,84.80,84.80,84.80,84.80,84.78,84.71,84.65,84.58,84.52,84.51,84.52,84.48,84.39,84.46,84.43,84.40,84.43,84.51,84.51,84.56,84.64,84.69,84.69,84.71,84.71,84.71,84.71,84.69,84.69,84.69,84.67,84.68,84.69,84.61,84.39,84.32,84.21,84.18,84.21,84.21
86.43,86.52,86.59,86.66,86.73,86.73,86.48,86.10,85.73,85.69,85.65,85.64,85.64,85.61,85.54,85.54,85.62,85.78,85.81,85.87,85.94,86.03,86.14,86.23,86.26,86.25,86.25,86.20,86.14,86.09,86.05,86.02,85.99,85.94,85.88,85.82,85.71,85.61,85.53,85.49,85.46,85.45,85.45,85.45,85.45,85.46,85.48,85.49,85.47,85.39,85.31,85.26,85.24,85.18,85.13,85.12,85.15,85.20,85.26,85.31,85.35,85.39,85.49,85.50,85.50,85.52,85.57,85.61,85.66,85.72,85.80,85.85,85.87,85.88,85.87,85.83,85.82,85.82,85.80,85.77,85.73,85.66,85.54,85.36,85.17,85.04,84.97,84.96,85.00,85.01,85.05,85.09,85.08,85.04,85.06,85.06,85.02,84.99,85.07,85.20,85.36,85.56,85.68,85.74,85.77,85.79,85.80,85.78,85.75,85.71,85.68,85.60,85.54,85.49,85.45,85.40,85.33,85.26,85.16,85.02,84.93,84.89,84.87,84.87,84.89,84.90,84.91,84.93,84.94,84.95,84.94,84.91,84.85,84.84,84.86,84.88,84.86,84.85,84.85,84.86,84.88,84.89,84.89,84.89,84.90,84.92,84.90,84.88,84.89,84.96,85.08,85.16,85.21,85.25,85.26,85.25,85.28,85.34,85.41,85.46,85.52,85.54,85.51,85.52,85.53,85.53,85.51,85.44,85.33,85.21,85.12,85.07,85.08,85.13,85.14,85.10,85.12,85.07,85.00,84.92,84.82,84.81,84.84,84.88,84.86,84.83,84.75,84.73,84.74,84.69,84.61,84.58,84.58,84.54,84.55,84.58,84.60,84.60,84.62,84.56,84.56,84.60,84.62,84.60,84.63,84.64,84.61,84.60,84.64,84.67,84.71,84.75,84.76,84.78,84.81,84.82,84.80,84.81,84.82,84.81,84.76,84.69,84.64,84.62,84.59,84.56,84.57,84.53,84.42,84.49,84.49,84.48,84.50,84.58,84.57,84.63,84.71,84.73,84.73,84.75,84.77,84.79,84.77,84.75,84.70,84.63,84.60,84.60,84.60,84.54,84.42,84.37,84.30,84.28,84.28,84.24
86.35,86.45,86.54,86.61,86.68,86.65,86.47,86.14,85.76,85.68,85.62,85.60,85.58,85.54,85.51,85.54,85.66,85.86,85.93,85.95,86.00,86.09,86.19,86.26,86.28,86.28,86.26,86.20,86.13,86.07,86.03,86.00,85.99,85.94,85.88,85.82,85.68,85.60,85.54,85.48,85.44,85.41,85.40,85.41,85.43,85.42,85.42,85.42,85.36,85.29,85.23,85.21,85.22,85.16,85.12,85.09,85.07,85.06,85.16,85.23,85.28,85.34,85.44,85.46,85.44,85.44,85.50,85.55,85.59,85.65,85.73,85.76,85.78,85.82,85.84,85.79,85.78,85.76,85.73,85.68,85.67,85.63,85.52,85.34,85.14,85.01,84.95,84.95,85.00,85.00,85.04,85.10,85.12,85.07,85.11,85.12,85.07,85.01,85.05,85.14,85.27,85.43,85.54,85.63,85.70,85.74,85.74,85.71,85.66,85.61,85.59,85.55,85.51,85.46,85.41,85.36,85.29,85.20,85.09,84.96,84.89,84.87,84.86,84.87,84.89,84.90,84.90,84.90,84.90,84.90,84.90,84.89,84.84,84.84,84.85,84.86,84.82,84.81,84.80,84.82,84.85,84.87,84.87,84.86,84.87,84.88,84.91,84.89,84.88,84.90,85.04,85.14,85.22,85.27,85.29,85.28,85.28,85.31,85.37,85.43,85.50,85.52,85.48,85.47,85.46,85.46,85.45,85.42,85.34,85.24,85.16,85.12,85.09,85.12,85.12,85.07,85.06,85.01,84.95,84.89,84.81,84.80,84.84,84.89,84.89,84.85,84.77,84.74,84.73,84.70,84.60,84.58,84.57,84.52,84.54,84.57,84.59,84.59,84.56,84.50,84.52,84.58,84.60,84.59,84.64,84.66,84.61,84.60,84.66,84.70,84.72,84.75,84.75,84.78,84.81,84.85,84.82,84.84,84.85,84.83,84.76,84.69,84.67,84.68,84.66,84.63,84.64,84.61,84.50,84.58,84.59,84.59,84.60,84.67,84.65,84.69,84.75,84.75,84.75,84.78,84.82,84.84,84.81,84.79,84.69,84.56,84.53,84.52,84.50,84.47,84.43,84.40,84.38,84.36,84.34,84.27
86.31,86.40,86.48,86.55,86.60,86.49,86.41,86.20,85.87,85.64,85.60,85.56,85.52,85.51,85.51,85.61,85.73,85.85,85.97,86.05,86.11,86.18,86.20,86.27,86.30,86.29,86.27,86.20,86.13,86.09,86.06,86.01,85.99,85.94,85.86,85.79,85.70,85.62,85.55,85.49,85.46,85.37,85.32,85.31,85.32,85.32,85.31,85.29,85.24,85.20,85.15,85.12,85.12,85.11,85.10,85.07,85.03,84.97,85.04,85.10,85.18,85.26,85.34,85.38,85.40,85.38,85.37,85.43,85.51,85.59,85.68,85.71,85.78,85.83,85.82,85.72,85.70,85.68,85.64,85.58,85.56,85.53,85.43,85.25,85.07,84.97,84.94,84.96,85.00,85.00,85.04,85.10,85.14,85.11,85.11,85.13,85.15,85.15,85.14,85.15,85.20,85.26,85.35,85.45,85.53,85.58,85.59,85.57,85.55,85.54,85.54,85.51,85.46,85.39,85.32,85.25,85.17,85.09,85.02,84.96,84.92,84.90,84.89,84.89,84.90,84.90,84.90,84.90,84.90,84.90,84.90,84.89,84.84,84.82,84.81,84.81,84.81,84.80,84.80,84.80,84.81,84.81,84.81,84.81,84.82,84.85,84.91,84.94,84.95,84.95,85.09,85.17,85.23,85.27,85.29,85.27,85.28,85.32,85.38,85.40,85.45,85.47,85.44,85.42,85.41,85.41,85.41,85.40,85.32,85.25,85.19,85.15,85.11,85.11,85.08,85.03,85.01,84.98,84.94,84.88,84.79,84.79,84.84,84.89,84.90,84.86,84.80,84.77,84.78,84.78,84.66,84.61,84.59,84.55,84.57,84.59,84.60,84.59,84.53,84.48,84.48,84.50,84.52,84.54,84.60,84.63,84.60,84.60,84.66,84.71,84.76,84.79,84.79,84.79,84.82,84.89,84.86,84.87,84.87,84.83,84.79,84.76,84.77,84.78,84.74,84.74,84.74,84.73,84.69,84.76,84.78,84.76,84.74,84.79,84.76,84.74,84.73,84.73,84.73,84.78,84.83,84.87,84.81,84.77,84.62,84.46,84.45,84.44,84.43,84.41,84.41,84.41,84.43,84.42,84.37,84.30
86.28,86.36,86.44,86.48,86.47,86.33,86.25,86.12,85.89,85.62,85.55,85.50,85.46,85.47,85.54,85.65,85.76,85.85,85.99,86.11,86.20,86.24,86.22,86.24,86.25,86.25,86.22,86.16,86.12,86.10,86.09,86.04,86.00,85.94,85.86,85.79,85.72,85.64,85.59,85.55,85.49,85.39,85.31,85.27,85.26,85.25,85.25,85.24,85.24,85.19,85.13,85.09,85.07,85.08,85.06,85.03,85.00,84.96,84.98,85.02,85.10,85.20,85.26,85.32,85.36,85.38,85.37,85.39,85.45,85.51,85.55,85.60,85.71,85.80,85.82,85.71,85.66,85.62,85.56,85.50,85.48,85.42,85.32,85.16,85.02,84.96,84.95,84.97,84.98,85.00,85.03,85.09,85.16,85.15,85.14,85.17,85.22,85.24,85.23,85.23,85.23,85.21,85.24,85.29,85.36,85.40,85.43,85.43,85.44,85.47,85.49,85.46,85.40,85.31,85.22,85.15,85.08,85.01,84.96,84.94,84.92,84.91,84.90,84.89,84.89,84.90,84.90,84.90,84.90,84.90,84.90,84.89,84.84,84.81,84.80,84.80,84.78,84.77,84.77,84.77,84.77,84.77,84.77,84.77,84.78,84.81,84.88,84.94,84.98,85.00,85.11,85.15,85.19,85.27,85.36,85.36,85.36,85.39,85.42,85.43,85.46,85.47,85.45,85.41,85.40,85.39,85.38,85.37,85.31,85.25,85.20,85.15,85.13,85.11,85.07,85.02,85.00,85.00,84.98,84.91,84.79,84.77,84.81,84.85,84.86,84.84,84.78,84.76,84.76,84.76,84.64,84.58,84.57,84.57,84.59,84.58,84.58,84.58,84.52,84.49,84.50,84.52,84.54,84.55,84.61,84.64,84.64,84.64,84.70,84.76,84.81,84.80,84.80,84.82,84.85,84.90,84.88,84.87,84.86,84.86,84.84,84.83,84.84,84.85,84.82,84.82,84.82,84.82,84.81,84.85,84.84,84.81,84.79,84.82,84.79,84.77,84.76,84.76,84.72,84.74,84.78,84.81,84.80,84.77,84.63,84.45,84.42,84.44,84.42,84.40,84.40,84.41,84.45,84.43,84.34,84.30
86.25,86.32,86.39,86.40,86.30,86.15,86.06,85.97,85.85,85.59,85.48,85.43,85.41,85.45,85.58,85.68,85.77,85.87,86.01,86.16,86.26,86.28,86.23,86.19,86.19,86.19,86.16,86.11,86.10,86.11,86.12,86.09,86.02,85.94,85.86,85.80,85.74,85.68,85.64,85.63,85.53,85.44,85.34,85.25,85.23,85.21,85.21,85.23,85.26,85.19,85.14,85.09,85.04,85.04,85.00,84.98,84.98,84.99,84.96,84.96,85.03,85.15,85.19,85.26,85.33,85.39,85.40,85.39,85.40,85.42,85.41,85.47,85.62,85.76,85.83,85.72,85.64,85.57,85.49,85.42,85.39,85.30,85.19,85.07,84.99,84.97,84.97,84.98,84.97,84.99,85.03,85.09,85.17,85.18,85.19,85.22,85.27,85.29,85.31,85.31,85.28,85.21,85.17,85.17,85.19,85.24,85.28,85.30,85.33,85.39,85.43,85.40,85.33,85.23,85.13,85.05,85.00,84.96,84.93,84.93,84.92,84.91,84.89,84.87,84.88,84.89,84.90,84.90,84.90,84.90,84.90,84.89,84.85,84.81,84.80,84.78,84.76,84.74,84.74,84.74,84.74,84.74,84.74,84.74,84.74,84.77,84.84,84.92,85.00,85.05,85.10,85.10,85.15,85.27,85.45,85.47,85.47,85.47,85.48,85.48,85.49,85.50,85.48,85.44,85.41,85.38,85.34,85.33,85.29,85.25,85.21,85.15,85.13,85.12,85.08,85.02,85.01,85.05,85.03,84.95,84.81,84.75,84.77,84.81,84.82,84.80,84.76,84.73,84.72,84.71,84.60,84.54,84.54,84.60,84.61,84.57,84.56,84.58,84.52,84.50,84.53,84.57,84.58,84.58,84.63,84.69,84.70,84.69,84.75,84.82,84.86,84.80,84.80,84.84,84.89,84.90,84.90,84.86,84.85,84.88,84.89,84.89,84.89,84.90,84.89,84.89,84.89,84.89,84.88,84.89,84.84,84.81,84.80,84.81,84.80,84.80,84.79,84.79,84.72,84.71,84.71,84.73,84.79,84.78,84.65,84.48,84.41,84.46,84.44,84.40,84.41,84.41,84.45,84.41,84.30,84.29
86.12,86.18,86.24,86.23,86.07,85.96,85.87,85.78,85.67,85.50,85.40,85.38,85.43,85.49,85.61,85.74,85.85,85.94,86.06,86.21,86.30,86.31,86.27,86.19,86.17,86.17,86.18,86.14,86.12,86.13,86.16,86.12,86.05,85.97,85.90,85.83,85.80,85.75,85.71,85.68,85.57,85.47,85.39,85.33,85.27,85.22,85.21,85.22,85.23,85.17,85.14,85.10,85.05,85.01,84.96,84.94,84.94,84.96,84.95,84.94,84.97,85.07,85.14,85.21,85.29,85.37,85.42,85.39,85.37,85.37,85.37,85.43,85.59,85.75,85.84,85.75,85.66,85.56,85.44,85.36,85.28,85.18,85.09,85.01,84.95,84.93,84.94,84.95,84.94,84.96,85.02,85.10,85.14,85.18,85.23,85.25,85.25,85.24,85.29,85.31,85.30,85.27,85.22,85.17,85.15,85.15,85.17,85.19,85.22,85.27,85.30,85.29,85.24,85.16,85.05,85.00,84.99,84.98,84.97,84.93,84.90,84.88,84.88,84.88,84.89,84.89,84.90,84.90,84.90,84.90,84.90,84.90,84.88,84.81,84.77,84.74,84.72,84.71,84.71,84.71,84.71,84.71,84.71,84.71,84.72,84.73,84.79,84.86,84.95,85.04,85.00,85.02,85.14,85.35,85.51,85.55,85.55,85.55,85.56,85.56,85.56,85.56,85.55,85.50,85.44,85.38,85.33,85.31,85.30,85.29,85.26,85.20,85.14,85.11,85.09,85.08,85.07,85.08,85.05,84.97,84.83,84.75,84.76,84.79,84.81,84.80,84.79,84.76,84.71,84.65,84.65,84.59,84.56,84.65,84.67,84.62,84.59,84.59,84.52,84.50,84.54,84.58,84.59,84.59,84.68,84.77,84.82,84.78,84.78,84.80,84.80,84.74,84.78,84.84,84.89,84.90,84.90,84.89,84.88,84.89,84.90,84.90,84.90,84.90,84.90,84.90,84.90,84.88,84.83,84.82,84.81,84.80,84.80,84.80,84.80,84.80,84.80,84.79,84.73,84.71,84.71,84.72,84.78,84.75,84.65,84.52,84.40,84.42,84.42,84.42,84.46,84.41,84.42,84.40,84.32,84.24
86.01,86.02,86.04,86.02,85.88,85.81,85.73,85.63,85.51,85.40,85.34,85.36,85.45,85.54,85.68,85.81,85.92,85.99,86.12,86.25,86.33,86.34,86.26,86.18,86.14,86.15,86.18,86.16,86.14,86.15,86.17,86.15,86.09,86.03,85.96,85.87,85.85,85.80,85.75,85.72,85.62,85.52,85.44,85.38,85.33,85.25,85.21,85.21,85.21,85.16,85.13,85.09,85.04,84.99,84.96,84.94,84.93,84.94,84.95,84.93,84.93,84.99,85.06,85.14,85.23,85.30,85.33,85.32,85.32,85.33,85.35,85.41,85.55,85.72,85.85,85.76,85.66,85.54,85.42,85.31,85.20,85.10,85.02,84.98,84.92,84.91,84.92,84.93,84.93,84.95,85.00,85.07,85.10,85.17,85.25,85.28,85.27,85.26,85.29,85.31,85.31,85.29,85.25,85.20,85.17,85.17,85.16,85.13,85.12,85.16,85.20,85.19,85.16,85.10,85.00,84.95,84.96,84.99,84.99,84.94,84.90,84.88,84.88,84.89,84.89,84.90,84.90,84.90,84.90,84.90,84.90,84.90,84.89,84.83,84.77,84.72,84.71,84.70,84.69,84.67,84.67,84.67,84.67,84.67,84.69,84.71,84.74,84.81,84.90,85.00,84.92,84.96,85.15,85.45,85.58,85.58,85.59,85.61,85.63,85.63,85.63,85.63,85.62,85.57,85.49,85.42,85.35,85.31,85.30,85.29,85.26,85.21,85.16,85.14,85.13,85.11,85.10,85.10,85.05,84.96,84.81,84.75,84.77,84.81,84.80,84.80,84.80,84.76,84.70,84.65,84.68,84.61,84.57,84.66,84.68,84.63,84.59,84.56,84.51,84.52,84.54,84.56,84.57,84.58,84.69,84.80,84.85,84.81,84.78,84.76,84.75,84.71,84.76,84.82,84.87,84.90,84.90,84.90,84.90,84.90,84.90,84.90,84.90,84.90,84.90,84.90,84.90,84.87,84.80,84.77,84.75,84.76,84.79,84.81,84.79,84.79,84.80,84.80,84.76,84.72,84.70,84.72,84.77,84.74,84.65,84.52,84.40,84.40,84.40,84.42,84.46,84.40,84.40,84.38,84.31,84.21
85.93,85.85,85.81,85.78,85.74,85.69,85.61,85.49,85.36,85.28,85.30,85.38,85.49,85.59,85.78,85.91,85.98,86.03,86.18,86.27,86.34,86.35,86.23,86.16,86.12,86.13,86.17,86.19,86.17,86.15,86.15,86.17,86.13,86.10,86.05,85.90,85.88,85.83,85.78,85.74,85.66,85.57,85.47,85.41,85.41,85.30,85.23,85.20,85.19,85.17,85.11,85.06,85.02,84.99,84.98,84.97,84.95,84.93,84.96,84.93,84.90,84.92,84.97,85.05,85.14,85.20,85.16,85.19,85.25,85.31,85.33,85.39,85.52,85.69,85.84,85.74,85.63,85.51,85.40,85.27,85.16,85.06,84.99,84.96,84.91,84.90,84.90,84.91,84.94,84.95,84.96,84.99,85.06,85.16,85.25,85.31,85.34,85.34,85.31,85.30,85.30,85.30,85.26,85.24,85.25,85.28,85.21,85.11,85.05,85.06,85.10,85.10,85.08,85.03,84.95,84.91,84.93,84.97,84.99,84.96,84.92,84.90,84.90,84.90,84.90,84.90,84.90,84.90,84.90,84.90,84.90,84.90,84.90,84.86,84.79,84.73,84.70,84.69,84.66,84.62,84.60,84.60,84.60,84.63,84.67,84.70,84.69,84.76,84.86,84.94,84.88,84.92,85.17,85.55,85.65,85.57,85.58,85.65,85.70,85.70,85.71,85.70,85.69,85.64,85.56,85.48,85.41,85.33,85.30,85.26,85.22,85.20,85.20,85.20,85.18,85.13,85.10,85.09,85.04,84.93,84.75,84.75,84.81,84.84,84.81,84.80,84.79,84.75,84.71,84.70,84.68,84.61,84.56,84.65,84.65,84.61,84.56,84.51,84.50,84.54,84.54,84.51,84.50,84.55,84.66,84.77,84.80,84.78,84.73,84.71,84.70,84.70,84.74,84.78,84.83,84.89,84.90,84.90,84.90,84.90,84.90,84.90,84.90,84.90,84.90,84.90,84.90,84.87,84.79,84.72,84.68,84.70,84.77,84.83,84.78,84.78,84.80,84.80,84.80,84.74,84.70,84.71,84.75,84.75,84.65,84.50,84.40,84.40,84.40,84.40,84.41,84.37,84.39,84.36,84.28,84.21
85.85,85.70,85.63,85.62,85.60,85.54,85.46,85.34,85.22,85.23,85.29,85.40,85.54,85.66,85.83,85.94,86.02,86.08,86.19,86.27,86.31,86.30,86.21,86.14,86.13,86.15,86.13,86.14,86.14,86.15,86.18,86.18,86.13,86.10,86.05,85.94,85.86,85.81,85.79,85.78,85.73,85.66,85.57,85.50,85.45,85.35,85.26,85.20,85.18,85.14,85.10,85.04,84.99,84.96,84.98,85.00,85.01,85.02,85.00,84.98,84.95,84.93,84.90,84.97,85.01,85.02,85.04,85.14,85.24,85.33,85.35,85.33,85.35,85.44,85.59,85.65,85.56,85.45,85.36,85.24,85.14,85.07,85.02,84.95,84.89,84.87,84.87,84.89,84.89,84.87,84.88,84.94,85.04,85.14,85.22,85.27,85.30,85.30,85.28,85.26,85.25,85.28,85.27,85.25,85.23,85.21,85.14,85.06,85.02,85.02,85.03,85.01,84.98,84.95,84.91,84.91,84.92,84.94,84.96,84.95,84.92,84.90,84.90,84.90,84.89,84.89,84.89,84.90,84.90,84.90,84.90,84.90,84.90,84.88,84.83,84.75,84.67,84.64,84.62,84.60,84.59,84.58,84.58,84.60,84.63,84.66,84.65,84.70,84.77,84.81,84.84,84.95,85.21,85.54,85.62,85.56,85.58,85.66,85.72,85.74,85.77,85.77,85.73,85.67,85.59,85.50,85.42,85.33,85.29,85.26,85.23,85.21,85.20,85.19,85.17,85.14,85.09,85.05,84.98,84.88,84.76,84.73,84.76,84.78,84.76,84.75,84.72,84.69,84.67,84.67,84.66,84.61,84.57,84.61,84.58,84.56,84.54,84.51,84.52,84.53,84.52,84.50,84.47,84.53,84.64,84.73,84.76,84.76,84.72,84.70,84.70,84.70,84.74,84.78,84.82,84.86,84.89,84.90,84.90,84.90,84.90,84.88,84.88,84.90,84.90,84.90,84.90,84.88,84.83,84.75,84.71,84.71,84.75,84.87,84.79,84.78,84.80,84.80,84.80,84.74,84.70,84.70,84.72,84.72,84.67,84.56,84.40,84.37,84.36,84.37,84.38,84.33,84.33,84.32,84.29,84.25
85.71,85.56,85.48,85.47,85.47,85.40,85.33,85.23,85.15,85.24,85.33,85.45,85.59,85.71,85.86,85.95,86.01,86.07,86.16,86.23,86.26,86.25,86.19,86.15,86.17,86.18,86.12,86.12,86.12,86.15,86.19,86.18,86.13,86.09,86.05,85.97,85.86,85.82,85.81,85.80,85.80,85.74,85.66,85.58,85.50,85.41,85.30,85.21,85.18,85.11,85.06,85.00,84.94,84.93,84.98,85.02,85.05,85.12,85.09,85.06,85.02,84.94,84.85,84.88,84.89,84.88,84.94,85.10,85.24,85.35,85.39,85.31,85.26,85.29,85.41,85.55,85.49,85.40,85.32,85.21,85.14,85.10,85.05,84.95,84.86,84.82,84.83,84.86,84.84,84.80,84.82,84.89,85.01,85.10,85.16,85.21,85.24,85.23,85.23,85.23,85.23,85.26,85.27,85.24,85.19,85.13,85.07,85.02,84.98,84.97,84.95,84.93,84.91,84.88,84.88,84.90,84.91,84.92,84.93,84.93,84.91,84.91,84.90,84.90,84.89,84.90,84.90,84.91,84.91,84.90,84.90,84.90,84.90,84.90,84.86,84.78,84.67,84.62,84.60,84.58,84.57,84.56,84.55,84.56,84.59,84.63,84.61,84.64,84.68,84.71,84.81,84.98,85.25,85.54,85.60,85.54,85.56,85.65,85.73,85.78,85.83,85.83,85.78,85.70,85.62,85.52,85.43,85.35,85.28,85.25,85.23,85.21,85.20,85.18,85.16,85.14,85.07,85.03,84.95,84.86,84.78,84.73,84.73,84.73,84.71,84.70,84.67,84.64,84.64,84.64,84.64,84.61,84.59,84.59,84.54,84.54,84.54,84.53,84.55,84.52,84.51,84.49,84.46,84.51,84.60,84.69,84.73,84.75,84.72,84.70,84.70,84.71,84.75,84.78,84.81,84.83,84.89,84.90,84.90,84.90,84.90,84.85,84.85,84.89,84.90,84.90,84.89,84.87,84.84,84.75,84.72,84.70,84.72,84.87,84.79,84.77,84.79,84.80,84.79,84.75,84.72,84.72,84.72,84.70,84.66,84.56,84.36,84.32,84.31,84.32,84.35,84.31,84.30,84.31,84.31,84.26
85.47,85.43,85.38,85.33,85.33,85.31,85.25,85.18,85.16,85.36,85.46,85.58,85.68,85.72,85.86,85.91,85.93,85.96,86.07,86.12,86.16,86.20,86.19,86.19,86.23,86.24,86.18,86.17,86.13,86.14,86.18,86.17,86.12,86.09,86.06,85.98,85.91,85.88,85.85,85.82,85.86,85.80,85.72,85.64,85.54,85.48,85.37,85.26,85.18,85.09,84.98,84.89,84.86,84.93,84.98,85.02,85.09,85.22,85.25,85.20,85.10,84.95,84.82,84.77,84.77,84.81,84.89,85.08,85.24,85.37,85.45,85.37,85.33,85.34,85.41,85.44,85.42,85.36,85.27,85.16,85.15,85.14,85.07,84.94,84.83,84.76,84.75,84.78,84.79,84.78,84.79,84.85,84.96,85.04,85.09,85.11,85.12,85.12,85.16,85.22,85.26,85.28,85.25,85.20,85.13,85.05,84.99,84.97,84.95,84.92,84.88,84.89,84.87,84.85,84.84,84.90,84.92,84.91,84.89,84.89,84.91,84.92,84.91,84.90,84.93,84.95,84.95,84.94,84.92,84.91,84.90,84.90,84.90,84.90,84.88,84.83,84.72,84.64,84.59,84.56,84.53,84.51,84.51,84.52,84.55,84.59,84.57,84.58,84.60,84.65,84.81,85.03,85.30,85.56,85.60,85.52,85.53,85.63,85.75,85.81,85.88,85.89,85.83,85.77,85.65,85.55,85.46,85.38,85.30,85.24,85.21,85.20,85.20,85.18,85.15,85.11,85.04,85.01,84.96,84.90,84.85,84.77,84.75,84.74,84.69,84.68,84.64,84.61,84.61,84.61,84.62,84.63,84.63,84.61,84.58,84.58,84.58,84.57,84.59,84.54,84.51,84.49,84.48,84.47,84.55,84.65,84.71,84.77,84.74,84.71,84.71,84.76,84.78,84.80,84.80,84.81,84.88,84.90,84.90,84.90,84.90,84.84,84.82,84.85,84.90,84.90,84.86,84.83,84.81,84.68,84.69,84.68,84.66,84.81,84.75,84.73,84.75,84.80,84.75,84.76,84.78,84.78,84.77,84.72,84.62,84.47,84.25,84.23,84.23,84.26,84.32,84.30,84.31,84.33,84.34,84.24
85.40,85.40,85.35,85.29,85.28,85.23,85.18,85.16,85.20,85.40,85.52,85.63,85.71,85.73,85.86,85.90,85.90,85.92,85.98,86.02,86.07,86.12,86.13,86.17,86.20,86.22,86.19,86.15,86.12,86.12,86.14,86.14,86.11,86.09,86.06,85.99,85.93,85.90,85.87,85.84,85.86,85.82,85.78,85.73,85.63,85.55,85.43,85.29,85.18,85.09,84.98,84.90,84.89,84.96,85.01,85.04,85.08,85.16,85.19,85.17,85.09,84.98,84.85,84.78,84.75,84.78,84.90,85.13,85.32,85.43,85.46,85.38,85.36,85.39,85.44,85.43,85.37,85.30,85.22,85.16,85.18,85.18,85.11,84.97,84.82,84.72,84.70,84.72,84.73,84.76,84.79,84.83,84.90,84.95,85.00,85.02,85.03,85.05,85.11,85.18,85.23,85.21,85.17,85.13,85.08,85.01,84.97,84.95,84.93,84.89,84.87,84.88,84.87,84.86,84.83,84.89,84.92,84.91,84.88,84.90,84.93,84.93,84.91,84.90,84.94,84.97,84.98,84.97,84.94,84.91,84.90,84.90,84.90,84.90,84.89,84.86,84.78,84.67,84.59,84.54,84.51,84.48,84.47,84.48,84.51,84.55,84.54,84.54,84.55,84.58,84.75,84.96,85.19,85.39,85.37,85.23,85.14,85.11,85.12,85.19,85.34,85.53,85.70,85.71,85.64,85.55,85.45,85.37,85.28,85.23,85.21,85.23,85.24,85.21,85.18,85.14,85.07,85.05,84.99,84.92,84.88,84.84,84.82,84.79,84.71,84.69,84.66,84.66,84.67,84.62,84.64,84.66,84.66,84.61,84.56,84.58,84.59,84.59,84.60,84.57,84.53,84.49,84.45,84.43,84.52,84.63,84.69,84.74,84.69,84.68,84.70,84.73,84.78,84.80,84.79,84.76,84.86,84.90,84.90,84.90,84.90,84.83,84.80,84.82,84.85,84.85,84.83,84.81,84.80,84.73,84.74,84.74,84.72,84.80,84.80,84.78,84.77,84.79,84.73,84.78,84.82,84.79,84.79,84.69,84.56,84.40,84.22,84.24,84.23,84.25,84.30,84.30,84.30,84.31,84.31,84.23
85.39,85.39,85.34,85.28,85.24,85.17,85.13,85.15,85.25,85.42,85.55,85.65,85.71,85.76,85.86,85.90,85.90,85.90,85.91,85.94,86.00,86.05,86.06,86.12,86.15,86.16,86.17,86.11,86.10,86.10,86.10,86.10,86.10,86.09,86.06,85.99,85.96,85.92,85.88,85.85,85.84,85.82,85.82,85.81,85.73,85.61,85.46,85.31,85.17,85.09,85.00,84.94,84.95,85.01,85.04,85.06,85.06,85.07,85.10,85.10,85.06,85.00,84.91,84.83,84.78,84.77,84.91,85.19,85.40,85.50,85.44,85.37,85.37,85.42,85.47,85.46,85.34,85.24,85.17,85.17,85.21,85.21,85.15,85.00,84.80,84.70,84.66,84.68,84.67,84.73,84.78,84.82,84.83,84.86,84.90,84.94,84.96,84.99,85.05,85.13,85.17,85.11,85.07,85.04,85.02,84.98,84.97,84.94,84.91,84.88,84.87,84.88,84.88,84.87,84.83,84.87,84.90,84.91,84.89,84.91,84.94,84.93,84.91,84.91,84.94,84.98,85.00,85.00,84.96,84.92,84.90,84.90,84.91,84.91,84.91,84.89,84.84,84.72,84.61,84.54,84.50,84.46,84.43,84.44,84.47,84.50,84.49,84.48,84.49,84.51,84.67,84.83,84.98,85.07,84.97,84.76,84.57,84.42,84.31,84.35,84.57,84.92,85.33,85.49,85.54,85.51,85.43,85.35,85.27,85.23,85.23,85.27,85.29,85.26,85.23,85.19,85.13,85.10,85.02,84.94,84.90,84.89,84.89,84.84,84.74,84.72,84.71,84.73,84.75,84.64,84.67,84.69,84.68,84.63,84.56,84.57,84.59,84.60,84.60,84.61,84.57,84.50,84.42,84.40,84.49,84.61,84.68,84.69,84.64,84.64,84.68,84.70,84.76,84.79,84.77,84.71,84.85,84.89,84.89,84.89,84.89,84.83,84.80,84.80,84.80,84.80,84.80,84.80,84.80,84.80,84.80,84.80,84.80,84.80,84.85,84.84,84.79,84.78,84.72,84.80,84.84,84.80,84.79,84.66,84.50,84.36,84.23,84.28,84.26,84.25,84.30,84.28,84.29,84.29,84.27,84.23
85.32,85.35,85.29,85.21,85.17,85.13,85.13,85.18,85.27,85.40,85.55,85.65,85.73,85.79,85.85,85.88,85.90,85.90,85.90,85.91,85.94,85.98,86.02,86.06,86.07,86.08,86.10,86.06,86.08,86.10,86.10,86.10,86.10,86.09,86.06,86.00,85.98,85.93,85.89,85.88,85.86,85.83,85.82,85.81,85.75,85.61,85.45,85.29,85.13,85.05,85.00,85.00,85.03,85.06,85.09,85.12,85.14,85.14,85.14,85.10,85.06,85.01,85.02,84.99,84.91,84.83,84.90,85.18,85.41,85.50,85.40,85.35,85.38,85.45,85.51,85.48,85.32,85.19,85.13,85.15,85.20,85.20,85.13,84.97,84.77,84.70,84.68,84.66,84.63,84.67,84.73,84.77,84.79,84.79,84.84,84.89,84.92,84.93,84.98,85.02,85.03,84.98,84.96,84.94,84.91,84.90,84.92,84.92,84.91,84.89,84.89,84.89,84.89,84.88,84.84,84.83,84.86,84.88,84.90,84.90,84.91,84.91,84.91,84.94,84.97,84.99,85.00,85.00,84.99,84.95,84.92,84.91,84.94,84.96,84.97,84.96,84.91,84.78,84.67,84.59,84.52,84.45,84.42,84.41,84.43,84.47,84.39,84.36,84.40,84.47,84.53,84.53,84.46,84.32,84.03,83.82,83.68,83.59,83.54,83.48,83.53,83.70,84.02,84.62,85.05,85.29,85.38,85.38,85.33,85.30,85.27,85.25,85.32,85.34,85.33,85.28,85.21,85.11,85.03,84.97,84.92,84.91,84.88,84.83,84.78,84.77,84.78,84.81,84.81,84.65,84.67,84.69,84.70,84.71,84.66,84.62,84.60,84.60,84.63,84.65,84.62,84.56,84.48,84.39,84.45,84.56,84.63,84.64,84.63,84.62,84.63,84.68,84.71,84.76,84.76,84.69,84.78,84.85,84.86,84.83,84.83,84.81,84.80,84.80,84.80,84.80,84.80,84.80,84.80,84.78,84.79,84.80,84.80,84.78,84.80,84.80,84.78,84.72,84.71,84.72,84.74,84.78,84.77,84.65,84.51,84.38,84.26,84.30,84.29,84.27,84.29,84.24,84.26,84.26,84.25,84.25
85.25,85.27,85.21,85.14,85.10,85.12,85.16,85.21,85.29,85.36,85.51,85.62,85.70,85.77,85.80,85.84,85.88,85.90,85.90,85.90,85.92,85.96,85.97,85.99,85.99,86.00,86.02,86.03,86.07,86.10,86.09,86.07,86.07,86.06,86.04,86.00,85.98,85.94,85.90,85.89,85.87,85.82,85.78,85.74,85.70,85.58,85.43,85.27,85.14,85.09,85.07,85.08,85.12,85.12,85.15,85.19,85.22,85.18,85.18,85.17,85.16,85.16,85.21,85.19,85.06,84.89,84.87,85.04,85.21,85.31,85.30,85.32,85.35,85.38,85.39,85.36,85.24,85.15,85.11,85.13,85.14,85.09,85.00,84.86,84.72,84.70,84.69,84.67,84.64,84.66,84.69,84.72,84.72,84.76,84.83,84.89,84.91,84.89,84.92,84.95,84.94,84.90,84.86,84.84,84.84,84.86,84.90,84.91,84.91,84.90,84.90,84.89,84.88,84.87,84.86,84.83,84.83,84.85,84.88,84.90,84.90,84.90,84.91,84.95,84.99,85.00,85.01,85.02,85.03,85.00,84.94,84.89,84.92,84.96,84.99,84.98,84.96,84.85,84.73,84.62,84.54,84.45,84.39,84.35,84.33,84.34,84.23,84.20,84.22,84.27,84.24,84.14,84.00,83.82,83.57,83.42,83.33,83.29,83.28,83.21,83.18,83.22,83.38,83.86,84.38,84.86,85.24,85.40,85.40,85.37,85.32,85.25,85.33,85.37,85.38,85.34,85.26,85.14,85.06,85.01,84.96,84.95,84.91,84.86,84.81,84.79,84.82,84.85,84.85,84.69,84.70,84.70,84.71,84.71,84.68,84.64,84.61,84.60,84.60,84.61,84.60,84.56,84.51,84.39,84.44,84.55,84.62,84.63,84.63,84.62,84.61,84.64,84.67,84.73,84.74,84.66,84.73,84.79,84.81,84.78,84.78,84.79,84.80,84.80,84.80,84.80,84.79,84.78,84.78,84.74,84.77,84.79,84.77,84.73,84.73,84.75,84.76,84.70,84.68,84.67,84.69,84.74,84.74,84.63,84.51,84.39,84.25,84.30,84.28,84.25,84.26,84.20,84.21,84.24,84.25,84.24
85.20,85.16,85.12,85.08,85.04,85.15,85.19,85.24,85.30,85.31,85.45,85.57,85.64,85.72,85.72,85.78,85.85,85.90,85.90,85.91,85.94,85.97,85.91,85.91,85.91,85.91,85.93,85.99,86.06,86.10,86.08,86.02,86.01,86.01,86.01,86.00,85.98,85.94,85.90,85.90,85.88,85.81,85.71,85.62,85.59,85.51,85.38,85.26,85.19,85.19,85.19,85.19,85.20,85.20,85.22,85.28,85.31,85.20,85.21,85.27,85.35,85.42,85.47,85.42,85.23,84.97,84.81,84.81,84.85,84.97,85.17,85.27,85.28,85.23,85.16,85.11,85.10,85.10,85.10,85.10,85.04,84.92,84.78,84.67,84.65,84.68,84.70,84.69,84.69,84.69,84.67,84.65,84.65,84.75,84.86,84.92,84.90,84.85,84.88,84.91,84.90,84.85,84.78,84.75,84.78,84.85,84.90,84.91,84.91,84.90,84.90,84.87,84.84,84.84,84.88,84.85,84.82,84.82,84.86,84.89,84.90,84.90,84.92,84.96,84.99,85.01,85.02,85.06,85.09,85.05,84.96,84.87,84.85,84.91,84.96,84.98,84.99,84.91,84.78,84.65,84.55,84.44,84.34,84.25,84.18,84.14,84.05,84.00,83.99,83.96,83.83,83.70,83.59,83.52,83.46,83.42,83.40,83.40,83.40,83.40,83.37,83.32,83.24,83.17,83.57,84.27,85.02,85.41,85.48,85.46,85.39,85.28,85.35,85.37,85.38,85.37,85.29,85.20,85.11,85.05,85.01,85.00,84.97,84.91,84.82,84.78,84.83,84.88,84.87,84.76,84.74,84.72,84.69,84.65,84.64,84.62,84.61,84.59,84.52,84.51,84.51,84.51,84.50,84.40,84.46,84.56,84.64,84.65,84.65,84.63,84.61,84.60,84.64,84.70,84.71,84.61,84.68,84.73,84.75,84.75,84.75,84.78,84.80,84.80,84.80,84.80,84.77,84.75,84.74,84.67,84.74,84.78,84.73,84.66,84.65,84.70,84.73,84.70,84.65,84.65,84.67,84.70,84.69,84.59,84.49,84.38,84.20,84.26,84.24,84.21,84.22,84.15,84.15,84.21,84.27,84.21
85.14,85.08,85.08,85.09,85.08,85.17,85.23,85.30,85.36,85.36,85.46,85.52,85.55,85.59,85.63,85.70,85.78,85.84,85.89,85.90,85.91,85.91,85.86,85.89,85.90,85.90,85.92,85.98,86.02,86.03,86.02,86.00,85.96,85.94,85.94,85.94,85.93,85.91,85.90,85.90,85.88,85.81,85.73,85.64,85.58,85.50,85.40,85.33,85.36,85.40,85.43,85.44,85.41,85.33,85.30,85.31,85.31,85.25,85.27,85.32,85.37,85.40,85.42,85.37,85.24,85.05,84.89,84.83,84.84,84.91,85.06,85.14,85.15,85.11,85.06,85.06,85.09,85.11,85.10,85.05,84.94,84.83,84.75,84.69,84.68,84.68,84.66,84.62,84.63,84.62,84.60,84.59,84.63,84.72,84.81,84.86,84.85,84.81,84.85,84.89,84.89,84.80,84.73,84.73,84.79,84.86,84.91,84.92,84.91,84.90,84.90,84.87,84.84,84.81,84.81,84.81,84.80,84.80,84.83,84.88,84.90,84.91,84.94,84.98,85.00,85.02,85.05,85.09,85.11,85.12,85.07,84.96,84.87,84.87,84.89,84.91,84.94,84.93,84.82,84.67,84.51,84.36,84.23,84.13,84.05,83.97,83.89,83.85,83.83,83.81,83.70,83.62,83.56,83.51,83.48,83.46,83.44,83.44,83.45,83.45,83.44,83.42,83.38,83.20,83.27,83.72,84.48,85.30,85.48,85.48,85.39,85.29,85.33,85.33,85.34,85.34,85.28,85.20,85.13,85.07,85.02,85.00,84.99,84.94,84.86,84.76,84.82,84.88,84.89,84.84,84.80,84.75,84.71,84.68,84.65,84.62,84.59,84.56,84.51,84.47,84.45,84.45,84.46,84.37,84.42,84.53,84.61,84.62,84.62,84.63,84.64,84.64,84.66,84.67,84.65,84.61,84.67,84.71,84.72,84.72,84.72,84.77,84.80,84.80,84.80,84.80,84.76,84.71,84.67,84.59,84.63,84.65,84.63,84.62,84.58,84.59,84.61,84.60,84.57,84.61,84.62,84.60,84.59,84.48,84.43,84.41,84.26,84.31,84.29,84.25,84.24,84.14,84.12,84.15,84.20,84.19
85.05,85.01,85.02,85.06,85.10,85.16,85.23,85.29,85.34,85.37,85.42,85.45,85.46,85.48,85.55,85.61,85.69,85.78,85.85,85.88,85.89,85.88,85.83,85.87,85.88,85.88,85.90,85.95,85.96,85.96,85.97,85.96,85.92,85.89,85.88,85.90,85.91,85.90,85.90,85.90,85.88,85.82,85.74,85.65,85.56,85.50,85.45,85.44,85.52,85.57,85.62,85.62,85.56,85.45,85.39,85.35,85.31,85.26,85.28,85.32,85.36,85.37,85.37,85.32,85.23,85.11,84.96,84.88,84.85,84.88,84.97,85.03,85.04,85.01,85.00,85.03,85.09,85.12,85.10,85.00,84.87,84.80,84.75,84.70,84.70,84.68,84.63,84.57,84.59,84.58,84.57,84.57,84.62,84.70,84.76,84.79,84.80,84.77,84.82,84.86,84.84,84.73,84.69,84.73,84.79,84.86,84.90,84.91,84.90,84.89,84.89,84.87,84.83,84.79,84.77,84.78,84.78,84.79,84.82,84.87,84.89,84.92,84.96,85.00,85.01,85.03,85.07,85.10,85.12,85.16,85.15,85.05,84.92,84.85,84.82,84.83,84.87,84.87,84.76,84.59,84.40,84.25,84.12,84.02,83.92,83.82,83.76,83.73,83.71,83.69,83.61,83.56,83.52,83.51,83.51,83.50,83.49,83.50,83.52,83.50,83.50,83.50,83.47,83.27,83.15,83.36,84.01,85.14,85.45,85.47,85.36,85.27,85.30,85.31,85.31,85.31,85.27,85.19,85.13,85.09,85.04,85.01,85.00,84.97,84.88,84.77,84.81,84.87,84.90,84.90,84.84,84.77,84.71,84.70,84.64,84.60,84.58,84.56,84.52,84.45,84.41,84.41,84.42,84.34,84.40,84.50,84.57,84.58,84.59,84.61,84.63,84.65,84.65,84.64,84.62,84.60,84.66,84.67,84.69,84.72,84.70,84.73,84.76,84.78,84.80,84.77,84.71,84.65,84.59,84.51,84.52,84.52,84.52,84.55,84.53,84.52,84.52,84.51,84.49,84.53,84.54,84.50,84.48,84.36,84.35,84.38,84.29,84.33,84.30,84.26,84.24,84.12,84.10,84.11,84.14,84.17
84.93,84.96,84.94,84.95,85.08,85.09,85.15,85.19,85.22,85.28,85.30,85.34,85.39,85.41,85.47,85.50,85.57,85.70,85.78,85.84,85.87,85.87,85.86,85.86,85.85,85.84,85.85,85.88,85.89,85.90,85.91,85.91,85.90,85.86,85.84,85.91,85.92,85.91,85.90,85.90,85.88,85.82,85.72,85.61,85.52,85.51,85.54,85.59,85.65,85.68,85.70,85.68,85.61,85.55,85.49,85.41,85.32,85.21,85.21,85.24,85.29,85.35,85.33,85.25,85.19,85.14,85.05,84.95,84.88,84.86,84.90,84.95,84.97,84.97,84.98,85.02,85.09,85.13,85.09,84.95,84.86,84.83,84.80,84.71,84.69,84.67,84.61,84.54,84.57,84.59,84.59,84.60,84.63,84.69,84.72,84.74,84.74,84.73,84.78,84.79,84.75,84.64,84.66,84.74,84.81,84.84,84.85,84.85,84.85,84.85,84.85,84.85,84.83,84.80,84.77,84.75,84.75,84.77,84.82,84.87,84.89,84.92,84.96,85.00,85.02,85.05,85.08,85.10,85.14,85.18,85.18,85.14,85.03,84.88,84.79,84.75,84.77,84.69,84.52,84.34,84.18,84.10,84.01,83.90,83.80,83.71,83.66,83.65,83.64,83.64,83.58,83.52,83.49,83.49,83.54,83.56,83.58,83.61,83.60,83.57,83.56,83.52,83.46,83.38,83.29,83.29,83.66,84.92,85.36,85.40,85.28,85.22,85.27,85.29,85.30,85.29,85.24,85.16,85.11,85.10,85.08,85.03,85.01,84.97,84.91,84.82,84.81,84.84,84.89,84.90,84.84,84.77,84.71,84.69,84.58,84.54,84.56,84.62,84.54,84.45,84.41,84.40,84.40,84.33,84.40,84.49,84.52,84.52,84.57,84.57,84.55,84.61,84.62,84.61,84.60,84.60,84.61,84.61,84.67,84.76,84.71,84.66,84.67,84.73,84.80,84.67,84.62,84.58,84.51,84.43,84.42,84.42,84.42,84.43,84.48,84.50,84.48,84.42,84.42,84.42,84.42,84.40,84.33,84.25,84.23,84.25,84.29,84.29,84.24,84.20,84.19,84.12,84.10,84.10,84.11,84.12
84.90,84.93,84.90,84.91,85.01,85.01,85.07,85.11,85.13,85.20,85.23,85.28,85.35,85.40,85.41,85.41,85.46,85.58,85.67,85.75,85.80,85.81,85.81,85.81,85.85,85.87,85.83,85.83,85.84,85.88,85.93,85.93,85.90,85.87,85.85,85.91,85.93,85.91,85.90,85.89,85.86,85.81,85.72,85.62,85.54,85.57,85.63,85.69,85.71,85.71,85.74,85.72,85.66,85.62,85.54,85.46,85.36,85.26,85.23,85.23,85.26,85.33,85.31,85.25,85.20,85.15,85.06,84.96,84.91,84.90,84.89,84.92,84.93,84.95,84.98,85.02,85.08,85.09,85.03,84.91,84.87,84.86,84.84,84.77,84.71,84.66,84.61,84.56,84.54,84.55,84.57,84.59,84.63,84.67,84.68,84.67,84.68,84.67,84.70,84.70,84.68,84.63,84.68,84.75,84.81,84.82,84.80,84.79,84.79,84.80,84.80,84.80,84.80,84.78,84.74,84.72,84.74,84.77,84.82,84.86,84.89,84.92,84.96,85.00,85.03,85.07,85.09,85.10,85.14,85.18,85.21,85.21,85.16,85.00,84.85,84.73,84.64,84.48,84.31,84.14,84.01,83.92,83.86,83.78,83.71,83.64,83.60,83.59,83.58,83.56,83.55,83.56,83.57,83.59,83.62,83.66,83.70,83.74,83.72,83.70,83.64,83.57,83.49,83.46,83.39,83.29,83.47,84.62,85.24,85.39,85.29,85.19,85.22,85.24,85.25,85.24,85.19,85.16,85.11,85.07,85.05,84.99,84.96,84.93,84.87,84.82,84.81,84.82,84.84,84.81,84.77,84.73,84.71,84.69,84.60,84.54,84.53,84.55,84.53,84.46,84.41,84.38,84.37,84.35,84.39,84.47,84.54,84.55,84.55,84.53,84.52,84.58,84.59,84.58,84.55,84.55,84.52,84.53,84.59,84.67,84.62,84.57,84.58,84.61,84.65,84.62,84.58,84.55,84.51,84.48,84.44,84.42,84.44,84.44,84.48,84.49,84.47,84.40,84.39,84.33,84.30,84.31,84.23,84.16,84.14,84.16,84.20,84.18,84.14,84.12,84.14,84.14,84.08,84.07,84.10,84.11
84.89,84.90,84.88,84.88,84.94,84.94,84.99,85.03,85.05,85.13,85.17,85.24,85.31,85.39,85.35,85.34,85.37,85.44,85.55,85.63,85.69,85.73,85.73,85.75,85.85,85.90,85.82,85.80,85.81,85.86,85.95,85.95,85.91,85.88,85.87,85.91,85.92,85.91,85.90,85.88,85.83,85.79,85.72,85.63,85.59,85.64,85.71,85.76,85.73,85.72,85.75,85.75,85.71,85.69,85.60,85.50,85.42,85.34,85.28,85.24,85.26,85.33,85.30,85.27,85.22,85.15,85.05,84.95,84.93,84.93,84.89,84.89,84.91,84.94,84.99,85.02,85.06,85.04,84.97,84.89,84.89,84.89,84.88,84.83,84.74,84.67,84.63,84.60,84.53,84.53,84.53,84.56,84.63,84.65,84.63,84.61,84.61,84.61,84.61,84.61,84.61,84.63,84.71,84.77,84.80,84.80,84.77,84.74,84.73,84.75,84.75,84.75,84.75,84.74,84.70,84.70,84.72,84.76,84.80,84.84,84.87,84.91,84.95,84.99,85.03,85.06,85.09,85.10,85.13,85.17,85.21,85.25,85.27,85.13,84.93,84.71,84.50,84.26,84.10,83.97,83.85,83.76,83.71,83.67,83.63,83.60,83.56,83.55,83.54,83.50,83.54,83.62,83.68,83.70,83.71,83.75,83.81,83.85,83.83,83.81,83.73,83.63,83.54,83.51,83.45,83.30,83.36,84.36,85.14,85.39,85.31,85.16,85.18,85.20,85.21,85.20,85.15,85.16,85.12,85.05,85.01,84.95,84.93,84.92,84.88,84.86,84.83,84.81,84.79,84.72,84.69,84.69,84.70,84.70,84.64,84.57,84.51,84.49,84.55,84.51,84.45,84.39,84.36,84.37,84.39,84.45,84.57,84.58,84.54,84.51,84.51,84.56,84.57,84.54,84.51,84.50,84.45,84.47,84.52,84.55,84.51,84.50,84.50,84.50,84.50,84.57,84.56,84.53,84.52,84.53,84.47,84.44,84.47,84.47,84.47,84.47,84.46,84.40,84.37,84.25,84.19,84.22,84.13,84.09,84.08,84.10,84.10,84.08,84.05,84.05,84.10,84.14,84.06,84.05,84.10,84.12
84.85,84.89,84.89,84.89,84.91,84.87,84.88,84.92,84.97,85.05,85.12,85.19,85.27,85.34,85.32,85.31,85.30,85.30,85.40,85.48,85.55,85.61,85.65,85.71,85.80,85.87,85.87,85.81,85.80,85.83,85.88,85.92,85.91,85.89,85.89,85.89,85.86,85.88,85.89,85.86,85.77,85.73,85.69,85.64,85.67,85.73,85.77,85.78,85.76,85.72,85.73,85.75,85.76,85.75,85.66,85.56,85.47,85.43,85.36,85.31,85.32,85.37,85.35,85.30,85.23,85.15,85.05,84.95,84.90,84.88,84.83,84.84,84.89,84.95,85.00,85.01,85.00,84.97,84.92,84.90,84.91,84.93,84.92,84.88,84.81,84.74,84.71,84.70,84.63,84.57,84.55,84.56,84.61,84.62,84.59,84.56,84.53,84.53,84.53,84.54,84.58,84.64,84.71,84.77,84.80,84.80,84.77,84.75,84.75,84.74,84.72,84.72,84.70,84.68,84.67,84.69,84.71,84.72,84.72,84.75,84.80,84.85,84.89,84.92,84.96,85.00,85.03,85.06,85.10,85.14,85.17,85.21,85.25,85.17,84.97,84.66,84.32,84.05,83.91,83.81,83.72,83.67,83.65,83.64,83.64,83.62,83.57,83.53,83.54,83.58,83.64,83.68,83.72,83.77,83.78,83.82,83.85,83.84,83.81,83.80,83.75,83.67,83.58,83.52,83.45,83.30,83.37,84.34,85.07,85.33,85.29,85.16,85.19,85.22,85.24,85.24,85.24,85.19,85.14,85.10,85.07,85.01,85.02,85.06,85.08,85.05,84.93,84.84,84.79,84.72,84.66,84.66,84.70,84.72,84.66,84.60,84.59,84.66,84.74,84.71,84.66,84.58,84.50,84.38,84.37,84.44,84.55,84.53,84.51,84.50,84.51,84.55,84.53,84.51,84.50,84.50,84.49,84.49,84.50,84.52,84.50,84.50,84.50,84.50,84.50,84.55,84.56,84.55,84.53,84.46,84.43,84.40,84.39,84.42,84.42,84.44,84.44,84.40,84.36,84.22,84.12,84.13,84.05,84.05,84.07,84.10,84.10,84.07,84.05,84.06,84.10,84.07,84.03,84.05,84.11,84.14
84.85,84.89,84.90,84.90,84.90,84.86,84.86,84.89,84.93,84.98,85.08,85.16,85.23,85.27,85.27,85.26,85.25,85.23,85.29,85.36,85.44,85.51,85.58,85.65,85.75,85.84,85.86,85.84,85.81,85.80,85.80,85.83,85.83,85.82,85.83,85.83,85.83,85.86,85.88,85.83,85.76,85.72,85.69,85.68,85.73,85.78,85.80,85.80,85.78,85.74,85.72,85.73,85.74,85.70,85.63,85.55,85.48,85.44,85.37,85.33,85.34,85.40,85.39,85.31,85.22,85.13,85.03,84.95,84.89,84.85,84.81,84.84,84.89,84.93,84.96,84.96,84.95,84.93,84.90,84.90,84.92,84.95,84.95,84.91,84.85,84.79,84.77,84.78,84.73,84.66,84.61,84.59,84.58,84.55,84.53,84.50,84.49,84.49,84.49,84.51,84.56,84.63,84.71,84.77,84.80,84.80,84.78,84.74,84.72,84.70,84.69,84.70,84.69,84.67,84.66,84.68,84.68,84.67,84.65,84.62,84.63,84.65,84.67,84.70,84.73,84.77,84.80,84.84,84.88,84.91,84.95,84.99,85.02,84.94,84.71,84.39,84.07,83.86,83.75,83.68,83.61,83.57,83.57,83.59,83.62,83.62,83.58,83.54,83.54,83.60,83.67,83.72,83.77,83.82,83.83,83.87,83.88,83.86,83.82,83.80,83.74,83.66,83.57,83.52,83.44,83.31,83.44,84.48,85.13,85.34,85.29,85.16,85.17,85.24,85.29,85.32,85.34,85.29,85.26,85.24,85.22,85.17,85.19,85.25,85.31,85.22,85.01,84.87,84.79,84.71,84.63,84.63,84.68,84.74,84.70,84.68,84.70,84.77,84.82,84.80,84.74,84.66,84.56,84.39,84.35,84.41,84.50,84.52,84.51,84.50,84.51,84.53,84.51,84.50,84.50,84.50,84.50,84.50,84.50,84.50,84.50,84.48,84.48,84.47,84.47,84.50,84.51,84.52,84.52,84.42,84.40,84.37,84.34,84.37,84.39,84.41,84.41,84.40,84.37,84.21,84.10,84.09,84.03,84.05,84.08,84.09,84.07,84.05,84.03,84.04,84.07,84.06,84.04,84.06,84.12,84.17
84.88,84.90,84.90,84.90,84.90,84.90,84.90,84.90,84.90,84.91,85.04,85.14,85.20,85.20,85.20,85.20,85.20,85.20,85.21,85.27,85.35,85.43,85.50,85.59,85.70,85.79,85.80,85.87,85.83,85.76,85.71,85.70,85.70,85.70,85.70,85.72,85.80,85.85,85.85,85.79,85.78,85.74,85.71,85.73,85.80,85.80,85.80,85.80,85.80,85.78,85.73,85.69,85.67,85.58,85.52,85.49,85.46,85.38,85.32,85.31,85.34,85.41,85.41,85.30,85.19,85.10,84.99,84.96,84.90,84.84,84.82,84.88,84.90,84.90,84.90,84.90,84.91,84.91,84.91,84.90,84.92,84.96,84.97,84.93,84.86,84.82,84.81,84.83,84.83,84.77,84.71,84.64,84.54,84.47,84.44,84.44,84.47,84.47,84.48,84.51,84.56,84.63,84.70,84.77,84.80,84.80,84.79,84.73,84.66,84.63,84.68,84.69,84.70,84.69,84.68,84.67,84.66,84.63,84.57,84.47,84.40,84.37,84.36,84.36,84.38,84.41,84.45,84.49,84.53,84.57,84.60,84.63,84.66,84.52,84.26,83.98,83.78,83.68,83.63,83.58,83.52,83.47,83.49,83.54,83.58,83.60,83.60,83.57,83.55,83.57,83.67,83.74,83.81,83.86,83.86,83.89,83.91,83.90,83.83,83.78,83.70,83.61,83.53,83.50,83.41,83.32,83.54,84.71,85.27,85.39,85.29,85.16,85.14,85.25,85.36,85.41,85.44,85.45,85.45,85.44,85.42,85.38,85.40,85.47,85.55,85.36,85.07,84.88,84.79,84.69,84.59,84.59,84.66,84.77,84.77,84.79,84.82,84.85,84.84,84.81,84.75,84.67,84.56,84.39,84.33,84.36,84.43,84.53,84.52,84.51,84.51,84.53,84.51,84.50,84.50,84.50,84.50,84.50,84.50,84.50,84.50,84.46,84.44,84.43,84.43,84.43,84.43,84.45,84.49,84.41,84.38,84.34,84.30,84.33,84.38,84.38,84.37,84.40,84.40,84.23,84.10,84.10,84.07,84.09,84.10,84.08,84.03,84.02,84.01,84.01,84.03,84.07,84.08,84.09,84.13,84.19
84.89,84.90,84.90,84.90,84.90,84.90,84.91,84.91,84.89,84.85,84.96,85.06,85.11,85.12,85.12,85.12,85.12,85.13,85.14,85.22,85.29,85.34,85.41,85.50,85.58,85.65,85.67,85.78,85.83,85.83,85.78,85.70,85.67,85.68,85.72,85.78,85.85,85.87,85.82,85.73,85.74,85.74,85.75,85.76,85.80,85.80,85.79,85.78,85.79,85.80,85.75,85.71,85.67,85.54,85.51,85.49,85.46,85.38,85.31,85.27,85.28,85.33,85.27,85.17,85.07,84.99,84.90,84.86,84.82,84.79,84.83,84.86,84.89,84.90,84.90,84.90,84.91,84.92,84.92,84.90,84.91,84.92,84.92,84.90,84.86,84.84,84.84,84.84,84.84,84.81,84.74,84.63,84.51,84.44,84.41,84.41,84.41,84.41,84.44,84.49,84.54,84.58,84.65,84.73,84.78,84.79,84.76,84.69,84.63,84.61,84.66,84.67,84.66,84.65,84.66,84.64,84.61,84.58,84.55,84.46,84.38,84.30,84.23,84.18,84.16,84.14,84.13,84.14,84.18,84.22,84.25,84.28,84.24,84.07,83.88,83.72,83.65,83.60,83.57,83.54,83.49,83.46,83.49,83.55,83.60,83.62,83.62,83.59,83.57,83.59,83.70,83.78,83.83,83.85,83.84,83.88,83.90,83.87,83.79,83.72,83.66,83.59,83.52,83.46,83.33,83.42,83.88,84.91,85.32,85.38,85.26,85.14,85.11,85.18,85.28,85.34,85.33,85.34,85.35,85.37,85.38,85.33,85.35,85.40,85.45,85.28,85.02,84.86,84.78,84.66,84.57,84.55,84.60,84.71,84.73,84.75,84.75,84.73,84.72,84.66,84.60,84.52,84.43,84.31,84.29,84.34,84.41,84.50,84.51,84.50,84.50,84.51,84.50,84.50,84.50,84.50,84.50,84.47,84.45,84.44,84.44,84.42,84.41,84.41,84.41,84.41,84.41,84.42,84.44,84.41,84.32,84.26,84.25,84.25,84.31,84.33,84.33,84.34,84.34,84.20,84.10,84.09,84.03,84.03,84.04,84.03,84.01,84.01,84.04,84.07,84.08,84.09,84.06,84.09,84.17,84.19
84.90,84.90,84.90,84.90,84.90,84.90,84.92,84.93,84.89,84.82,84.88,84.96,85.03,85.05,85.05,85.05,85.04,85.04,85.08,85.18,85.24,85.27,85.31,85.40,85.46,85.50,85.55,85.67,85.77,85.83,85.82,85.71,85.67,85.67,85.72,85.79,85.85,85.84,85.77,85.68,85.71,85.75,85.77,85.76,85.77,85.77,85.76,85.76,85.77,85.80,85.77,85.73,85.67,85.53,85.50,85.48,85.45,85.38,85.32,85.27,85.26,85.28,85.19,85.08,84.98,84.89,84.82,84.79,84.76,84.78,84.86,84.87,84.89,84.90,84.90,84.90,84.91,84.92,84.92,84.90,84.90,84.90,84.90,84.88,84.87,84.86,84.85,84.84,84.84,84.82,84.76,84.66,84.52,84.43,84.39,84.38,84.37,84.37,84.42,84.48,84.54,84.56,84.63,84.71,84.78,84.78,84.74,84.68,84.63,84.62,84.65,84.64,84.63,84.62,84.64,84.60,84.55,84.52,84.51,84.44,84.35,84.25,84.16,84.08,84.02,83.95,83.90,83.87,83.88,83.89,83.91,83.91,83.84,83.69,83.58,83.52,83.53,83.53,83.51,83.50,83.48,83.46,83.47,83.53,83.60,83.62,83.62,83.59,83.57,83.60,83.72,83.81,83.85,83.84,83.82,83.86,83.86,83.81,83.72,83.64,83.60,83.56,83.49,83.38,83.31,83.58,84.20,85.02,85.31,85.34,85.24,85.13,85.09,85.12,85.18,85.22,85.20,85.20,85.22,85.25,85.26,85.21,85.22,85.26,85.29,85.15,84.94,84.82,84.76,84.63,84.54,84.50,84.53,84.61,84.62,84.63,84.63,84.59,84.56,84.49,84.43,84.37,84.31,84.24,84.26,84.32,84.40,84.46,84.49,84.49,84.48,84.50,84.50,84.50,84.50,84.50,84.50,84.45,84.41,84.41,84.41,84.40,84.41,84.42,84.40,84.40,84.40,84.40,84.41,84.40,84.30,84.24,84.22,84.21,84.27,84.30,84.30,84.30,84.30,84.18,84.09,84.07,84.01,84.02,84.03,84.03,84.03,84.03,84.07,84.10,84.10,84.10,84.06,84.09,84.18,84.18
84.90,84.90,84.90,84.90,84.90,84.90,84.95,84.96,84.89,84.84,84.82,84.86,84.93,84.96,84.96,84.96,84.95,84.94,85.02,85.17,85.23,85.20,85.18,85.28,85.33,85.36,85.44,85.53,85.65,85.75,85.78,85.71,85.69,85.68,85.69,85.76,85.79,85.74,85.67,85.63,85.70,85.76,85.76,85.71,85.70,85.70,85.70,85.71,85.73,85.78,85.79,85.76,85.69,85.56,85.51,85.47,85.43,85.39,85.35,85.32,85.30,85.28,85.19,85.07,84.94,84.81,84.75,84.73,84.76,84.82,84.89,84.89,84.90,84.90,84.90,84.90,84.90,84.90,84.90,84.90,84.90,84.90,84.90,84.90,84.89,84.88,84.86,84.83,84.82,84.81,84.79,84.72,84.58,84.45,84.37,84.34,84.35,84.37,84.44,84.51,84.57,84.59,84.67,84.74,84.79,84.79,84.75,84.71,84.69,84.68,84.66,84.62,84.60,84.61,84.61,84.55,84.49,84.44,84.44,84.39,84.31,84.23,84.17,84.09,83.99,83.90,83.82,83.73,83.65,83.60,83.56,83.54,83.48,83.41,83.39,83.41,83.44,83.44,83.45,83.48,83.49,83.46,83.43,83.47,83.55,83.60,83.57,83.54,83.53,83.58,83.70,83.81,83.85,83.84,83.81,83.82,83.79,83.72,83.60,83.54,83.52,83.50,83.43,83.26,83.38,83.83,84.49,84.99,85.24,85.29,85.23,85.13,85.10,85.07,85.05,85.04,85.03,85.03,85.03,85.04,85.04,84.99,84.99,85.02,85.04,84.97,84.83,84.76,84.74,84.59,84.52,84.47,84.43,84.43,84.39,84.40,84.42,84.42,84.36,84.29,84.25,84.23,84.22,84.21,84.25,84.31,84.38,84.41,84.46,84.46,84.43,84.49,84.49,84.50,84.50,84.49,84.49,84.44,84.41,84.40,84.40,84.40,84.43,84.46,84.41,84.40,84.40,84.39,84.40,84.39,84.34,84.29,84.26,84.21,84.26,84.29,84.30,84.28,84.28,84.18,84.07,84.01,84.00,84.06,84.09,84.09,84.09,84.09,84.09,84.10,84.10,84.10,84.09,84.10,84.12,84.17
84.86,84.89,84.90,84.90,84.90,84.90,84.94,84.94,84.90,84.87,84.85,84.85,84.87,84.89,84.92,84.92,84.90,84.85,84.86,85.09,85.21,85.19,85.17,85.20,85.19,85.21,85.29,85.40,85.55,85.68,85.76,85.74,85.71,85.68,85.66,85.65,85.65,85.63,85.59,85.58,85.71,85.82,85.81,85.71,85.64,85.61,85.61,85.64,85.67,85.70,85.71,85.69,85.65,85.58,85.54,85.49,85.44,85.40,85.38,85.36,85.33,85.27,85.15,85.04,84.91,84.78,84.74,84.78,84.82,84.86,84.90,84.90,84.90,84.89,84.88,84.86,84.86,84.88,84.90,84.90,84.90,84.90,84.90,84.88,84.87,84.87,84.85,84.81,84.81,84.80,84.77,84.71,84.61,84.46,84.36,84.32,84.35,84.38,84.43,84.49,84.54,84.57,84.64,84.73,84.80,84.82,84.76,84.71,84.67,84.65,84.65,84.64,84.62,84.60,84.60,84.54,84.45,84.37,84.33,84.27,84.21,84.15,84.10,84.02,83.93,83.84,83.76,83.67,83.61,83.53,83.44,83.35,83.32,83.34,83.37,83.40,83.41,83.41,83.44,83.46,83.47,83.43,83.41,83.43,83.48,83.53,83.53,83.53,83.56,83.62,83.69,83.75,83.77,83.76,83.72,83.70,83.66,83.61,83.53,83.51,83.49,83.46,83.44,83.51,83.91,84.39,84.80,85.00,85.19,85.23,85.18,85.11,85.09,85.05,85.00,84.96,84.94,84.92,84.90,84.89,84.89,84.84,84.82,84.82,84.84,84.79,84.72,84.68,84.65,84.58,84.54,84.50,84.48,84.48,84.47,84.46,84.45,84.43,84.40,84.34,84.30,84.27,84.23,84.20,84.21,84.28,84.38,84.43,84.44,84.43,84.42,84.49,84.47,84.47,84.47,84.45,84.44,84.42,84.40,84.38,84.38,84.38,84.41,84.43,84.41,84.40,84.38,84.38,84.40,84.37,84.36,84.32,84.25,84.20,84.24,84.28,84.28,84.24,84.26,84.18,84.08,84.00,84.00,84.07,84.10,84.10,84.10,84.10,84.10,84.10,84.10,84.10,84.10,84.10,84.11,84.16
