72.96,73.74,74.53,75.35,76.20,76.92,77.49,77.93,78.26,78.53,78.95,79.37,79.73,79.95,80.05,80.00,79.87,79.75,79.81,79.85,79.96,80.09,80.10,80.13,80.17,80.22,80.25,80.27,80.28,80.28,80.27,80.26,80.29,80.31,80.31,80.25,80.10,79.99,79.98,80.08,80.23,80.29,80.30,80.27,80.24,80.21,80.22,80.20,80.11,80.07,80.11,80.17,80.20,80.19,80.20,80.24,80.31,80.40,80.42,80.41,80.39,80.36,80.31,80.23,80.11,79.99,79.93,79.91,79.90,79.90,79.92,79.91,79.90,79.89,79.89,79.89,79.90,79.93,79.96,79.99,80.04,80.07,80.07,80.06,80.02,79.96,79.89,79.82,79.79,79.79,79.80,79.80,79.80,79.84,79.87,79.88,79.90,79.90,79.82,79.79,79.79,79.78,79.75,79.77,79.73,79.60,79.37,79.18,79.12,79.19,79.27,79.25,79.24,79.21,79.04,76.96,76.00,75.69,75.69,75.77,75.85,75.73,75.24,74.21,73.02,71.42,70.26,70.06,70.12,70.17,70.21,70.24,70.29,69.83,69.33,68.96,68.82,68.15,67.81,67.66,67.60,67.58,67.59,67.85,68.29,68.68,68.99,69.58,70.25,70.86,71.43,71.71,71.91,72.15,72.53,72.85,72.75,72.25,71.45,70.17,69.08,68.57,68.71,68.77,68.66,68.35,67.93,67.65,67.41,67.25,67.20,67.39,68.84,70.84,71.72,70.99,69.01,68.07,67.76,67.75,67.70,67.65,67.58,67.49,67.39,67.32,67.26,67.11,66.77,66.05,65.93,65.90,65.90,65.90,65.90,65.90,65.91,65.91,65.83,65.85,65.84,65.85,65.90,65.90,65.90,65.90,65.90,65.89,65.85,65.81,65.80,65.90,65.91,65.87,65.83,65.80,65.81,65.83,65.83,65.81,65.73,65.64,65.61,65.63,65.65,65.61,65.60,65.59,65.57,65.52,65.48,65.47,65.48,65.50,65.44,65.42,65.43,65.43,65.38,65.32,65.26,65.20,65.11,65.05,65.03,65.02,64.95,64.91,64.90,64.89,64.87,64.86,64.87,64.86,64.83,64.81
71.69,72.59,73.44,74.27,75.09,75.91,76.65,77.26,77.73,78.05,78.37,78.76,79.17,79.52,79.70,79.69,79.57,79.44,79.46,79.51,79.63,79.74,79.75,79.84,79.96,80.07,80.15,80.23,80.28,80.29,80.28,80.28,80.29,80.30,80.28,80.21,79.97,79.78,79.73,79.85,80.07,80.18,80.24,80.25,80.23,80.23,80.25,80.23,80.12,80.07,80.14,80.24,80.33,80.34,80.34,80.36,80.39,80.44,80.46,80.45,80.41,80.33,80.26,80.18,80.08,79.97,79.91,79.89,79.89,79.91,79.94,79.93,79.92,79.91,79.90,79.90,79.90,79.92,79.96,79.99,80.02,80.04,80.04,80.04,80.02,79.96,79.89,79.82,79.80,79.80,79.81,79.80,79.78,79.82,79.87,79.89,79.88,79.89,79.84,79.81,79.80,79.74,79.70,79.71,79.70,79.59,79.36,79.19,79.14,79.19,79.26,79.23,79.21,79.19,79.08,77.15,76.30,76.00,75.96,76.07,76.13,75.88,75.20,74.01,72.92,71.40,70.29,70.10,70.17,70.21,70.25,70.29,70.33,69.89,69.35,68.89,68.67,68.00,67.72,67.57,67.46,67.49,67.45,67.56,67.80,68.08,68.28,68.73,69.28,69.77,70.11,70.19,70.28,70.47,70.82,71.06,70.96,70.62,70.16,69.39,68.64,68.23,68.24,68.21,68.06,67.82,67.56,67.40,67.18,67.04,66.98,67.05,67.99,70.46,71.78,71.22,69.49,68.17,67.72,67.75,67.68,67.60,67.52,67.44,67.37,67.27,67.23,67.11,66.77,66.01,65.90,65.88,65.89,65.87,65.90,65.90,65.91,65.90,65.82,65.84,65.84,65.85,65.93,65.91,65.90,65.90,65.90,65.89,65.86,65.80,65.78,65.90,65.90,65.86,65.82,65.79,65.78,65.81,65.83,65.81,65.72,65.64,65.60,65.59,65.62,65.60,65.58,65.57,65.56,65.50,65.46,65.44,65.45,65.46,65.42,65.43,65.46,65.45,65.41,65.38,65.32,65.23,65.15,65.08,65.03,64.99,64.92,64.89,64.89,64.89,64.87,64.87,64.87,64.84,64.79,64.78
70.30,71.44,72.41,73.23,73.95,74.78,75.62,76.41,77.12,77.63,77.91,78.24,78.62,79.04,79.33,79.46,79.44,79.30,79.19,79.21,79.27,79.32,79.29,79.41,79.62,79.84,79.99,80.15,80.25,80.29,80.30,80.30,80.30,80.30,80.27,80.16,79.83,79.56,79.45,79.57,79.84,80.03,80.14,80.19,80.21,80.25,80.28,80.24,80.11,80.07,80.18,80.35,80.51,80.56,80.51,80.44,80.38,80.33,80.31,80.30,80.26,80.17,80.11,80.06,80.01,79.96,79.92,79.88,79.87,79.90,79.97,79.97,79.94,79.91,79.90,79.90,79.90,79.91,79.94,79.98,80.00,80.00,80.00,80.00,80.00,79.95,79.89,79.83,79.80,79.80,79.82,79.83,79.78,79.82,79.87,79.88,79.86,79.89,79.88,79.87,79.82,79.69,79.63,79.64,79.63,79.55,79.36,79.23,79.18,79.20,79.23,79.22,79.21,79.19,79.10,77.52,76.80,76.48,76.33,76.47,76.50,76.11,75.24,73.95,72.89,71.42,70.34,70.18,70.25,70.27,70.31,70.36,70.37,69.93,69.35,68.81,68.48,67.87,67.65,67.50,67.32,67.41,67.41,67.40,67.41,67.47,67.62,67.96,68.40,68.83,68.87,68.70,68.63,68.72,68.84,68.87,68.78,68.66,68.59,68.39,68.09,67.90,67.90,67.81,67.64,67.50,67.37,67.21,66.99,66.84,66.74,66.76,67.41,70.19,71.79,71.35,69.95,68.25,67.68,67.76,67.68,67.54,67.45,67.40,67.35,67.23,67.20,67.12,66.82,66.02,65.88,65.87,65.88,65.85,65.90,65.90,65.90,65.88,65.83,65.86,65.87,65.88,65.97,65.92,65.90,65.90,65.90,65.90,65.87,65.81,65.78,65.89,65.88,65.84,65.79,65.77,65.74,65.79,65.83,65.82,65.71,65.66,65.59,65.55,65.60,65.58,65.55,65.54,65.56,65.48,65.43,65.40,65.39,65.37,65.37,65.43,65.48,65.45,65.44,65.42,65.35,65.24,65.17,65.09,65.01,64.94,64.86,64.85,64.87,64.90,64.90,64.90,64.90,64.85,64.77,64.75
69.66,70.44,71.47,72.41,73.05,73.71,74.49,75.29,76.08,76.74,77.24,77.69,78.12,78.52,78.77,78.90,78.94,78.92,78.96,79.09,79.24,79.35,79.33,79.23,79.25,79.35,79.50,79.67,79.89,80.13,80.32,80.34,80.33,80.31,80.27,80.16,79.81,79.51,79.38,79.50,79.77,79.97,80.08,80.14,80.15,80.23,80.25,80.18,80.06,80.04,80.12,80.23,80.33,80.36,80.32,80.28,80.23,80.21,80.20,80.17,80.13,80.08,80.06,80.02,79.97,79.94,79.91,79.87,79.86,79.89,79.96,79.98,79.97,79.94,79.92,79.90,79.90,79.90,79.92,79.97,79.99,80.00,80.00,80.00,79.97,79.93,79.90,79.87,79.85,79.85,79.86,79.87,79.85,79.87,79.89,79.90,79.92,79.95,79.92,79.90,79.84,79.68,79.62,79.61,79.60,79.52,79.32,79.23,79.19,79.20,79.21,79.24,79.25,79.24,79.16,78.42,77.97,77.63,77.32,77.19,76.93,76.29,75.36,74.35,73.26,71.62,70.39,70.20,70.27,70.29,70.33,70.38,70.39,69.90,69.33,68.77,68.27,67.83,67.62,67.50,67.42,67.41,67.36,67.31,67.27,67.24,67.29,67.42,67.58,67.74,67.74,67.72,67.69,67.70,67.79,67.89,67.86,67.80,67.83,67.81,67.74,67.68,67.63,67.55,67.39,67.20,67.01,66.81,66.68,66.55,66.47,66.53,67.25,70.07,71.74,71.50,70.54,68.63,67.79,67.70,67.63,67.57,67.50,67.44,67.37,67.31,67.20,67.11,66.96,66.58,66.21,66.13,66.17,66.17,66.07,66.01,65.99,65.99,66.02,66.08,66.11,66.12,66.11,66.02,65.94,65.90,65.90,65.90,65.87,65.81,65.76,65.84,65.87,65.86,65.83,65.79,65.77,65.80,65.82,65.81,65.70,65.62,65.56,65.54,65.58,65.55,65.55,65.55,65.52,65.48,65.43,65.39,65.36,65.30,65.30,65.34,65.36,65.31,65.27,65.21,65.17,65.14,65.09,65.03,64.99,64.94,64.89,64.88,64.89,64.90,64.90,64.90,64.90,64.88,64.85,64.84
69.29,69.83,70.75,71.66,72.26,72.79,73.45,74.19,74.97,75.78,76.44,77.01,77.52,77.98,78.26,78.40,78.47,78.53,78.68,78.91,79.15,79.32,79.36,79.24,79.19,79.22,79.31,79.39,79.66,80.01,80.33,80.34,80.34,80.33,80.30,80.20,79.81,79.46,79.30,79.42,79.67,79.84,79.96,80.05,80.12,80.21,80.20,80.12,80.02,80.02,80.06,80.12,80.17,80.18,80.16,80.13,80.11,80.09,80.07,80.05,80.03,80.02,80.02,79.99,79.96,79.93,79.89,79.85,79.84,79.87,79.94,79.97,79.96,79.94,79.92,79.90,79.90,79.90,79.91,79.95,79.97,79.98,79.99,79.99,79.95,79.91,79.88,79.86,79.86,79.86,79.87,79.89,79.91,79.93,79.93,79.94,79.97,79.98,79.94,79.91,79.85,79.65,79.61,79.61,79.60,79.53,79.33,79.24,79.20,79.19,79.22,79.28,79.31,79.30,79.23,78.97,78.71,78.39,78.02,77.75,77.29,76.56,75.67,74.89,73.99,72.66,71.53,71.03,70.63,70.46,70.42,70.44,70.41,69.92,69.33,68.71,68.13,67.77,67.55,67.44,67.41,67.36,67.28,67.22,67.17,67.13,67.13,67.13,67.13,67.12,67.11,67.15,67.16,67.13,67.18,67.28,67.29,67.27,67.34,67.46,67.51,67.51,67.44,67.34,67.13,66.91,66.69,66.49,66.42,66.33,66.27,66.35,67.02,69.49,71.27,71.62,71.02,69.05,67.97,67.66,67.60,67.59,67.53,67.45,67.38,67.34,67.20,67.10,67.05,66.97,66.61,66.50,66.50,66.44,66.28,66.18,66.12,66.12,66.15,66.20,66.25,66.27,66.20,66.07,65.96,65.90,65.89,65.90,65.88,65.83,65.79,65.83,65.85,65.85,65.84,65.81,65.76,65.77,65.79,65.80,65.70,65.61,65.56,65.55,65.57,65.54,65.55,65.53,65.49,65.47,65.43,65.39,65.33,65.25,65.24,65.26,65.27,65.22,65.16,65.10,65.06,65.07,65.03,64.99,64.97,64.95,64.90,64.90,64.90,64.89,64.89,64.90,64.89,64.88,64.88,64.87
69.27,69.69,70.31,70.99,71.59,72.04,72.54,73.11,73.80,74.72,75.46,76.15,76.81,77.45,77.82,77.98,78.04,78.11,78.33,78.67,78.98,79.22,79.40,79.48,79.52,79.52,79.48,79.37,79.59,79.96,80.31,80.31,80.34,80.36,80.36,80.27,79.83,79.42,79.23,79.35,79.55,79.64,79.75,79.92,80.14,80.18,80.13,80.05,80.00,80.00,80.01,80.02,80.03,80.03,80.03,80.03,80.01,79.97,79.94,79.95,79.98,80.00,80.00,80.00,79.97,79.92,79.85,79.82,79.80,79.83,79.88,79.90,79.91,79.91,79.90,79.90,79.90,79.90,79.90,79.91,79.91,79.94,79.98,79.99,79.94,79.87,79.83,79.81,79.81,79.81,79.84,79.90,79.96,79.99,79.99,79.99,80.00,80.00,79.95,79.91,79.84,79.61,79.59,79.63,79.65,79.59,79.40,79.28,79.20,79.17,79.26,79.33,79.37,79.36,79.29,79.08,78.89,78.66,78.38,78.08,77.56,76.91,76.22,75.59,75.18,74.75,74.04,72.87,71.41,70.82,70.61,70.55,70.44,70.00,69.34,68.63,68.06,67.68,67.43,67.29,67.24,67.24,67.15,67.11,67.12,67.17,67.16,67.17,67.15,67.10,67.09,67.10,67.13,67.15,67.13,67.14,67.14,67.15,67.21,67.42,67.43,67.39,67.36,67.20,66.88,66.61,66.42,66.28,66.22,66.19,66.18,66.22,66.69,68.35,70.27,71.69,71.36,69.51,68.21,67.62,67.58,67.59,67.52,67.43,67.36,67.32,67.22,67.11,67.06,67.14,67.09,67.02,66.87,66.64,66.55,66.42,66.32,66.26,66.20,66.21,66.26,66.28,66.23,66.06,65.94,65.88,65.88,65.90,65.91,65.89,65.86,65.86,65.81,65.80,65.80,65.81,65.72,65.71,65.74,65.78,65.71,65.61,65.58,65.58,65.58,65.55,65.54,65.50,65.46,65.46,65.43,65.38,65.31,65.24,65.21,65.22,65.22,65.20,65.12,65.09,65.06,65.03,64.99,64.98,64.97,64.95,64.90,64.90,64.89,64.88,64.88,64.90,64.88,64.85,64.83,64.84
69.54,69.93,70.30,70.64,71.01,71.34,71.77,72.32,73.00,73.80,74.42,75.09,75.79,76.45,76.96,77.36,77.63,77.80,77.94,78.32,78.74,79.12,79.38,79.59,79.79,79.99,80.14,80.14,80.27,80.46,80.62,80.56,80.50,80.47,80.44,80.38,79.96,79.55,79.34,79.39,79.50,79.60,79.76,79.96,80.12,80.12,80.09,80.07,80.09,80.08,80.05,80.03,80.01,80.01,80.02,80.03,80.03,80.01,79.99,79.99,79.99,80.00,79.97,79.95,79.92,79.87,79.81,79.80,79.80,79.82,79.86,79.88,79.88,79.87,79.89,79.90,79.90,79.90,79.90,79.90,79.90,79.92,79.95,79.97,79.95,79.88,79.81,79.76,79.75,79.75,79.78,79.84,79.95,79.99,79.98,79.99,80.02,79.99,79.93,79.89,79.82,79.66,79.66,79.67,79.66,79.59,79.45,79.35,79.28,79.23,79.27,79.31,79.34,79.35,79.30,79.11,78.91,78.70,78.48,78.25,77.79,77.20,76.58,76.05,75.77,75.55,75.17,74.48,73.53,72.93,72.51,72.11,71.47,70.81,69.93,69.03,68.35,67.84,67.58,67.42,67.29,67.27,67.11,67.05,e,e,e,67.13,67.10,67.08,67.04,67.09,67.11,67.10,67.11,67.11,67.12,67.13,67.12,67.33,67.34,67.31,67.28,67.11,66.68,66.39,66.25,66.17,66.16,66.19,66.22,66.27,66.57,67.55,69.52,71.69,71.47,69.92,68.48,67.56,67.44,67.48,67.46,67.42,67.39,67.33,67.22,67.10,67.03,67.08,67.10,67.08,67.00,66.84,66.75,66.63,66.51,66.40,66.25,66.24,66.25,66.26,66.23,66.10,65.98,65.91,65.90,65.96,65.99,65.99,65.99,65.99,65.91,65.81,65.75,65.77,65.71,65.71,65.73,65.75,65.69,65.61,65.59,65.60,65.59,65.57,65.53,65.49,65.45,65.42,65.38,65.33,65.26,65.19,65.17,65.17,65.16,65.14,65.08,65.05,65.04,65.01,64.98,64.97,64.97,64.97,64.94,64.92,64.90,64.88,64.88,64.91,64.90,64.88,64.86,64.86
69.80,70.14,70.31,70.40,70.55,70.78,71.15,71.67,72.30,72.94,73.40,74.01,74.70,75.37,75.98,76.60,77.11,77.44,77.54,77.89,78.38,78.91,79.33,79.67,80.01,80.36,80.69,80.80,80.87,80.90,80.88,80.79,80.67,80.59,80.54,80.48,80.13,79.78,79.57,79.56,79.57,79.67,79.84,80.03,80.11,80.08,80.08,80.12,80.18,80.17,80.12,80.07,80.03,80.01,80.03,80.05,80.06,80.07,80.06,80.03,80.01,79.99,79.95,79.91,79.86,79.81,79.77,79.78,79.79,79.81,79.85,79.87,79.85,79.85,79.88,79.90,79.90,79.90,79.90,79.90,79.90,79.90,79.91,79.94,79.96,79.89,79.80,79.73,79.72,79.73,79.74,79.80,79.94,79.99,79.97,79.98,80.01,79.95,79.90,79.86,79.81,79.72,79.74,79.72,79.66,79.58,79.49,79.41,79.34,79.28,79.26,79.28,79.31,79.32,79.30,79.14,78.93,78.72,78.53,78.35,77.97,77.47,76.94,76.50,76.28,76.12,75.97,75.77,75.44,74.95,74.42,73.77,72.76,71.86,70.78,69.69,68.80,68.15,67.81,67.57,67.36,67.32,67.10,66.99,e,e,e,67.06,67.06,67.05,67.01,67.09,67.11,67.06,67.09,67.08,67.11,67.12,67.06,67.23,67.25,67.22,67.19,67.03,66.53,66.23,66.15,66.14,66.20,66.26,66.31,66.36,66.51,67.00,68.97,71.64,71.54,70.35,68.80,67.55,67.32,67.36,67.39,67.40,67.40,67.33,67.22,67.10,67.00,66.99,67.03,67.06,67.06,66.99,66.90,66.79,66.67,66.54,66.33,66.28,66.25,66.23,66.21,66.13,66.01,65.93,65.92,66.03,66.07,66.09,66.10,66.12,66.01,65.84,65.73,65.74,65.72,65.73,65.73,65.72,65.67,65.63,65.62,65.63,65.61,65.58,65.54,65.50,65.47,65.42,65.37,65.32,65.25,65.17,65.16,65.15,65.14,65.12,65.08,65.07,65.06,65.05,65.03,65.01,65.00,65.00,64.99,64.97,64.93,64.90,64.89,64.93,64.92,64.89,64.86,64.85
69.90,70.06,70.19,70.30,70.40,70.61,70.90,71.28,71.72,72.13,72.46,72.97,73.60,74.25,74.84,75.54,76.25,76.85,77.16,77.33,77.72,78.37,79.22,79.72,80.11,80.41,80.65,80.76,80.85,80.90,80.89,80.84,80.78,80.73,80.67,80.58,80.38,80.19,80.05,79.99,79.95,79.95,80.02,80.11,80.14,80.11,80.14,80.20,80.25,80.25,80.20,80.13,80.06,80.01,80.01,80.04,80.07,80.09,80.09,80.05,80.01,79.98,79.95,79.90,79.83,79.77,79.74,79.77,79.79,79.81,79.83,79.83,79.85,79.87,79.89,79.90,79.90,79.90,79.90,79.90,79.90,79.90,79.90,79.91,79.91,79.86,79.80,79.76,79.77,79.80,79.82,79.86,79.96,79.99,79.98,79.95,79.93,79.86,79.83,79.80,79.78,79.80,79.85,79.79,79.69,79.58,79.51,79.40,79.30,79.23,79.22,79.26,79.31,79.32,79.30,79.19,79.00,78.77,78.54,78.35,78.04,77.69,77.35,77.02,76.86,76.68,76.47,76.25,76.08,75.83,75.49,75.00,74.28,73.25,72.09,70.84,69.57,68.76,68.12,67.66,67.40,67.36,67.17,67.08,e,e,e,e,e,67.01,67.00,67.08,67.12,67.08,67.03,66.98,67.04,67.09,67.02,67.13,67.16,67.14,67.08,66.99,66.52,66.23,66.20,66.28,66.39,66.45,66.47,66.46,66.58,66.98,68.87,71.54,71.54,70.84,69.27,67.74,67.35,67.30,67.31,67.34,67.34,67.30,67.21,67.09,66.98,66.93,66.99,67.02,67.02,66.99,66.92,66.86,66.78,66.68,66.52,66.35,66.24,66.20,66.19,66.10,65.99,65.92,65.95,66.08,66.14,66.16,66.17,66.17,66.05,65.89,65.77,65.78,65.76,65.74,65.74,65.74,65.70,65.69,65.70,65.70,65.65,65.61,65.58,65.57,65.56,65.52,65.47,65.41,65.34,65.23,65.26,65.24,65.22,65.24,65.23,65.23,65.24,65.25,65.26,65.19,65.12,65.08,65.07,65.04,64.99,64.94,64.93,64.95,64.90,64.84,64.77,64.71
69.83,69.94,70.06,70.18,70.27,70.43,70.62,70.81,70.96,71.00,71.20,71.73,72.47,73.25,73.82,74.54,75.31,76.04,76.53,76.76,77.12,77.77,78.81,79.50,79.99,80.35,80.63,80.77,80.86,80.90,80.88,80.82,80.77,80.73,80.69,80.63,80.53,80.40,80.28,80.20,80.13,80.10,80.13,80.18,80.18,80.16,80.22,80.30,80.35,80.35,80.29,80.18,80.06,79.99,80.01,80.05,80.08,80.08,80.09,80.04,79.99,79.95,79.95,79.90,79.82,79.75,79.74,79.78,79.79,79.81,79.83,79.83,79.86,79.88,79.90,79.90,79.90,79.90,79.90,79.90,79.90,79.90,79.89,79.88,79.87,79.85,79.82,79.80,79.84,79.88,79.90,79.91,79.95,79.97,79.94,79.91,79.88,79.85,79.84,79.83,79.84,79.86,79.90,79.84,79.74,79.63,79.54,79.41,79.28,79.19,79.19,79.26,79.31,79.34,79.33,79.20,78.99,78.78,78.59,78.40,78.15,77.91,77.69,77.50,77.39,77.24,77.06,76.88,76.71,76.55,76.33,76.00,75.43,74.41,73.22,71.88,70.43,69.50,68.61,67.91,67.50,67.43,67.29,67.22,e,e,e,e,e,67.07,66.98,67.06,67.11,67.08,66.97,66.93,66.97,67.01,66.97,67.09,67.09,67.05,66.99,66.94,66.56,66.36,66.36,66.40,66.51,66.55,66.53,66.46,66.56,66.86,68.07,70.02,71.44,71.17,69.70,68.03,67.38,67.32,67.31,67.33,67.34,67.30,67.24,67.11,66.97,66.91,66.94,66.94,66.93,66.92,66.90,66.86,66.81,66.75,66.64,66.39,66.25,66.21,66.23,66.16,66.03,65.94,65.95,66.08,66.17,66.21,66.20,66.22,66.13,65.94,65.77,65.75,65.75,65.75,65.75,65.74,65.73,65.71,65.70,65.69,65.64,65.61,65.60,65.60,65.61,65.59,65.54,65.48,65.44,65.40,65.40,65.36,65.34,65.37,65.36,65.35,65.36,65.38,65.37,65.28,65.18,65.12,65.10,65.07,65.01,64.95,64.92,64.93,64.89,64.83,64.75,64.69
69.65,69.79,69.91,70.03,70.14,70.25,70.33,70.29,70.11,69.73,69.82,70.42,71.33,72.29,72.87,73.57,74.34,75.12,75.76,76.17,76.57,77.15,78.24,79.10,79.73,80.21,80.61,80.78,80.86,80.88,80.85,80.78,80.71,80.67,80.65,80.64,80.61,80.50,80.37,80.27,80.20,80.17,80.19,80.22,80.21,80.22,80.30,80.40,80.46,80.46,80.38,80.22,80.05,79.97,80.02,80.07,80.09,80.06,80.07,80.02,79.96,79.93,79.95,79.90,79.82,79.75,79.76,79.79,79.80,79.81,79.82,79.84,79.87,79.89,79.90,79.90,79.90,79.90,79.90,79.90,79.90,79.90,79.88,79.85,79.83,79.85,79.84,79.84,79.92,79.96,79.97,79.96,79.94,79.93,79.88,79.86,79.86,79.88,79.88,79.90,79.92,79.91,79.91,79.87,79.79,79.70,79.57,79.42,79.27,79.16,79.18,79.25,79.32,79.37,79.37,79.20,78.95,78.76,78.66,78.46,78.27,78.10,77.99,77.93,77.87,77.77,77.67,77.57,77.33,77.18,77.06,76.86,76.37,75.44,74.25,72.85,71.34,70.31,69.21,68.27,67.65,67.52,67.42,67.38,e,e,e,e,e,67.15,66.96,67.03,67.09,67.06,66.92,66.90,66.90,66.91,66.91,67.05,67.04,66.97,66.91,66.89,66.63,66.54,66.57,66.51,66.58,66.60,66.54,66.43,66.51,66.69,66.97,67.93,71.28,71.42,70.09,68.38,67.40,67.39,67.35,67.34,67.38,67.31,67.28,67.15,66.97,66.90,66.89,66.85,66.81,66.83,66.87,66.83,66.80,66.79,66.72,66.41,66.25,66.24,66.30,66.25,66.10,65.97,65.94,66.04,66.18,66.22,66.20,66.26,66.20,65.97,65.75,65.71,65.73,65.76,65.76,65.74,65.77,65.71,65.66,65.63,65.61,65.60,65.60,65.61,65.63,65.64,65.58,65.54,65.53,65.59,65.55,65.49,65.46,65.50,65.48,65.45,65.45,65.47,65.42,65.32,65.21,65.14,65.10,65.07,65.00,64.94,64.89,64.89,64.88,64.83,64.77,64.73
69.47,69.58,69.68,69.77,69.85,70.06,70.01,69.74,69.32,68.92,68.94,69.40,70.23,71.30,72.03,72.80,73.60,74.39,75.05,75.52,76.02,76.64,77.51,78.31,79.07,79.78,80.39,80.64,80.72,80.75,80.77,80.76,80.71,80.65,80.58,80.50,80.48,80.44,80.37,80.28,80.22,80.18,80.17,80.20,80.24,80.30,80.39,80.47,80.51,80.51,80.44,80.32,80.18,80.11,80.10,80.10,80.09,80.05,80.03,80.01,79.98,79.96,79.95,79.91,79.85,79.80,79.79,79.80,79.82,79.83,79.80,79.83,79.87,79.90,79.90,79.90,79.90,79.90,79.89,79.86,79.84,79.86,79.88,79.88,79.84,79.82,79.83,79.87,79.95,79.98,79.97,79.94,79.91,79.91,79.89,79.88,79.89,79.89,79.86,79.87,79.90,79.90,79.86,79.83,79.80,79.76,79.63,79.45,79.27,79.15,79.18,79.21,79.26,79.32,79.37,79.20,78.97,78.79,78.68,78.47,78.33,78.22,78.14,78.12,78.09,78.04,77.99,77.99,77.91,77.90,77.73,77.38,76.95,76.09,75.01,73.72,72.27,71.09,70.01,68.96,68.02,67.69,67.50,67.36,67.24,67.20,67.19,67.14,67.08,67.05,66.93,66.98,67.01,66.96,66.91,66.90,66.90,66.89,66.89,66.95,66.95,66.92,66.88,66.84,66.73,66.65,66.59,66.57,66.59,66.63,66.63,66.55,66.57,66.64,66.86,67.83,71.22,71.39,70.36,68.83,67.47,67.42,67.38,67.36,67.36,67.36,67.31,67.16,66.98,66.88,66.88,66.87,66.87,66.87,66.89,66.87,66.85,66.83,66.73,66.44,66.28,66.24,66.28,66.25,66.16,66.04,65.96,65.99,66.04,66.03,65.99,65.96,65.88,65.80,65.75,65.76,65.82,65.83,65.81,65.80,65.82,65.79,65.77,65.74,65.67,65.62,65.60,65.59,65.58,65.58,65.53,65.51,65.52,65.56,65.52,65.47,65.45,65.47,65.48,65.46,65.44,65.43,65.42,65.32,65.21,65.11,65.07,65.05,65.00,64.94,64.88,64.88,64.88,64.85,64.81,64.78
69.29,69.29,69.32,69.36,69.41,69.69,69.72,69.46,68.96,68.52,68.48,68.74,69.28,70.09,70.93,71.87,72.78,73.59,74.30,74.87,75.48,76.17,76.98,77.75,78.53,79.30,80.02,80.43,80.62,80.71,80.75,80.77,80.74,80.66,80.56,80.44,80.42,80.41,80.37,80.28,80.22,80.19,80.20,80.26,80.33,80.39,80.45,80.51,80.54,80.54,80.48,80.39,80.27,80.20,80.17,80.15,80.13,80.07,80.02,79.99,79.97,79.96,79.94,79.90,79.87,79.84,79.83,79.83,79.85,79.85,79.81,79.84,79.88,79.90,79.90,79.90,79.91,79.91,79.90,79.86,79.85,79.86,79.89,79.89,79.84,79.81,79.83,79.89,79.95,79.97,79.94,79.91,79.90,79.90,79.90,79.90,79.90,79.90,79.86,79.85,79.86,79.85,79.82,79.81,79.81,79.79,79.66,79.47,79.28,79.15,79.15,79.18,79.21,79.26,79.34,79.20,78.98,78.80,78.68,78.48,78.39,78.33,78.29,78.28,78.28,78.26,78.25,78.30,78.30,78.34,78.19,77.84,77.48,76.73,75.73,74.53,73.17,71.91,70.73,69.61,68.60,68.06,67.76,67.54,67.39,67.28,67.23,67.15,67.05,66.97,66.92,66.96,66.95,66.90,66.90,66.87,66.86,66.86,66.87,66.89,66.90,66.89,66.85,66.82,66.78,66.69,66.60,66.61,66.60,66.65,66.67,66.63,66.62,66.64,66.82,67.76,71.08,71.36,70.67,69.35,67.61,67.49,67.46,67.44,67.39,67.40,67.35,67.20,67.01,66.87,66.86,66.87,66.89,66.88,66.88,66.87,66.86,66.84,66.73,66.49,66.31,66.22,66.21,66.19,66.13,66.04,65.95,65.94,65.92,65.89,65.86,65.80,65.72,65.73,65.78,65.84,65.93,65.93,65.90,65.89,65.89,65.87,65.85,65.80,65.70,65.62,65.58,65.56,65.54,65.53,65.50,65.49,65.49,65.50,65.46,65.43,65.41,65.42,65.44,65.43,65.42,65.43,65.44,65.34,65.21,65.10,65.06,65.03,64.98,64.93,64.88,64.87,64.86,64.85,64.82,64.80
69.12,68.92,68.81,68.78,68.81,69.13,69.47,69.46,69.06,68.57,68.46,68.45,68.51,68.65,69.57,70.78,71.90,72.71,73.51,74.23,74.94,75.72,76.68,77.46,78.12,78.76,79.48,80.17,80.57,80.76,80.80,80.83,80.81,80.71,80.57,80.46,80.46,80.43,80.35,80.25,80.22,80.21,80.28,80.41,80.51,80.50,80.50,80.51,80.55,80.55,80.49,80.41,80.33,80.25,80.22,80.23,80.23,80.13,80.02,79.96,79.93,79.91,79.91,79.87,79.86,79.86,79.88,79.88,79.89,79.89,79.85,79.86,79.89,79.90,79.90,79.91,79.92,79.92,79.92,79.91,79.91,79.90,79.90,79.89,79.84,79.81,79.84,79.91,79.92,79.91,79.89,79.87,79.90,79.91,79.90,79.90,79.90,79.90,79.88,79.84,79.79,79.75,79.78,79.80,79.82,79.80,79.66,79.48,79.30,79.15,79.09,79.15,79.16,79.18,79.28,79.22,78.99,78.78,78.67,78.50,78.45,78.42,78.41,78.41,78.43,78.43,78.44,78.50,78.48,78.47,78.40,78.24,77.95,77.34,76.43,75.28,74.04,72.75,71.36,70.21,69.40,68.66,68.22,67.93,67.70,67.46,67.30,67.16,67.04,66.94,66.94,66.95,66.94,66.90,66.90,66.82,66.80,66.82,66.84,66.89,66.90,66.87,66.81,66.83,66.75,66.66,66.61,66.64,66.61,66.63,66.66,66.66,66.65,66.68,66.86,67.74,70.86,71.33,71.04,69.95,67.82,67.61,67.59,67.57,67.47,67.44,67.39,67.27,67.08,66.85,66.82,66.84,66.85,66.85,66.85,66.83,66.82,66.82,66.73,66.58,66.36,66.16,66.09,66.06,66.01,65.96,65.90,65.88,65.82,65.82,65.84,65.79,65.74,65.78,65.86,65.95,66.05,66.06,66.04,66.02,65.99,65.96,65.89,65.80,65.70,65.61,65.56,65.52,65.50,65.50,65.49,65.48,65.45,65.42,65.38,65.34,65.33,65.34,65.36,65.37,65.40,65.46,65.50,65.38,65.22,65.10,65.07,65.02,64.96,64.92,64.90,64.87,64.84,64.82,64.80,64.80
69.04,68.82,68.72,68.67,68.66,68.80,68.96,68.94,68.75,68.52,68.45,68.44,68.44,68.45,68.84,69.64,70.67,71.76,72.63,73.53,74.41,75.28,76.18,77.00,77.70,78.35,79.03,79.84,80.37,80.63,80.68,80.69,80.75,80.72,80.65,80.60,80.59,80.49,80.35,80.25,80.28,80.29,80.34,80.42,80.49,80.50,80.50,80.51,80.55,80.55,80.49,80.43,80.37,80.29,80.26,80.27,80.26,80.13,80.00,79.92,79.88,79.87,79.89,79.87,79.86,79.88,79.87,79.87,79.87,79.89,79.92,79.93,79.92,79.91,79.92,79.96,79.98,79.98,79.97,79.96,79.93,79.91,79.89,79.88,79.83,79.81,79.82,79.86,79.91,79.91,79.90,79.91,79.93,79.92,79.91,79.90,79.90,79.90,79.87,79.81,79.75,79.72,79.78,79.83,79.85,79.82,79.68,79.50,79.33,79.17,79.06,79.12,79.15,79.19,79.25,79.27,79.08,78.84,78.65,78.48,78.45,78.47,78.49,78.50,78.52,78.54,78.57,78.60,78.60,78.56,78.47,78.34,78.13,77.70,76.91,75.83,74.57,73.40,71.96,70.72,69.86,69.19,68.90,68.65,68.37,68.06,67.77,67.49,67.24,67.03,66.96,66.93,66.92,66.90,66.90,66.82,66.79,66.81,66.84,66.89,66.90,66.85,66.77,66.80,66.73,66.67,66.65,66.67,66.64,66.63,66.64,66.66,66.65,66.68,66.83,67.42,69.38,70.87,71.21,70.30,68.21,67.69,67.56,67.55,67.49,67.47,67.41,67.32,67.17,66.88,66.82,66.81,66.81,66.79,66.80,66.76,66.74,66.76,66.71,66.59,66.36,66.11,65.99,65.96,65.93,65.91,65.93,65.90,65.88,65.88,65.86,65.81,65.77,65.78,65.85,65.98,66.11,66.13,66.09,66.05,66.00,65.98,65.91,65.82,65.72,65.61,65.54,65.51,65.50,65.50,65.49,65.45,65.40,65.36,65.34,65.32,65.31,65.31,65.34,65.36,65.40,65.46,65.49,65.38,65.24,65.12,65.07,65.01,64.94,64.91,64.90,64.89,64.85,64.82,64.80,64.80
68.97,68.77,68.68,68.63,68.60,68.58,68.56,68.53,68.50,68.48,68.46,68.45,68.45,68.43,68.39,68.78,69.66,70.93,71.88,72.90,73.88,74.80,75.63,76.47,77.22,77.91,78.59,79.46,80.07,80.40,80.51,80.56,80.70,80.73,80.71,80.73,80.72,80.58,80.41,80.32,80.36,80.37,80.38,80.41,80.45,80.49,80.51,80.52,80.56,80.56,80.50,80.45,80.42,80.34,80.29,80.27,80.24,80.11,79.97,79.88,79.83,79.84,79.87,79.87,79.88,79.89,79.87,79.86,79.86,79.89,79.96,79.98,79.94,79.92,79.94,80.00,80.04,80.03,80.01,80.00,79.95,79.91,79.89,79.86,79.82,79.81,79.81,79.83,79.90,79.91,79.92,79.94,79.95,79.92,79.91,79.90,79.90,79.90,79.85,79.78,79.72,79.71,79.80,79.87,79.90,79.86,79.70,79.53,79.36,79.19,79.06,79.12,79.17,79.20,79.24,79.30,79.16,78.93,78.68,78.49,78.46,78.50,78.55,78.56,78.59,78.64,78.67,78.68,78.70,78.61,78.51,78.39,78.23,77.95,77.31,76.31,75.05,74.01,72.65,71.40,70.48,69.83,69.66,69.46,69.16,68.79,68.35,67.97,67.63,67.30,67.05,66.94,66.90,66.89,66.90,66.83,66.80,66.81,66.85,66.88,66.89,66.85,66.75,66.76,66.71,66.68,66.68,66.70,66.68,66.64,66.63,66.67,66.65,66.70,66.81,67.12,68.03,70.42,71.30,70.57,68.67,67.76,67.52,67.51,67.48,67.47,67.42,67.34,67.19,66.90,66.81,66.78,66.77,66.75,66.78,66.71,66.69,66.71,66.69,66.60,66.37,66.10,65.93,65.90,65.87,65.89,65.94,65.91,65.93,65.92,65.88,65.82,65.79,65.77,65.83,65.99,66.14,66.17,66.13,66.06,66.01,65.98,65.94,65.87,65.76,65.62,65.54,65.50,65.50,65.49,65.47,65.43,65.37,65.32,65.31,65.29,65.29,65.29,65.31,65.35,65.39,65.42,65.46,65.38,65.27,65.16,65.09,65.01,64.94,64.91,64.90,64.90,64.87,64.84,64.82,64.81
68.89,68.75,68.66,68.61,68.59,68.56,68.53,68.51,68.50,68.49,68.48,68.47,68.46,68.46,68.40,68.64,69.31,70.38,71.45,72.45,73.37,74.23,75.03,75.82,76.58,77.34,78.11,78.95,79.59,80.01,80.26,80.50,80.70,80.76,80.75,80.80,80.82,80.73,80.61,80.51,80.48,80.44,80.41,80.41,80.45,80.50,80.53,80.55,80.57,80.57,80.52,80.49,80.48,80.41,80.30,80.22,80.15,80.06,79.95,79.85,79.80,79.80,79.84,79.87,79.89,79.90,79.89,79.88,79.87,79.88,79.94,79.98,79.96,79.94,79.97,80.04,80.08,80.06,80.03,80.00,79.95,79.91,79.88,79.83,79.81,79.82,79.84,79.87,79.91,79.91,79.91,79.91,79.91,79.91,79.90,79.90,79.90,79.90,79.83,79.76,79.73,79.76,79.87,79.93,79.95,79.93,79.76,79.56,79.38,79.25,79.15,79.19,79.21,79.21,79.21,79.23,79.18,79.05,78.85,78.58,78.52,78.54,78.58,78.59,78.64,78.68,78.72,78.75,78.76,78.58,78.46,78.42,78.24,78.03,77.54,76.69,75.48,74.57,73.56,72.55,71.59,70.77,70.56,70.38,70.09,69.67,69.08,68.71,68.40,67.97,67.29,67.00,66.88,66.85,66.90,66.84,66.81,66.82,66.88,66.84,66.87,66.86,66.77,66.72,66.66,66.66,66.70,66.70,66.69,66.68,66.68,66.69,66.69,66.75,66.83,66.99,67.38,70.16,71.26,70.71,69.24,67.82,67.47,67.47,67.43,67.42,67.39,67.27,67.08,66.89,66.76,66.73,66.75,66.79,66.78,66.73,66.70,66.70,66.70,66.64,66.43,66.16,65.97,65.91,65.89,65.90,65.91,65.90,65.91,65.90,65.87,65.81,65.79,65.77,65.81,65.97,66.11,66.16,66.14,66.07,66.01,66.00,65.99,65.96,65.89,65.69,65.56,65.50,65.49,65.47,65.45,65.44,65.43,65.35,65.30,65.26,65.25,65.27,65.26,65.29,65.33,65.35,65.40,65.38,65.31,65.22,65.14,65.06,64.99,64.93,64.90,64.90,64.89,64.88,64.87,64.85
68.76,68.69,68.63,68.60,68.59,68.55,68.52,68.50,68.50,68.50,68.49,68.48,68.47,68.45,68.37,68.58,69.20,70.20,71.16,72.04,72.84,73.59,74.32,75.07,75.81,76.55,77.33,78.21,78.91,79.48,79.94,80.37,80.57,80.67,80.73,80.82,80.85,80.80,80.72,80.65,80.58,80.51,80.45,80.42,80.45,80.52,80.56,80.57,80.57,80.57,80.53,80.50,80.49,80.46,80.35,80.25,80.16,80.08,79.94,79.82,79.76,79.78,79.84,79.89,79.92,79.92,79.92,79.92,79.92,79.92,79.95,79.98,79.97,79.97,79.98,80.05,80.09,80.07,80.03,79.97,79.93,79.89,79.86,79.84,79.84,79.86,79.88,79.92,79.94,79.93,79.91,79.90,79.90,79.90,79.90,79.90,79.90,79.87,79.81,79.78,79.79,79.83,79.92,79.95,79.96,79.96,79.79,79.59,79.45,79.35,79.28,79.30,79.25,79.18,79.16,79.19,79.21,79.17,79.04,78.69,78.56,78.55,78.58,78.57,78.61,78.67,78.73,78.77,78.72,78.54,78.48,78.51,78.34,78.13,77.69,76.94,75.88,75.07,74.22,73.40,72.66,71.98,71.65,71.39,71.07,70.57,70.01,69.57,69.17,68.76,68.14,67.61,67.17,66.87,66.87,66.86,66.83,66.83,66.89,66.86,66.86,66.82,66.74,66.63,66.64,66.67,66.70,66.70,66.70,66.70,66.71,66.73,66.71,66.76,66.84,66.94,67.16,69.99,71.19,70.86,69.76,67.95,67.42,67.34,67.25,67.22,67.18,67.09,66.96,66.84,66.74,66.72,66.75,66.80,66.78,66.76,66.72,66.69,66.67,66.65,66.51,66.27,65.96,65.91,65.90,65.90,65.90,65.88,65.87,65.85,65.84,65.80,65.78,65.76,65.81,65.97,66.12,66.17,66.15,66.11,66.08,66.08,66.08,66.06,65.99,65.77,65.60,65.50,65.45,65.43,65.41,65.40,65.38,65.32,65.28,65.25,65.23,65.24,65.24,65.26,65.28,65.29,65.35,65.37,65.33,65.25,65.12,65.04,64.98,64.93,64.90,64.90,64.90,64.90,64.89,64.87
68.60,68.60,68.60,68.59,68.58,68.55,68.51,68.50,68.50,68.50,68.50,68.49,68.48,68.42,68.31,68.55,69.17,70.13,70.89,71.60,72.27,72.91,73.55,74.28,74.98,75.68,76.42,77.36,78.14,78.86,79.54,80.13,80.35,80.51,80.67,80.81,80.86,80.83,80.79,80.76,80.69,80.59,80.50,80.45,80.46,80.53,80.58,80.59,80.56,80.56,80.53,80.49,80.47,80.49,80.41,80.31,80.21,80.13,79.93,79.78,79.72,79.78,79.85,79.92,79.95,79.95,79.96,79.98,79.99,79.98,79.98,79.99,79.99,79.99,80.00,80.05,80.08,80.07,80.01,79.94,79.91,79.87,79.85,79.87,79.89,79.90,79.93,79.97,79.99,79.95,79.92,79.90,79.90,79.90,79.90,79.90,79.89,79.84,79.82,79.83,79.87,79.90,79.95,79.95,79.95,79.96,79.80,79.63,79.53,79.48,79.42,79.41,79.29,79.15,79.10,79.16,79.24,79.29,79.23,78.79,78.59,78.54,78.56,78.52,78.56,78.63,78.71,78.78,78.66,78.51,78.53,78.63,78.46,78.23,77.80,77.13,76.27,75.56,74.77,74.12,73.68,73.24,72.80,72.43,72.07,71.53,71.09,70.53,70.02,69.66,69.27,68.48,67.62,66.94,66.84,66.88,66.86,66.84,66.90,66.91,66.85,66.77,66.69,66.54,66.64,66.70,66.70,66.70,66.70,66.71,66.74,66.77,66.73,66.77,66.83,66.92,67.12,69.76,71.05,71.01,70.25,68.14,67.38,67.18,67.04,66.98,66.92,66.88,66.84,66.77,66.73,66.73,66.75,66.80,66.78,66.78,66.75,66.68,66.64,66.66,66.60,66.38,65.95,65.91,65.90,65.90,65.89,65.86,65.82,65.80,65.79,65.79,65.76,65.75,65.81,65.98,66.15,66.18,66.17,66.17,66.17,66.17,66.17,66.15,66.08,65.85,65.65,65.49,65.40,65.39,65.37,65.34,65.31,65.28,65.27,65.25,65.22,65.22,65.24,65.25,65.25,65.26,65.32,65.37,65.35,65.25,65.07,64.98,64.95,64.93,64.90,64.90,64.91,64.91,64.91,64.89
68.47,68.46,68.50,68.54,68.53,68.52,68.51,68.50,68.50,68.48,68.45,68.44,68.43,68.39,68.31,68.46,68.87,69.54,70.21,70.86,71.49,72.09,72.71,73.43,74.11,74.77,75.48,76.47,77.31,78.05,78.72,79.35,79.83,80.22,80.52,80.73,80.83,80.88,80.89,80.88,80.81,80.70,80.61,80.55,80.55,80.58,80.57,80.56,80.55,80.55,80.52,80.47,80.41,80.40,80.37,80.30,80.21,80.09,79.87,79.71,79.67,79.75,79.84,79.92,79.97,79.99,80.02,80.05,80.04,80.01,79.99,80.00,79.99,79.99,79.99,80.01,80.02,80.02,79.99,79.93,79.91,79.89,79.89,79.90,79.94,79.96,79.98,79.99,80.00,79.98,79.97,79.95,79.92,79.90,79.88,79.87,79.89,79.88,79.87,79.88,79.89,79.90,79.95,79.97,79.97,79.92,79.79,79.67,79.60,79.57,79.50,79.45,79.31,79.17,79.12,79.17,79.24,79.29,79.24,78.81,78.59,78.51,78.50,78.46,78.50,78.60,78.70,78.76,78.70,78.58,78.58,78.65,78.53,78.31,77.95,77.42,76.72,76.07,75.41,74.82,74.37,74.04,73.70,73.41,73.16,72.90,72.59,72.05,71.49,71.06,70.59,69.54,68.25,67.14,66.95,66.92,66.90,66.88,66.90,66.92,66.87,66.80,66.75,66.59,66.64,66.68,66.68,66.70,66.70,66.74,66.76,66.73,66.74,66.78,66.81,66.85,66.98,68.81,70.36,71.08,70.61,68.62,67.58,67.12,66.99,66.93,66.89,66.84,66.79,66.70,66.71,66.74,66.75,66.76,66.74,66.75,66.74,66.69,66.68,66.68,66.63,66.44,66.02,65.90,65.88,65.88,65.86,65.85,65.81,65.78,65.76,65.76,65.73,65.73,65.79,65.96,66.15,66.17,66.16,66.16,66.15,66.13,66.12,66.13,66.11,65.93,65.68,65.48,65.40,65.39,65.36,65.33,65.31,65.32,65.35,65.33,65.30,65.30,65.34,65.37,65.40,65.42,65.45,65.44,65.36,65.23,65.02,64.96,64.95,64.92,64.87,64.90,64.91,64.92,64.93,64.91
68.37,68.36,68.41,68.46,68.48,68.49,68.48,68.47,68.46,68.43,68.39,68.37,68.37,68.33,68.31,68.38,68.59,68.98,69.49,70.08,70.68,71.28,71.88,72.59,73.23,73.86,74.54,75.59,76.50,77.25,77.84,78.37,79.01,79.63,80.12,80.36,80.51,80.66,80.78,80.85,80.84,80.77,80.70,80.66,80.66,80.64,80.60,80.56,80.55,80.53,80.50,80.44,80.37,80.31,80.28,80.24,80.15,79.98,79.76,79.66,79.67,79.77,79.87,79.94,79.99,80.02,80.06,80.08,80.07,80.04,80.01,80.00,79.98,79.97,79.96,79.96,79.97,79.97,79.96,79.93,79.91,79.92,79.94,79.95,79.97,79.99,80.00,80.00,80.00,79.98,79.96,79.94,79.91,79.90,79.88,79.88,79.92,79.92,79.91,79.90,79.90,79.90,79.93,79.96,79.97,79.92,79.81,79.72,79.67,79.63,79.57,79.49,79.36,79.23,79.17,79.19,79.25,79.31,79.29,78.92,78.63,78.48,78.44,78.43,78.49,78.59,78.68,78.72,78.70,78.62,78.61,78.67,78.59,78.41,78.12,77.71,77.16,76.61,76.08,75.61,75.22,74.99,74.68,74.42,74.23,74.08,73.80,73.25,72.65,72.16,71.58,70.37,68.84,67.42,67.00,66.96,66.94,66.92,66.92,66.91,66.87,66.82,66.78,66.62,66.63,66.66,66.69,66.70,66.70,66.74,66.76,66.70,66.75,66.78,66.79,66.80,66.88,67.99,69.74,71.05,70.66,68.94,67.82,67.22,67.03,66.91,66.85,66.80,66.74,66.64,66.67,66.70,66.73,66.73,66.71,66.74,66.74,66.72,66.70,66.69,66.59,66.37,66.02,65.90,65.88,65.87,65.84,65.83,65.80,65.76,65.73,65.73,65.71,65.71,65.78,65.93,66.15,66.18,66.17,66.16,66.15,66.12,66.11,66.12,66.15,66.01,65.74,65.53,65.46,65.49,65.52,65.52,65.52,65.54,65.57,65.56,65.54,65.55,65.58,65.61,65.65,65.68,65.70,65.61,65.44,65.26,65.13,65.15,65.16,65.10,64.97,64.92,64.91,64.92,64.92,64.91
68.31,68.31,68.32,68.36,68.43,68.45,68.42,68.41,68.40,68.35,68.31,68.30,68.30,68.24,68.29,68.31,68.34,68.44,68.74,69.26,69.85,70.46,71.07,71.74,72.36,72.95,73.61,74.74,75.73,76.46,76.90,77.20,77.90,78.75,79.46,79.70,79.90,80.19,80.47,80.66,80.79,80.79,80.78,80.77,80.78,80.72,80.65,80.58,80.54,80.49,80.45,80.40,80.33,80.24,80.16,80.11,80.02,79.78,79.60,79.63,79.73,79.84,79.94,79.98,80.01,80.03,80.06,80.07,80.07,80.06,80.03,80.01,79.97,79.93,79.90,79.90,79.92,79.93,79.93,79.93,79.91,79.95,79.99,80.00,80.00,80.00,80.00,80.00,80.00,79.95,79.90,79.86,79.88,79.90,79.90,79.92,79.96,79.96,79.92,79.91,79.90,79.90,79.90,79.92,79.94,79.94,79.88,79.80,79.74,79.69,79.62,79.54,79.44,79.34,79.26,79.24,79.28,79.36,79.38,79.09,78.69,78.45,78.38,78.44,78.51,78.59,78.65,78.66,78.65,78.62,78.64,78.68,78.66,78.55,78.32,78.00,77.61,77.18,76.79,76.48,76.24,76.08,75.74,75.48,75.30,75.08,74.72,74.14,73.52,72.97,72.25,70.99,69.38,67.78,67.01,66.98,66.98,66.96,66.95,66.88,66.85,66.83,66.78,66.62,66.60,66.65,66.71,66.70,66.70,66.72,66.73,66.70,66.75,66.78,66.78,66.76,66.82,67.30,69.19,70.91,70.40,69.10,68.11,67.47,67.16,66.93,66.83,66.76,66.70,66.61,66.61,66.63,66.66,66.70,66.71,66.75,66.76,66.75,66.70,66.67,66.47,66.18,65.95,65.89,65.88,65.86,65.81,65.82,65.79,65.75,65.70,65.70,65.70,65.71,65.77,65.91,66.15,66.20,66.20,66.19,66.18,66.12,66.11,66.14,66.20,66.09,65.85,65.63,65.57,65.68,65.83,65.91,65.91,65.93,65.94,65.95,65.96,65.98,65.97,65.97,65.99,66.03,66.06,65.88,65.58,65.34,65.40,65.55,65.59,65.46,65.19,64.98,64.92,64.90,64.90,64.87
68.33,68.29,68.29,68.31,68.34,68.36,68.39,68.40,68.39,68.35,68.30,68.26,68.24,68.23,68.29,68.30,68.31,68.34,68.46,68.75,69.16,69.68,70.24,70.91,71.49,72.03,72.65,73.95,75.19,76.08,76.53,76.66,77.06,77.57,77.99,78.06,78.25,78.65,79.15,79.71,80.33,80.66,80.79,80.81,80.80,80.72,80.65,80.59,80.56,80.49,80.43,80.32,80.14,79.92,79.76,79.68,79.64,79.60,79.61,79.69,79.80,79.88,79.93,79.96,79.97,79.97,79.98,80.00,80.01,80.02,80.01,80.00,79.95,79.91,79.89,79.91,79.93,79.94,79.94,79.94,79.92,79.94,79.98,80.02,80.01,80.00,79.99,79.98,79.99,79.95,79.90,79.88,79.89,79.90,79.90,79.93,79.97,80.00,79.97,79.94,79.91,79.90,79.92,79.91,79.91,79.92,79.90,79.83,79.77,79.70,79.63,79.59,79.52,79.41,79.31,79.28,79.34,79.42,79.48,79.33,78.79,78.43,78.31,78.36,78.45,78.53,78.58,78.62,78.65,78.61,78.60,78.64,78.64,78.62,78.46,78.19,77.89,77.60,77.35,77.14,76.96,76.86,76.60,76.37,76.15,75.86,75.32,74.68,73.99,73.27,72.40,71.30,69.78,68.09,67.08,67.00,66.99,66.97,66.94,66.93,66.87,66.83,66.82,66.63,66.54,66.60,66.73,66.75,66.75,66.73,66.73,66.75,66.78,66.79,66.79,66.77,66.81,67.01,68.03,69.00,68.79,68.20,67.70,67.34,67.12,66.93,66.86,66.80,66.72,66.60,66.57,66.62,66.68,66.71,66.74,66.70,66.66,66.60,66.54,66.47,66.26,66.06,66.05,66.05,65.93,65.83,65.80,65.81,65.79,65.75,65.70,65.71,65.74,65.74,65.79,65.96,66.19,66.22,66.20,66.20,66.18,66.13,66.14,66.18,66.20,66.16,66.05,65.96,65.94,65.99,66.06,66.08,66.07,66.04,66.05,66.05,66.05,66.07,66.06,66.07,66.11,66.16,66.19,65.96,65.62,65.36,65.45,65.59,65.67,65.61,65.37,65.00,64.88,64.85,64.87,64.86
68.36,68.30,68.27,68.27,68.27,68.29,68.35,68.38,68.37,68.34,68.29,68.23,68.21,68.23,68.28,68.30,68.30,68.30,68.30,68.39,68.63,69.01,69.47,70.09,70.62,71.14,71.77,73.21,74.56,75.50,75.94,76.02,76.19,76.44,76.64,76.65,76.85,77.28,77.88,78.62,79.53,80.08,80.33,80.38,80.40,80.33,80.29,80.27,80.26,80.21,80.16,80.03,79.82,79.57,79.45,79.41,79.45,79.56,79.67,79.77,79.84,79.90,79.92,79.93,79.93,79.92,79.92,79.94,79.95,79.97,79.98,79.98,79.93,79.89,79.87,79.92,79.93,79.94,79.93,79.93,79.92,79.93,79.98,80.03,80.03,80.01,79.98,79.95,79.96,79.93,79.91,79.91,79.91,79.91,79.90,79.92,79.97,80.03,80.02,79.98,79.94,79.93,79.93,79.90,79.89,79.92,79.91,79.86,79.80,79.72,79.64,79.65,79.60,79.50,79.36,79.34,79.40,79.48,79.54,79.51,78.93,78.46,78.24,78.28,78.37,78.44,78.50,78.56,78.60,78.57,78.56,78.61,78.62,78.65,78.52,78.31,78.10,77.92,77.77,77.63,77.48,77.40,77.20,77.00,76.76,76.43,75.80,75.10,74.31,73.42,72.45,71.55,70.16,68.40,67.16,67.02,66.99,66.96,66.92,66.95,66.87,66.82,66.83,66.61,66.47,66.53,66.69,66.72,66.73,66.69,66.69,66.74,66.76,66.75,66.74,66.73,66.74,66.77,67.06,67.39,67.45,67.44,67.35,67.23,67.10,66.95,66.90,66.84,66.74,66.61,66.56,66.62,66.69,66.69,66.73,66.64,66.54,66.44,66.35,66.27,66.13,66.05,66.18,66.22,66.00,65.81,65.80,65.80,65.79,65.76,65.72,65.73,65.77,65.77,65.81,65.97,66.19,66.22,66.20,66.20,66.18,66.14,66.15,66.18,66.19,66.19,66.20,66.20,66.20,66.20,66.20,66.19,66.16,66.10,66.10,66.10,66.10,66.10,66.10,66.11,66.15,66.20,66.22,65.98,65.62,65.37,65.48,65.61,65.72,65.70,65.50,65.00,64.85,64.82,64.85,64.86
68.40,68.32,68.28,68.26,68.25,68.25,68.31,68.35,68.33,68.29,68.24,68.21,68.20,68.21,68.26,68.29,68.30,68.30,68.30,68.32,68.39,68.55,68.81,69.30,69.77,70.29,71.02,72.55,73.70,74.43,74.80,75.02,75.23,75.47,75.71,75.94,76.19,76.50,76.89,77.41,78.10,78.58,78.86,78.99,79.09,79.11,79.15,79.21,79.28,79.31,79.34,79.33,79.29,79.22,79.36,79.55,79.73,79.83,79.83,79.84,79.86,79.90,79.90,79.91,79.91,79.90,79.91,79.91,79.92,79.93,79.93,79.93,79.89,79.85,79.83,79.88,79.91,79.91,79.91,79.91,79.90,79.93,79.98,80.05,80.04,80.01,79.97,79.93,79.88,79.89,79.92,79.96,79.97,79.93,79.91,79.91,79.94,80.04,80.06,80.04,80.00,80.02,79.89,79.88,79.92,79.96,79.93,79.89,79.84,79.78,79.70,79.73,79.71,79.61,79.44,79.43,79.46,79.50,79.52,79.56,79.13,78.60,78.19,78.19,78.24,78.30,78.37,78.44,78.46,78.49,78.53,78.59,78.60,78.57,78.45,78.30,78.18,78.09,77.95,77.80,77.65,77.51,77.30,77.11,76.90,76.59,76.05,75.33,74.41,73.34,72.39,71.77,70.54,68.71,67.22,67.03,66.96,66.91,66.90,66.91,66.85,66.81,66.78,66.55,66.40,66.42,66.55,66.56,66.56,66.55,66.57,66.62,66.63,66.58,66.55,66.56,66.55,66.56,66.63,66.77,66.96,67.19,67.27,67.25,67.16,67.01,66.93,66.86,66.77,66.68,66.62,66.64,66.67,66.62,66.62,66.54,66.42,66.28,66.16,66.13,66.17,66.27,66.38,66.36,66.05,65.81,65.80,65.80,65.80,65.79,65.78,65.78,65.79,65.79,65.82,65.89,66.09,66.18,66.21,66.21,66.18,66.14,66.13,66.14,66.15,66.18,66.19,66.20,66.20,66.21,66.21,66.20,66.16,66.10,66.10,66.10,66.10,66.10,66.10,66.10,66.10,66.11,66.10,65.88,65.58,65.38,65.51,65.62,65.73,65.71,65.48,64.98,64.86,64.85,64.86,64.87
68.37,68.33,68.31,68.29,68.25,68.23,68.26,68.28,68.27,68.25,68.21,68.20,68.20,68.21,68.24,68.28,68.30,68.32,68.34,68.33,68.33,68.37,68.48,68.75,69.14,69.77,70.79,72.22,73.09,73.65,74.03,74.35,74.64,74.93,75.25,75.60,75.92,76.22,76.54,76.90,77.36,77.73,78.00,78.17,78.31,78.40,78.49,78.59,78.69,78.79,78.96,79.11,79.24,79.34,79.58,79.78,79.90,79.92,79.91,79.89,79.86,79.85,79.85,79.87,79.89,79.90,79.90,79.90,79.92,79.94,79.96,79.96,79.92,79.87,79.83,79.87,79.91,79.94,79.95,79.95,79.95,79.96,79.99,80.03,80.02,79.99,79.95,79.91,79.88,79.89,79.91,79.94,79.95,79.93,79.91,79.90,79.92,80.00,80.03,80.04,80.02,80.03,79.91,79.91,79.96,80.01,79.97,79.92,79.89,79.85,79.77,79.78,79.77,79.71,79.58,79.59,79.60,79.60,79.61,79.65,79.23,78.59,78.06,78.11,78.17,78.24,78.30,78.35,78.41,78.44,78.42,78.40,78.44,78.42,78.36,78.29,78.23,78.12,77.99,77.84,77.70,77.58,77.41,77.15,76.82,76.47,75.92,75.19,74.26,73.17,72.06,71.18,69.90,68.29,67.14,67.01,66.95,66.90,66.90,66.89,66.86,66.84,66.79,66.54,66.39,66.42,66.54,66.55,66.54,66.54,66.54,66.56,66.56,66.53,66.53,66.54,66.50,66.51,66.52,66.60,66.81,67.07,67.22,67.25,67.18,67.09,67.02,66.92,66.81,66.71,66.65,66.66,66.66,66.60,66.58,66.50,66.37,66.23,66.19,66.26,66.36,66.47,66.52,66.44,66.13,65.87,65.81,65.82,65.82,65.81,65.79,65.77,65.78,65.78,65.80,65.85,66.02,66.14,66.21,66.24,66.19,66.17,66.16,66.16,66.16,66.17,66.19,66.20,66.21,66.23,66.25,66.22,66.16,66.10,66.10,66.10,66.10,66.10,66.10,66.09,66.06,65.99,65.88,65.66,65.47,65.40,65.57,65.70,65.78,65.72,65.46,64.97,64.87,64.86,64.87,64.87
68.32,68.33,68.34,68.33,68.27,68.22,68.21,68.22,68.21,68.21,68.20,68.20,68.20,68.20,68.22,68.27,68.31,68.33,68.38,68.37,68.33,68.31,68.31,68.35,68.63,69.35,70.60,71.81,72.41,72.82,73.23,73.63,74.03,74.45,74.90,75.38,75.82,76.22,76.56,76.84,77.12,77.40,77.64,77.82,77.94,78.08,78.21,78.34,78.47,78.62,78.88,79.17,79.43,79.64,79.89,80.02,80.02,79.95,79.95,79.92,79.86,79.80,79.80,79.83,79.87,79.89,79.90,79.91,79.93,79.97,79.99,79.99,79.96,79.90,79.84,79.86,79.93,79.98,80.01,80.01,80.00,80.00,80.00,80.00,79.99,79.95,79.92,79.90,79.90,79.90,79.90,79.90,79.90,79.91,79.91,79.91,79.92,79.95,79.97,79.99,80.01,79.98,79.93,79.94,79.99,80.04,80.01,79.94,79.91,79.90,79.83,79.80,79.80,79.78,79.74,79.75,79.74,79.72,79.69,79.68,79.19,78.47,77.90,78.01,78.11,78.20,78.25,78.27,78.37,78.38,78.29,78.19,78.24,78.26,78.26,78.26,78.23,78.10,77.96,77.83,77.69,77.61,77.49,77.13,76.62,76.20,75.61,74.86,73.95,72.86,71.54,70.25,68.89,67.64,67.03,66.99,66.95,66.90,66.90,66.87,66.86,66.86,66.82,66.55,66.41,66.45,66.57,66.60,66.58,66.57,66.56,66.54,66.54,66.54,66.56,66.59,66.52,66.53,66.54,66.60,66.78,67.01,67.17,67.23,67.19,67.16,67.11,67.00,66.86,66.74,66.67,66.67,66.67,66.59,66.55,66.48,66.36,66.24,66.31,66.47,66.59,66.64,66.62,66.50,66.23,65.96,65.81,65.84,65.83,65.81,65.78,65.75,65.76,65.76,65.77,65.81,65.96,66.11,66.22,66.26,66.20,66.20,66.20,66.20,66.19,66.17,66.18,66.20,66.21,66.25,66.29,66.24,66.15,66.10,66.10,66.10,66.09,66.09,66.09,66.07,66.00,65.86,65.65,65.44,65.35,65.41,65.61,65.74,65.79,65.69,65.41,64.96,64.88,64.88,64.88,64.87
68.29,68.27,68.29,68.30,68.27,68.21,68.19,68.18,68.19,68.24,68.21,68.20,68.20,68.20,68.22,68.27,68.30,68.31,68.35,68.37,68.37,68.33,68.30,68.29,68.41,68.77,69.44,70.17,70.60,70.93,71.27,71.72,72.47,73.31,74.18,75.05,75.88,76.71,77.46,78.08,78.43,78.79,79.09,79.24,79.10,79.09,79.26,79.49,79.68,79.79,79.81,79.82,79.86,79.95,80.07,80.09,80.03,79.93,79.92,79.90,79.87,79.82,79.80,79.81,79.83,79.85,79.90,79.95,79.96,79.95,79.94,79.92,79.89,79.85,79.82,79.85,79.92,79.99,80.05,80.07,80.04,80.01,80.00,79.98,79.96,79.92,79.91,79.90,79.89,79.91,79.91,79.91,79.94,79.95,79.93,79.92,79.93,79.87,79.85,79.83,79.81,79.83,79.89,79.93,79.95,79.96,79.92,79.87,79.82,79.78,79.74,79.76,79.77,79.78,79.80,79.83,79.81,79.69,79.48,79.22,78.56,77.96,77.61,77.72,77.91,78.03,78.11,78.15,78.14,78.20,78.23,78.20,78.17,78.15,78.13,78.11,78.04,77.95,77.86,77.74,77.59,77.50,77.27,76.80,76.20,75.68,75.08,74.25,73.19,71.90,70.41,69.05,67.99,67.28,67.02,66.97,66.93,66.90,66.90,66.84,66.80,66.80,66.78,66.51,66.37,66.41,66.53,66.56,66.59,66.58,66.56,66.58,66.61,66.62,66.62,66.63,66.58,66.58,66.58,66.61,66.70,66.93,67.10,67.17,67.15,67.12,67.10,67.02,66.89,66.78,66.74,66.73,66.68,66.55,66.52,66.48,66.43,66.40,66.48,66.58,66.64,66.66,66.63,66.55,66.35,66.07,65.81,65.84,65.83,65.82,65.79,65.78,65.77,65.76,65.75,65.76,65.89,66.05,66.16,66.19,66.15,66.16,66.19,66.22,66.23,66.19,66.16,66.15,66.16,66.19,66.21,66.18,66.13,66.10,66.09,66.07,66.05,66.05,66.02,65.95,65.86,65.75,65.58,65.43,65.36,65.37,65.42,65.44,65.43,65.34,65.17,64.97,64.91,64.89,64.89,64.88
68.28,68.25,68.25,68.25,68.24,68.21,68.18,68.16,68.16,68.21,68.20,68.20,68.20,68.20,68.22,68.26,68.30,68.30,68.33,68.37,68.37,68.34,68.30,68.27,68.30,68.43,68.70,69.07,69.41,69.73,70.04,70.39,71.04,71.88,72.90,74.10,75.33,76.46,77.45,78.26,78.75,79.21,79.59,79.81,79.73,79.78,79.97,80.19,80.31,80.35,80.26,80.15,80.08,80.10,80.13,80.08,79.98,79.90,79.90,79.90,79.88,79.83,79.79,79.79,79.81,79.84,79.90,79.95,79.96,79.94,79.90,79.87,79.84,79.82,79.83,79.85,79.92,80.00,80.07,80.10,80.06,80.03,79.99,79.96,79.92,79.89,79.88,79.88,79.86,79.87,79.89,79.92,79.94,79.95,79.91,79.89,79.88,79.81,79.76,79.72,79.72,79.81,79.89,79.92,79.93,79.94,79.88,79.83,79.76,79.70,79.68,79.70,79.72,79.71,79.67,79.60,79.51,79.28,78.89,78.48,77.90,77.48,77.32,77.43,77.66,77.83,77.95,78.03,77.99,78.06,78.11,78.10,78.03,77.96,77.93,77.89,77.80,77.75,77.69,77.57,77.37,77.21,76.84,76.29,75.66,75.12,74.48,73.49,72.19,70.68,69.17,68.07,67.40,67.11,67.02,66.94,66.91,66.89,66.87,66.82,66.78,66.76,66.71,66.45,66.34,66.39,66.50,66.51,66.59,66.62,66.62,66.63,66.68,66.69,66.69,66.69,66.67,66.60,66.57,66.58,66.62,66.83,67.01,67.11,67.12,67.11,67.11,67.05,66.94,66.85,66.79,66.73,66.64,66.50,66.50,66.49,66.49,66.52,66.57,66.62,66.65,66.65,66.62,66.56,66.41,66.13,65.79,65.82,65.82,65.80,65.78,65.79,65.76,65.74,65.73,65.73,65.82,65.95,66.04,66.08,66.07,66.09,66.13,66.17,66.21,66.17,66.09,66.04,66.06,66.05,66.05,66.04,66.01,66.00,65.97,65.94,65.92,65.92,65.89,65.83,65.75,65.67,65.58,65.44,65.34,65.28,65.25,65.24,65.20,65.13,65.02,64.95,64.91,64.90,64.89,64.89
68.30,68.28,68.22,68.18,68.18,68.20,68.19,68.16,68.12,68.12,68.16,68.19,68.20,68.20,68.22,68.25,68.29,68.30,68.32,68.35,68.36,68.33,68.28,68.27,68.28,68.31,68.33,68.44,68.76,69.13,69.45,69.54,69.73,70.20,71.12,72.61,74.26,75.58,76.65,77.52,78.22,78.80,79.27,79.64,79.90,80.19,80.39,80.48,80.45,80.40,80.30,80.19,80.12,80.12,80.09,80.00,79.89,79.85,79.89,79.91,79.89,79.83,79.78,79.79,79.82,79.86,79.90,79.92,79.94,79.94,79.90,79.84,79.81,79.82,79.86,79.87,79.92,79.99,80.07,80.10,80.08,80.04,79.99,79.94,79.88,79.86,79.85,79.85,79.82,79.81,79.85,79.91,79.92,79.91,79.86,79.82,79.79,79.74,79.69,79.67,79.71,79.89,79.94,79.93,79.92,79.96,79.87,79.80,79.73,79.67,79.64,79.64,79.64,79.58,79.38,79.10,78.91,78.54,77.96,77.52,77.20,77.03,77.01,77.13,77.38,77.59,77.76,77.91,77.90,77.94,77.95,77.91,77.84,77.72,77.67,77.62,77.53,77.49,77.47,77.33,77.05,76.77,76.23,75.61,75.01,74.53,73.82,72.60,70.99,69.23,67.86,67.27,67.09,67.09,67.02,66.89,66.87,66.88,66.83,66.81,66.78,66.73,66.63,66.37,66.31,66.39,66.48,66.43,66.57,66.68,66.72,66.68,66.76,66.78,66.78,66.77,66.77,66.60,66.52,66.53,66.54,66.72,66.91,67.05,67.10,67.11,67.15,67.10,66.99,66.95,66.82,66.69,66.56,66.44,66.49,66.50,66.54,66.60,66.60,66.60,66.61,66.61,66.59,66.53,66.43,66.16,65.74,65.79,65.79,65.76,65.74,65.78,65.73,65.71,65.71,65.70,65.74,65.81,65.89,65.93,65.95,65.99,66.03,66.07,66.14,66.12,65.97,65.87,65.89,65.84,65.83,65.83,65.83,65.80,65.75,65.73,65.72,65.72,65.72,65.69,65.66,65.63,65.63,65.47,65.30,65.16,65.11,65.11,65.08,65.03,64.96,64.91,64.90,64.90,64.90,64.90
68.32,68.27,68.17,68.12,68.15,68.19,68.20,68.20,68.19,68.17,68.19,68.20,68.20,68.20,68.21,68.23,68.27,68.30,68.31,68.31,68.31,68.29,68.29,68.29,68.29,68.30,68.29,68.34,68.50,68.77,69.12,69.46,69.59,69.78,70.22,71.11,72.66,74.23,75.60,76.65,77.51,78.22,78.78,79.21,79.58,80.02,80.34,80.51,80.53,80.46,80.35,80.25,80.19,80.13,80.00,79.89,79.83,79.86,79.89,79.91,79.91,79.87,79.81,79.82,79.84,79.88,79.90,79.91,79.90,79.88,79.85,79.82,79.80,79.83,79.89,79.92,79.96,80.00,80.04,80.06,80.05,80.03,79.98,79.91,79.87,79.85,79.83,79.82,79.84,79.84,79.86,79.87,79.84,79.82,79.78,79.75,79.74,79.74,79.71,79.63,79.60,79.75,79.82,79.85,79.90,79.96,79.87,79.76,79.63,79.48,79.30,79.14,79.03,78.89,78.62,78.32,78.09,77.81,77.45,77.14,76.92,76.75,76.65,76.64,77.04,77.33,77.50,77.60,77.70,77.75,77.73,77.61,77.39,77.19,77.14,77.14,77.04,77.04,76.93,76.75,76.50,76.13,75.53,74.91,74.33,73.78,72.74,71.50,69.98,68.26,67.40,67.10,67.03,67.03,66.96,66.90,66.89,66.89,66.87,66.77,66.71,66.62,66.48,66.29,66.32,66.42,66.49,66.47,66.48,66.58,66.67,66.69,66.73,66.73,66.73,66.72,66.67,66.59,66.54,66.51,66.53,66.73,66.88,67.00,67.10,67.10,67.12,67.09,67.00,66.85,66.72,66.64,66.60,66.56,66.47,66.48,66.52,66.57,66.64,66.61,66.61,66.62,66.64,66.57,66.46,66.20,65.82,65.80,65.78,65.74,65.72,65.73,65.70,65.68,65.67,65.70,65.71,65.75,65.80,65.84,65.85,65.87,65.89,65.91,65.94,65.93,65.87,65.83,65.83,65.80,65.79,65.77,65.75,65.74,65.72,65.71,65.70,65.70,65.68,65.65,65.63,65.63,65.64,65.47,65.30,65.15,65.09,65.07,65.03,64.99,64.97,64.99,64.99,64.99,64.99,64.99
68.33,68.25,68.15,68.09,68.13,68.19,68.22,68.24,68.25,68.23,68.21,68.20,68.19,68.18,68.19,68.21,68.25,68.30,68.30,68.30,68.30,68.32,68.34,68.31,68.29,68.28,68.27,68.28,68.33,68.50,68.83,69.33,69.50,69.55,69.68,70.12,71.53,73.14,74.61,75.75,76.72,77.55,78.21,78.73,79.20,79.77,80.19,80.44,80.53,80.51,80.38,80.28,80.23,80.15,79.95,79.81,79.77,79.84,79.86,79.88,79.88,79.85,79.82,79.84,79.86,79.88,79.89,79.90,79.88,79.85,79.82,79.82,79.81,79.84,79.90,79.96,79.98,80.00,80.02,80.02,80.03,80.03,79.98,79.91,79.88,79.87,79.85,79.83,79.86,79.88,79.88,79.85,79.79,79.77,79.74,79.73,79.73,79.77,79.74,79.64,79.56,79.62,79.71,79.79,79.88,79.96,79.87,79.72,79.51,79.23,78.91,78.63,78.47,78.30,78.02,77.75,77.52,77.31,77.10,76.85,76.64,76.43,76.27,76.21,76.60,76.90,77.07,77.13,77.27,77.31,77.24,77.07,76.78,76.54,76.47,76.45,76.32,76.37,76.24,76.04,75.81,75.35,74.70,74.08,73.49,72.85,71.63,70.46,69.12,67.55,67.13,67.03,67.00,66.95,66.90,66.90,66.89,66.88,66.88,66.75,66.66,66.53,66.36,66.22,66.31,66.41,66.48,66.49,66.45,66.51,66.59,66.65,66.66,66.66,66.66,66.65,66.60,66.58,66.54,66.51,66.53,66.71,66.83,66.96,67.10,67.10,67.07,67.03,66.94,66.76,66.66,66.63,66.64,66.65,66.48,66.46,66.49,66.54,66.65,66.63,66.62,66.64,66.67,66.59,66.47,66.23,65.89,65.78,65.74,65.71,65.70,65.70,65.69,65.66,65.66,65.70,65.70,65.72,65.74,65.78,65.78,65.78,65.79,65.80,65.80,65.80,65.80,65.79,65.79,65.77,65.75,65.73,65.70,65.70,65.69,65.69,65.69,65.68,65.65,65.62,65.61,65.63,65.63,65.48,65.30,65.15,65.08,65.02,64.98,64.96,65.00,65.08,65.09,65.09,65.08,65.09
68.31,68.24,68.17,68.13,68.14,68.20,68.25,68.28,68.29,68.27,68.23,68.20,68.17,68.13,68.15,68.20,68.25,68.30,68.30,68.33,68.39,68.47,68.48,68.33,68.25,68.23,68.22,68.24,68.29,68.39,68.58,69.00,69.38,69.55,69.68,70.08,71.32,72.57,73.74,74.81,75.81,76.74,77.53,78.19,78.76,79.42,79.89,80.20,80.40,80.51,80.40,80.28,80.24,80.19,79.98,79.80,79.72,79.74,79.75,79.77,79.78,79.74,79.77,79.85,79.88,79.86,79.87,79.89,79.87,79.84,79.85,79.87,79.85,79.85,79.88,79.95,79.99,80.00,80.00,80.00,80.04,80.04,80.02,79.98,79.94,79.94,79.93,79.91,79.89,79.90,79.90,79.87,79.82,79.80,79.79,79.79,79.79,79.85,79.79,79.74,79.68,79.53,79.65,79.78,79.89,79.94,79.85,79.67,79.33,78.88,78.46,78.18,78.04,77.95,77.81,77.63,77.45,77.26,77.01,76.67,76.33,76.04,75.86,75.89,75.95,76.15,76.34,76.40,76.41,76.40,76.29,76.09,75.90,75.69,75.55,75.42,75.20,75.32,75.28,75.14,74.89,74.31,73.62,73.00,72.39,71.62,70.51,69.55,68.50,67.29,67.11,67.06,66.98,66.87,66.87,66.88,66.85,66.82,66.85,66.75,66.67,66.51,66.28,66.20,66.27,66.35,66.41,66.46,66.53,66.51,66.49,66.51,66.53,66.53,66.54,66.56,66.60,66.54,66.51,66.52,66.56,66.60,66.73,66.91,67.09,67.11,67.01,66.88,66.77,66.69,66.69,66.69,66.68,66.65,66.53,66.45,66.46,66.53,66.60,66.63,66.64,66.65,66.63,66.55,66.44,66.23,65.92,65.73,65.64,65.65,65.70,65.70,65.70,65.69,65.69,65.70,65.71,65.73,65.74,65.75,65.74,65.73,65.76,65.80,65.80,65.80,65.80,65.78,65.75,65.72,65.71,65.71,65.70,65.69,65.67,65.67,65.66,65.65,65.62,65.60,65.61,65.62,65.62,65.49,65.31,65.14,65.06,64.97,64.93,64.96,65.05,65.19,65.21,65.19,65.18,65.19
68.26,68.22,68.19,68.16,68.15,68.16,68.19,68.23,68.27,68.29,68.27,68.24,68.21,68.16,68.16,68.17,68.21,68.25,68.25,68.29,68.37,68.44,68.43,68.30,68.26,68.26,68.25,68.27,68.29,68.32,68.40,68.61,69.01,69.40,69.80,70.22,70.96,71.85,72.85,73.90,74.93,75.91,76.80,77.59,78.29,78.93,79.46,79.88,80.21,80.39,80.35,80.27,80.21,80.13,79.90,79.71,79.60,79.58,79.58,79.62,79.65,79.64,79.66,79.75,79.82,79.84,79.85,79.86,79.87,79.88,79.91,79.92,79.89,79.88,79.90,79.98,80.01,80.04,80.05,80.06,80.06,80.04,80.02,80.01,79.98,79.96,79.95,79.94,79.94,79.92,79.90,79.88,79.85,79.82,79.79,79.75,79.71,79.73,79.65,79.58,79.49,79.27,79.39,79.50,79.57,79.56,79.46,79.27,78.95,78.54,78.17,77.97,77.91,77.87,77.77,77.64,77.47,77.21,76.86,76.42,76.09,75.81,75.60,75.53,75.52,75.63,75.72,75.72,75.65,75.53,75.34,75.11,74.92,74.74,74.59,74.44,74.28,74.31,74.21,73.98,73.59,72.89,72.16,71.52,70.97,70.40,69.60,68.77,67.91,67.11,67.01,66.96,66.88,66.79,66.75,66.76,66.72,66.67,66.67,66.58,66.49,66.37,66.21,66.15,66.24,66.32,66.37,66.40,66.51,66.52,66.49,66.48,66.48,66.49,66.52,66.55,66.57,66.54,66.52,66.53,66.56,66.57,66.69,66.87,67.03,67.09,66.95,66.80,66.71,66.64,66.68,66.69,66.66,66.63,66.56,66.46,66.44,66.50,66.57,66.62,66.62,66.59,66.56,66.52,66.45,66.27,65.97,65.75,65.69,65.69,65.72,65.70,65.70,65.70,65.69,65.68,65.70,65.73,65.75,65.77,65.75,65.73,65.76,65.80,65.80,65.78,65.78,65.77,65.72,65.70,65.70,65.70,65.70,65.68,65.64,65.63,65.63,65.62,65.60,65.60,65.60,65.61,65.61,65.51,65.32,65.13,65.04,64.97,64.93,64.96,65.07,65.22,65.23,65.21,65.21,65.23
68.21,68.21,68.20,68.19,68.17,68.12,68.12,68.16,68.23,68.28,68.29,68.29,68.26,68.22,68.20,68.16,68.16,68.19,68.19,68.24,68.31,68.36,68.32,68.26,68.27,68.30,68.30,68.30,68.30,68.28,68.26,68.28,68.62,69.23,69.90,70.37,70.58,71.15,71.99,73.00,74.05,75.05,76.01,76.93,77.78,78.39,78.99,79.55,80.00,80.22,80.29,80.26,80.16,80.04,79.80,79.61,79.47,79.41,79.39,79.44,79.49,79.51,79.50,79.58,79.69,79.78,79.81,79.81,79.84,79.90,79.97,79.96,79.94,79.92,79.93,80.01,80.04,80.07,80.11,80.11,80.05,80.02,80.01,80.01,79.99,79.94,79.92,79.93,79.96,79.93,79.90,79.87,79.85,79.79,79.70,79.59,79.49,79.47,79.38,79.29,79.17,78.91,79.02,79.10,79.10,79.01,78.91,78.74,78.49,78.19,77.91,77.84,77.84,77.84,77.75,77.65,77.47,77.15,76.69,76.17,75.89,75.63,75.38,75.16,75.13,75.13,75.10,75.03,74.91,74.68,74.41,74.14,73.91,73.75,73.58,73.42,73.36,73.28,73.10,72.76,72.23,71.45,70.73,70.11,69.64,69.34,68.84,68.09,67.39,66.96,66.88,66.80,66.75,66.70,66.62,66.60,66.55,66.49,66.45,66.37,66.30,66.22,66.14,66.11,66.22,66.31,66.35,66.35,66.46,66.53,66.54,66.50,66.46,66.47,66.51,66.54,66.54,66.55,66.56,66.56,66.56,66.56,66.67,66.81,66.95,67.04,66.88,66.75,66.68,66.61,66.68,66.67,66.63,66.60,66.58,66.47,66.42,66.47,66.55,66.59,66.57,66.52,66.50,66.50,66.48,66.34,66.07,65.80,65.76,65.75,65.74,65.70,65.69,65.69,65.67,65.65,65.69,65.72,65.76,65.80,65.78,65.74,65.75,65.79,65.78,65.75,65.76,65.75,65.70,65.70,65.70,65.70,65.69,65.67,65.62,65.60,65.60,65.60,65.60,65.59,65.59,65.60,65.60,65.51,65.33,65.13,65.03,64.99,64.95,64.96,65.07,65.20,65.22,65.21,65.21,65.24
68.23,68.25,68.24,68.21,68.19,68.16,68.12,68.12,68.16,68.21,68.24,68.29,68.34,68.36,68.35,68.27,68.19,68.14,68.15,68.19,68.22,68.23,68.22,68.25,68.27,68.28,68.28,68.28,68.29,68.28,68.26,68.28,68.60,69.16,69.78,70.22,70.41,70.82,71.42,72.18,73.09,74.07,75.07,76.07,77.07,77.90,78.62,79.24,79.76,80.08,80.23,80.22,80.08,79.95,79.77,79.58,79.40,79.25,79.21,79.20,79.21,79.22,79.21,79.25,79.33,79.44,79.54,79.63,79.71,79.79,79.89,79.96,79.95,79.93,79.93,79.98,80.03,80.06,80.05,79.99,79.96,79.96,79.96,79.92,79.87,79.80,79.76,79.76,79.82,79.82,79.81,79.78,79.71,79.51,79.23,78.97,78.81,78.80,78.74,78.69,78.61,78.42,78.47,78.44,78.37,78.27,78.19,78.09,77.95,77.78,77.62,77.64,77.66,77.63,77.55,77.46,77.33,77.03,76.54,76.01,75.71,75.42,75.11,74.78,74.56,74.41,74.29,74.17,74.08,73.86,73.59,73.27,72.95,72.72,72.39,72.10,72.04,71.97,71.87,71.64,71.19,70.58,70.11,69.70,69.34,69.04,68.45,67.75,67.16,66.86,66.77,66.67,66.60,66.55,66.50,66.41,66.33,66.28,66.30,66.31,66.26,66.20,66.14,66.15,66.21,66.30,66.38,66.39,66.47,66.53,66.57,66.56,66.48,66.42,66.42,66.46,66.46,66.55,66.59,66.59,66.59,66.59,66.63,66.71,66.81,66.85,66.82,66.76,66.69,66.61,66.68,66.68,66.64,66.60,66.58,66.47,66.41,66.44,66.50,66.50,66.47,66.46,66.47,66.57,66.60,66.52,66.29,65.81,65.73,65.73,65.72,65.69,65.66,65.64,65.63,65.62,65.64,65.66,65.72,65.80,65.78,65.73,65.72,65.74,65.73,65.72,65.72,65.72,65.70,65.70,65.70,65.70,65.69,65.67,65.62,65.60,65.60,65.60,65.58,65.55,65.55,65.58,65.62,65.49,65.31,65.16,65.11,65.05,64.99,64.96,65.01,65.14,65.19,65.20,65.21,65.24
68.26,68.27,68.26,68.23,68.20,68.18,68.14,68.12,68.14,68.17,68.22,68.31,68.39,68.41,68.39,68.30,68.20,68.13,68.14,68.18,68.19,68.18,68.19,68.22,68.24,68.24,68.25,68.25,68.26,68.26,68.28,68.38,68.74,69.27,69.79,70.09,70.23,70.51,70.94,71.55,72.35,73.27,74.24,75.26,76.32,77.24,78.06,78.77,79.39,79.84,80.10,80.15,80.02,79.88,79.74,79.55,79.32,79.09,78.99,78.93,78.90,78.90,78.90,78.93,79.01,79.13,79.26,79.37,79.46,79.54,79.64,79.73,79.77,79.77,79.78,79.83,79.91,79.92,79.86,79.71,79.59,79.54,79.47,79.37,79.26,79.17,79.12,79.12,79.20,79.23,79.21,79.12,78.96,78.69,78.38,78.12,77.96,77.95,77.92,77.91,77.89,77.82,77.89,77.83,77.72,77.61,77.51,77.45,77.39,77.34,77.27,77.33,77.32,77.27,77.21,77.14,77.05,76.80,76.38,75.87,75.49,75.11,74.71,74.31,74.03,73.80,73.61,73.43,73.31,73.09,72.73,72.26,71.79,71.52,71.18,70.91,70.84,70.77,70.76,70.66,70.37,69.92,69.57,69.24,68.89,68.53,68.02,67.44,66.99,66.79,66.72,66.62,66.54,66.49,66.41,66.32,66.22,66.17,66.22,66.23,66.22,66.17,66.10,66.14,66.19,66.28,66.37,66.43,66.48,66.56,66.62,66.62,66.51,66.39,66.34,66.36,66.41,66.55,66.60,66.60,66.60,66.60,66.57,66.59,66.67,66.71,66.72,66.71,66.67,66.64,66.68,66.67,66.63,66.59,66.56,66.46,66.40,66.42,66.49,66.47,66.44,66.43,66.48,66.62,66.63,66.51,66.26,65.81,65.70,65.70,65.71,65.69,65.66,65.64,65.63,65.60,65.61,65.63,65.70,65.79,65.75,65.72,65.71,65.71,65.71,65.70,65.70,65.70,65.70,65.70,65.70,65.70,65.68,65.65,65.61,65.60,65.60,65.59,65.55,65.52,65.52,65.56,65.61,65.47,65.29,65.15,65.14,65.09,65.03,64.98,64.98,65.10,65.17,65.19,65.19,65.20
68.29,68.28,68.27,68.25,68.20,68.19,68.17,68.15,68.15,68.15,68.21,68.33,68.42,68.39,68.34,68.26,68.20,68.15,68.17,68.19,68.20,68.20,68.20,68.19,68.18,68.18,68.20,68.20,68.20,68.23,68.32,68.55,69.02,69.52,69.88,69.96,70.04,70.22,70.55,71.05,71.77,72.60,73.52,74.49,75.53,76.45,77.35,78.18,78.92,79.51,79.91,80.06,79.98,79.84,79.70,79.49,79.22,78.91,78.75,78.63,78.57,78.55,78.59,78.64,78.72,78.84,78.97,79.05,79.13,79.20,79.26,79.34,79.42,79.48,79.53,79.60,79.69,79.69,79.57,79.29,79.03,78.84,78.67,78.47,78.28,78.15,78.10,78.12,78.21,78.27,78.22,78.04,77.75,77.46,77.24,77.08,76.97,76.98,76.97,76.99,77.05,77.14,77.28,77.24,77.13,77.02,76.86,76.81,76.82,76.86,76.88,76.92,76.88,76.81,76.77,76.71,76.67,76.51,76.19,75.75,75.24,74.71,74.21,73.78,73.53,73.29,73.04,72.79,72.60,72.37,71.86,71.12,70.48,70.19,69.97,69.80,69.73,69.66,69.73,69.78,69.71,69.41,69.11,68.74,68.30,67.86,67.53,67.15,66.85,66.73,66.71,66.64,66.56,66.48,66.34,66.30,66.20,66.13,66.19,66.14,66.17,66.14,66.03,66.09,66.17,66.24,66.34,66.48,66.50,66.60,66.69,66.68,66.53,66.38,66.27,66.24,66.39,66.54,66.60,66.60,66.60,66.59,66.49,66.45,66.52,66.59,66.60,66.61,66.63,66.70,66.69,66.64,66.60,66.58,66.51,66.44,66.40,66.42,66.49,66.49,66.45,66.44,66.52,66.64,66.60,66.38,66.04,65.82,65.68,65.65,65.70,65.70,65.70,65.69,65.66,65.60,65.60,65.62,65.69,65.77,65.71,65.70,65.70,65.70,65.70,65.70,65.70,65.70,65.70,65.70,65.70,65.69,65.66,65.60,65.60,65.60,65.59,65.57,65.51,65.50,65.51,65.54,65.57,65.45,65.26,65.10,65.11,65.10,65.06,65.00,64.96,65.06,65.15,65.17,65.15,65.14
68.25,68.24,68.26,68.25,68.20,68.20,68.19,68.19,68.20,68.22,68.25,68.34,68.41,68.38,68.29,68.20,68.15,68.19,68.22,68.24,68.24,68.22,68.20,68.20,68.20,68.18,68.16,68.18,68.21,68.28,68.41,68.74,69.18,69.52,69.72,69.80,69.87,70.05,70.31,70.66,71.17,71.90,72.77,73.75,74.80,75.79,76.74,77.62,78.38,78.94,79.36,79.60,79.67,79.61,79.51,79.33,79.06,78.75,78.54,78.40,78.33,78.30,78.32,78.38,78.47,78.57,78.65,78.71,78.77,78.81,78.86,78.89,78.84,78.81,78.85,78.93,78.85,78.74,78.59,78.35,78.06,77.81,77.55,77.27,77.07,76.93,76.81,76.70,76.60,76.60,76.54,76.42,76.25,76.13,76.06,76.01,75.98,76.02,76.03,76.07,76.14,76.18,76.25,76.26,76.21,76.13,76.08,76.10,76.17,76.23,76.16,76.23,76.28,76.29,76.25,76.22,76.19,76.11,75.91,75.44,74.84,74.25,73.74,73.35,73.12,72.74,72.32,71.94,71.52,71.09,70.69,70.33,70.01,69.84,69.70,69.56,69.41,69.32,69.15,68.95,68.74,68.55,68.28,68.02,67.78,67.51,67.26,66.98,66.77,66.71,66.70,66.60,66.51,66.43,66.33,66.30,66.20,66.11,66.13,66.12,66.12,66.07,65.97,66.08,66.20,66.30,66.39,66.50,66.55,66.63,66.70,66.70,66.60,66.49,66.36,66.26,66.38,66.54,66.60,66.60,66.60,66.59,66.49,66.44,66.50,66.53,66.58,66.64,66.70,66.77,66.76,66.70,66.66,66.64,66.61,66.51,66.43,66.39,66.47,66.46,66.43,66.43,66.51,66.57,66.53,66.41,66.21,65.99,65.74,65.66,65.69,65.68,65.69,65.70,65.68,65.65,65.61,65.62,65.69,65.77,65.70,65.69,65.68,65.68,65.68,65.68,65.68,65.69,65.70,65.70,65.69,65.66,65.62,65.60,65.60,65.60,65.58,65.55,65.51,65.50,65.51,65.53,65.56,65.45,65.26,65.11,65.14,65.08,65.03,64.98,64.95,65.04,65.12,65.14,65.12,65.14
68.22,68.22,68.25,68.26,68.22,68.20,68.20,68.21,68.23,68.27,68.30,68.35,68.38,68.35,68.25,68.16,68.14,68.21,68.25,68.27,68.27,68.25,68.23,68.24,68.23,68.20,68.15,68.17,68.23,68.33,68.52,68.89,69.24,69.45,69.55,69.63,69.69,69.86,70.07,70.31,70.67,71.24,72.01,72.94,73.99,75.01,76.01,76.92,77.72,78.35,78.83,79.17,79.34,79.33,79.28,79.13,78.90,78.60,78.36,78.20,78.11,78.06,78.02,78.05,78.11,78.18,78.20,78.25,78.29,78.30,78.29,78.24,78.13,78.08,78.10,78.12,77.86,77.63,77.45,77.25,76.95,76.70,76.44,76.13,75.81,75.62,75.45,75.27,75.06,75.02,74.99,74.97,74.96,74.95,74.96,74.96,74.97,75.03,75.07,75.15,75.23,75.25,75.28,75.30,75.30,75.28,75.29,75.33,75.41,75.47,75.38,75.45,75.55,75.61,75.59,75.58,75.55,75.51,75.38,74.91,74.32,73.75,73.27,72.89,72.57,72.05,71.53,71.12,70.68,70.17,69.85,69.73,69.61,69.53,69.45,69.33,69.14,69.02,68.72,68.37,68.06,67.91,67.68,67.50,67.37,67.23,67.03,66.84,66.72,66.69,66.67,66.56,66.45,66.39,66.32,66.28,66.18,66.09,66.09,66.09,66.07,66.01,65.92,66.07,66.20,66.33,66.45,66.54,66.59,66.67,66.73,66.73,66.66,66.59,66.46,66.34,66.37,66.52,66.59,66.60,66.60,66.59,66.51,66.45,66.48,66.52,66.59,66.68,66.75,66.82,66.81,66.75,66.69,66.67,66.69,66.58,66.44,66.36,66.44,66.44,66.42,66.43,66.49,66.52,66.51,66.46,66.36,66.14,65.82,65.68,65.71,65.70,65.71,65.71,65.70,65.68,65.62,65.63,65.69,65.76,65.69,65.66,65.65,65.65,65.65,65.66,65.66,65.67,65.69,65.69,65.67,65.64,65.60,65.60,65.59,65.58,65.57,65.54,65.51,65.50,65.50,65.51,65.53,65.44,65.26,65.11,65.16,65.06,65.00,64.96,64.93,65.00,65.09,65.13,65.12,65.16
68.20,68.22,68.26,68.29,68.26,68.21,68.20,68.21,68.24,68.31,68.35,68.34,68.32,68.29,68.22,68.19,68.18,68.20,68.23,68.27,68.29,68.29,68.29,68.29,68.27,68.24,68.19,68.20,68.24,68.39,68.65,68.98,69.13,69.25,69.35,69.44,69.50,69.64,69.81,70.02,70.30,70.67,71.23,72.01,73.03,74.06,75.07,76.01,76.87,77.73,78.37,78.79,79.00,78.98,78.96,78.90,78.74,78.47,78.22,78.05,77.92,77.80,77.67,77.59,77.57,77.57,77.53,77.59,77.62,77.58,77.46,77.30,77.23,77.24,77.25,77.10,76.66,76.31,76.07,75.89,75.62,75.50,75.37,75.10,74.50,74.21,74.01,73.83,73.64,73.64,73.71,73.85,74.03,74.04,74.00,73.95,73.93,73.99,74.10,74.22,74.32,74.38,74.40,74.42,74.46,74.50,74.47,74.48,74.49,74.50,74.51,74.54,74.61,74.67,74.70,74.70,74.65,74.58,74.47,74.04,73.59,73.18,72.80,72.36,71.75,71.13,70.63,70.37,70.24,69.85,69.54,69.39,69.30,69.26,69.18,69.05,68.90,68.76,68.50,68.19,67.88,67.67,67.48,67.32,67.17,67.03,66.89,66.78,66.70,66.67,66.63,66.50,66.41,66.36,66.31,66.23,66.13,66.06,66.07,66.07,66.02,65.95,65.90,66.07,66.17,66.33,66.51,66.61,66.63,66.70,66.76,66.78,66.73,66.66,66.59,66.51,66.36,66.50,66.58,66.60,66.60,66.60,66.54,66.48,66.47,66.56,66.64,66.71,66.77,66.84,66.84,66.76,66.69,66.66,66.71,66.60,66.44,66.32,66.38,66.45,66.45,66.42,66.47,66.54,66.57,66.55,66.47,66.24,65.90,65.75,65.77,65.81,65.76,65.74,65.72,65.68,65.62,65.64,65.70,65.74,65.69,65.63,65.61,65.61,65.61,65.62,65.64,65.65,65.65,65.65,65.64,65.62,65.60,65.59,65.56,65.54,65.53,65.51,65.50,65.49,65.47,65.45,65.47,65.39,65.22,65.08,65.14,65.04,64.98,64.93,64.88,64.94,65.06,65.13,65.16,65.18
68.21,68.22,68.26,68.30,68.28,68.26,68.25,68.26,68.27,68.33,68.36,68.34,68.29,68.26,68.21,68.20,68.20,68.20,68.21,68.25,68.28,68.30,68.31,68.32,68.29,68.25,68.20,68.22,68.33,68.51,68.73,68.89,68.95,69.06,69.19,69.28,69.34,69.46,69.60,69.75,69.98,70.24,70.61,71.18,72.09,73.13,74.13,75.08,75.96,76.83,77.58,78.18,78.59,78.70,78.72,78.64,78.44,78.14,77.79,77.46,77.21,77.08,76.92,76.80,76.73,76.68,76.58,76.55,76.50,76.43,76.32,76.19,76.14,76.14,76.12,75.88,75.35,74.93,74.66,74.54,74.39,74.33,74.17,73.79,73.12,72.80,72.61,72.50,72.46,72.49,72.55,72.62,72.73,72.78,72.78,72.77,72.77,72.83,72.96,73.08,73.17,73.26,73.29,73.30,73.33,73.38,73.42,73.45,73.41,73.32,73.33,73.27,73.30,73.40,73.56,73.62,73.58,73.50,73.38,73.00,72.70,72.40,72.02,71.48,70.89,70.42,70.07,69.85,69.85,69.56,69.30,69.16,69.04,68.98,68.89,68.79,68.66,68.55,68.30,68.00,67.71,67.51,67.35,67.20,67.06,66.95,66.83,66.74,66.66,66.61,66.58,66.48,66.39,66.33,66.28,66.19,66.10,66.05,66.06,66.02,65.98,65.92,65.87,66.04,66.15,66.32,66.52,66.66,66.69,66.76,66.82,66.83,66.78,66.71,66.67,66.63,66.42,66.49,66.56,66.60,66.60,66.60,66.54,66.50,66.52,66.60,66.68,66.71,66.73,66.83,66.86,66.80,66.73,66.71,66.75,66.64,66.49,66.37,66.34,66.42,66.45,66.45,66.47,66.52,66.54,66.54,66.49,66.33,65.99,65.82,65.83,65.87,65.82,65.78,65.74,65.69,65.65,65.65,65.68,65.71,65.68,65.62,65.60,65.60,65.60,65.60,65.62,65.63,65.62,65.62,65.62,65.60,65.58,65.55,65.53,65.52,65.51,65.49,65.47,65.45,65.44,65.44,65.47,65.41,65.25,65.11,65.13,65.06,65.02,64.97,64.91,64.94,65.06,65.15,65.19,65.21
68.22,68.22,68.26,68.30,68.30,68.30,68.30,68.30,68.30,68.32,68.35,68.32,68.27,68.24,68.21,68.20,68.20,68.20,68.20,68.22,68.25,68.29,68.33,68.34,68.31,68.25,68.21,68.26,68.42,68.61,68.77,68.75,68.78,68.89,69.04,69.12,69.19,69.29,69.40,69.50,69.68,69.86,70.07,70.44,71.20,72.24,73.22,74.15,75.04,75.86,76.66,77.41,78.03,78.30,78.35,78.22,77.95,77.63,77.17,76.68,76.32,76.16,76.01,75.89,75.78,75.66,75.51,75.36,75.24,75.14,75.07,74.98,74.92,74.89,74.82,74.55,74.01,73.57,73.29,73.21,73.20,73.15,72.93,72.46,71.82,71.52,71.36,71.32,71.41,71.47,71.47,71.45,71.44,71.50,71.56,71.61,71.65,71.71,71.82,71.91,71.99,72.08,72.14,72.15,72.16,72.19,72.29,72.34,72.23,72.02,71.98,71.80,71.79,71.95,72.24,72.39,72.39,72.33,72.20,71.87,71.72,71.48,71.10,70.54,70.08,69.80,69.59,69.40,69.47,69.28,69.09,68.94,68.80,68.70,68.62,68.53,68.43,68.35,68.11,67.83,67.58,67.41,67.26,67.13,67.02,66.94,66.82,66.71,66.62,66.55,66.54,66.48,66.39,66.29,66.24,66.15,66.08,66.05,66.04,65.96,65.94,65.90,65.83,65.99,66.12,66.31,66.53,66.68,66.75,66.84,66.89,66.86,66.81,66.75,66.73,66.72,66.49,66.48,66.54,66.59,66.60,66.60,66.55,66.53,66.58,66.64,66.70,66.69,66.68,66.80,66.87,66.83,66.77,66.77,66.77,66.66,66.54,66.44,66.32,66.39,66.44,66.47,66.47,66.50,66.51,66.51,66.50,66.42,66.06,65.88,65.88,65.89,65.86,65.81,65.75,65.70,65.67,65.65,65.66,65.69,65.68,65.63,65.61,65.60,65.60,65.60,65.61,65.61,65.60,65.60,65.60,65.59,65.57,65.51,65.50,65.50,65.49,65.48,65.43,65.41,65.41,65.43,65.48,65.43,65.28,65.13,65.11,65.08,65.05,65.01,64.95,64.95,65.05,65.14,65.18,65.20
68.27,68.24,68.26,68.28,68.30,68.30,68.30,68.30,68.29,68.29,68.30,68.25,68.20,68.18,68.20,68.20,68.21,68.23,68.23,68.23,68.25,68.28,68.31,68.31,68.29,68.27,68.25,68.33,68.47,68.60,68.67,68.68,68.72,68.80,68.89,68.94,69.05,69.14,69.22,69.28,69.38,69.48,69.63,69.93,70.53,71.44,72.38,73.29,74.10,74.84,75.55,76.27,76.92,77.28,77.30,77.14,76.87,76.57,76.14,75.64,75.24,75.04,74.95,74.80,74.63,74.44,74.22,74.00,73.86,73.78,73.71,73.54,73.39,73.28,73.18,72.99,72.66,72.34,72.10,71.99,71.97,71.89,71.69,71.35,70.95,70.77,70.69,70.68,70.72,70.73,70.68,70.63,70.60,70.57,70.63,70.72,70.81,70.86,70.88,70.89,70.91,70.97,71.09,71.11,71.10,71.12,71.18,71.07,70.78,70.41,70.22,69.90,69.87,70.09,70.48,70.78,70.91,70.93,70.85,70.56,70.49,70.29,69.99,69.73,69.53,69.28,69.06,68.97,69.09,69.02,68.86,68.68,68.57,68.49,68.41,68.33,68.24,68.20,68.03,67.81,67.60,67.47,67.32,67.21,67.12,67.08,66.88,66.72,66.60,66.52,66.51,66.55,66.46,66.26,66.17,66.12,66.06,66.01,65.97,65.92,65.89,65.85,65.82,65.92,66.06,66.28,66.51,66.63,66.79,66.91,66.95,66.88,66.81,66.78,66.78,66.74,66.51,66.45,66.48,66.55,66.60,66.60,66.58,66.58,66.60,66.67,66.70,66.70,66.71,66.80,66.87,66.84,66.79,66.78,66.73,66.64,66.55,66.45,66.32,66.38,66.42,66.44,66.49,66.50,66.54,66.57,66.57,66.49,66.10,65.89,65.88,65.83,65.81,65.76,65.71,65.68,65.63,65.61,65.62,65.65,65.69,65.67,65.63,65.60,65.60,65.60,65.60,65.60,65.60,65.60,65.60,65.59,65.56,65.51,65.50,65.50,65.49,65.48,65.42,65.40,65.40,65.41,65.46,65.43,65.26,65.06,65.08,65.02,64.97,64.94,64.92,64.92,64.96,65.01,65.05,65.03
68.29,68.27,68.27,68.28,68.28,68.30,68.30,68.31,68.31,68.29,68.27,68.21,68.17,68.18,68.19,68.21,68.22,68.25,68.26,68.26,68.27,68.28,68.30,68.30,68.30,68.30,68.31,68.38,68.49,68.55,68.58,68.59,68.65,68.71,68.77,68.81,68.90,68.99,69.05,69.08,69.09,69.10,69.18,69.41,69.95,70.81,71.73,72.58,73.30,73.91,74.47,75.06,75.66,76.02,76.07,75.96,75.76,75.57,75.16,74.63,74.17,73.92,73.84,73.65,73.41,73.15,72.89,72.66,72.54,72.49,72.42,72.23,72.07,71.96,71.89,71.79,71.63,71.46,71.32,71.26,71.18,71.04,70.84,70.60,70.33,70.20,70.14,70.12,70.12,70.10,70.05,69.99,69.94,69.82,69.79,69.81,69.86,69.87,69.86,69.82,69.80,69.85,69.99,70.06,70.08,70.08,69.97,69.56,69.12,68.77,68.60,68.35,68.32,68.52,68.87,69.26,69.47,69.52,69.44,69.21,69.24,69.10,68.83,68.64,68.54,68.49,68.55,68.73,68.85,68.80,68.64,68.45,68.37,68.30,68.23,68.16,68.11,68.09,67.96,67.79,67.61,67.56,67.44,67.33,67.25,67.23,67.02,66.78,66.58,66.44,66.43,66.49,66.41,66.20,66.13,66.08,66.04,66.00,65.96,65.92,65.88,65.84,65.81,65.83,65.98,66.22,66.48,66.63,66.79,66.91,66.94,66.89,66.82,66.80,66.78,66.73,66.56,66.48,66.48,66.53,66.60,66.57,66.58,66.58,66.58,66.68,66.74,66.74,66.72,66.77,66.83,66.83,66.80,66.78,66.71,66.63,66.55,66.45,66.31,66.32,66.36,66.41,66.45,66.50,66.56,66.58,66.53,66.42,66.08,65.89,65.87,65.80,65.79,65.74,65.69,65.68,65.61,65.60,65.60,65.61,65.69,65.68,65.64,65.60,65.60,65.59,65.58,65.57,65.58,65.57,65.57,65.55,65.54,65.50,65.50,65.50,65.50,65.48,65.44,65.41,65.40,65.40,65.43,65.40,65.23,65.05,65.07,65.01,64.97,64.95,64.95,64.94,64.96,64.97,64.98,64.94
68.30,68.30,68.30,68.29,68.25,68.29,68.31,68.33,68.34,68.31,68.25,68.19,68.16,68.20,68.20,68.21,68.22,68.26,68.29,68.30,68.30,68.30,68.30,68.30,68.31,68.34,68.38,68.42,68.47,68.49,68.48,68.49,68.57,68.63,68.67,68.71,68.76,68.84,68.89,68.89,68.82,68.72,68.71,68.90,69.44,70.30,71.19,71.98,72.60,73.02,73.40,73.83,74.28,74.60,74.71,74.70,74.64,74.62,74.23,73.63,73.09,72.80,72.70,72.46,72.15,71.82,71.53,71.34,71.27,71.24,71.19,71.02,70.90,70.84,70.82,70.84,70.80,70.80,70.82,70.85,70.68,70.45,70.25,70.08,69.88,69.74,69.65,69.61,69.60,69.56,69.52,69.47,69.42,69.20,69.01,68.89,68.82,68.79,68.78,68.72,68.66,68.71,68.85,68.99,69.08,69.08,68.70,67.90,67.33,67.12,67.08,67.02,67.04,67.15,67.37,67.81,68.07,68.11,67.98,67.85,67.99,67.92,67.64,67.36,67.25,67.53,68.06,68.62,68.71,68.62,68.44,68.26,68.20,68.14,68.07,68.01,68.00,68.00,67.91,67.77,67.64,67.67,67.58,67.48,67.41,67.39,67.20,66.89,66.57,66.34,66.31,66.35,66.28,66.12,66.10,66.04,66.01,66.00,66.00,65.93,65.90,65.87,65.80,65.72,65.89,66.15,66.44,66.67,66.77,66.85,66.90,66.89,66.82,66.80,66.77,66.69,66.62,66.54,66.51,66.53,66.61,66.53,66.56,66.57,66.52,66.69,66.82,66.81,66.73,66.72,66.78,66.80,66.80,66.78,66.71,66.63,66.55,66.45,66.28,66.23,66.29,66.38,66.37,66.48,66.55,66.55,66.44,66.26,66.02,65.89,65.86,65.80,65.78,65.73,65.69,65.68,65.61,65.59,65.58,65.57,65.69,65.67,65.63,65.60,65.60,65.58,65.55,65.53,65.56,65.53,65.51,65.50,65.50,65.50,65.50,65.50,65.50,65.50,65.48,65.43,65.40,65.40,65.40,65.34,65.20,65.08,65.08,65.04,65.03,65.03,65.02,65.00,65.00,64.99,64.96,64.91
68.35,68.36,68.34,68.30,68.22,68.25,68.30,68.34,68.38,68.37,68.33,68.27,68.22,68.21,68.23,68.22,68.21,68.24,68.29,68.30,68.30,68.30,68.30,68.30,68.32,68.37,68.43,68.40,68.39,68.39,68.41,68.45,68.50,68.52,68.55,68.61,68.60,68.62,68.66,68.69,68.54,68.42,68.43,68.65,69.16,69.70,70.29,70.85,71.32,71.52,71.82,72.18,72.55,72.92,73.25,73.40,73.40,73.34,72.85,72.31,71.87,71.61,71.56,71.53,71.40,71.16,70.88,70.75,70.73,70.74,70.71,70.62,70.57,70.49,70.38,70.30,70.25,70.29,70.37,70.43,70.25,70.01,69.80,69.65,69.49,69.32,69.20,69.13,69.09,69.08,69.07,69.04,68.96,68.79,68.63,68.56,68.61,68.65,68.70,68.65,68.57,68.57,68.67,68.79,68.77,68.49,67.93,67.40,67.08,66.98,66.97,66.95,66.95,67.00,67.11,67.31,67.43,67.39,67.21,67.21,67.33,67.34,67.25,67.15,67.10,67.21,67.42,67.68,68.07,68.20,68.18,68.07,67.99,67.97,67.92,67.85,67.80,67.76,67.73,67.66,67.55,67.55,67.46,67.36,67.26,67.20,67.08,66.88,66.65,66.46,66.37,66.31,66.19,66.06,66.06,66.01,66.00,66.00,66.00,65.93,65.89,65.85,65.78,65.72,65.90,66.16,66.44,66.67,66.75,66.83,66.88,66.88,66.85,66.82,66.78,66.74,66.67,66.61,66.57,66.57,66.64,66.58,66.59,66.57,66.53,66.72,66.76,66.78,66.80,66.77,66.79,66.80,66.79,66.77,66.70,66.63,66.56,66.46,66.23,66.21,66.27,66.37,66.47,66.50,66.55,66.51,66.36,66.22,66.03,65.88,65.79,65.76,65.72,65.70,65.68,65.65,65.58,65.57,65.56,65.58,65.67,65.67,65.64,65.60,65.60,65.58,65.54,65.51,65.53,65.53,65.51,65.50,65.50,65.50,65.50,65.49,65.47,65.42,65.39,65.35,65.32,65.31,65.31,65.23,65.14,65.08,65.11,65.11,65.10,65.08,65.05,65.01,64.99,64.97,64.94,64.91
68.36,68.36,68.33,68.27,68.18,68.22,68.27,68.33,68.38,68.40,68.38,68.33,68.28,68.24,68.26,68.23,68.21,68.23,68.27,68.29,68.28,68.27,68.27,68.27,68.30,68.35,68.42,68.39,68.35,68.33,68.34,68.42,68.44,68.44,68.45,68.51,68.45,68.39,68.37,68.40,68.24,68.14,68.16,68.33,68.68,68.96,69.27,69.61,69.93,70.04,70.30,70.60,70.91,71.26,71.66,71.89,71.96,71.90,71.49,71.10,70.80,70.62,70.64,70.73,70.71,70.53,70.24,70.15,70.19,70.24,70.22,70.14,70.12,70.06,69.93,69.82,69.76,69.79,69.87,69.93,69.77,69.56,69.37,69.23,69.08,68.90,68.75,68.66,68.62,68.60,68.59,68.56,68.48,68.38,68.27,68.28,68.41,68.48,68.55,68.52,68.43,68.36,68.41,68.49,68.42,68.08,67.44,67.08,66.92,66.90,66.90,66.90,66.90,66.91,66.92,66.98,67.00,66.93,66.79,66.86,66.95,67.01,67.03,67.05,67.05,67.06,67.06,67.12,67.60,67.87,67.96,67.91,67.80,67.81,67.77,67.70,67.64,67.57,67.56,67.53,67.46,67.43,67.34,67.24,67.15,67.05,66.98,66.85,66.69,66.54,66.42,66.28,66.14,66.02,66.01,65.97,65.97,65.97,65.97,65.91,65.87,65.82,65.76,65.71,65.91,66.17,66.43,66.66,66.73,66.81,66.86,66.87,66.88,66.83,66.78,66.74,66.70,66.67,66.62,66.60,66.64,66.61,66.60,66.56,66.51,66.70,66.71,66.76,66.83,66.79,66.80,66.79,66.77,66.74,66.70,66.64,66.57,66.48,66.25,66.20,66.24,66.34,66.46,66.45,66.48,66.44,66.30,66.19,66.05,65.88,65.74,65.71,65.66,65.66,65.66,65.62,65.55,65.54,65.54,65.56,65.63,65.68,65.65,65.59,65.60,65.57,65.53,65.49,65.49,65.51,65.49,65.47,65.47,65.48,65.47,65.45,65.41,65.34,65.30,65.27,65.25,65.24,65.24,65.16,65.11,65.09,65.12,65.13,65.12,65.09,65.04,64.99,64.97,64.96,64.93,64.92
68.31,68.30,68.24,68.17,68.13,68.18,68.22,68.27,68.34,68.39,68.39,68.38,68.34,68.29,68.28,68.24,68.21,68.21,68.23,68.26,68.25,68.21,68.20,68.21,68.23,68.27,68.34,68.39,68.39,68.34,68.29,68.38,68.39,68.39,68.40,68.40,68.30,68.15,68.02,67.97,67.93,67.90,67.89,67.90,67.90,68.00,68.10,68.22,68.38,68.59,68.84,69.12,69.40,69.64,69.89,70.09,70.22,70.25,70.17,70.05,69.96,69.92,70.03,70.12,70.10,69.93,69.61,69.54,69.66,69.77,69.70,69.55,69.51,69.49,69.45,69.40,69.35,69.32,69.31,69.30,69.22,69.10,68.97,68.82,68.64,68.48,68.33,68.23,68.19,68.13,68.05,67.99,67.97,67.97,67.96,68.05,68.23,68.29,68.29,68.28,68.23,68.07,68.04,68.05,68.03,67.92,67.36,67.04,66.90,66.90,66.90,66.90,66.90,66.89,66.84,66.86,66.88,66.87,66.85,66.94,67.00,67.05,67.08,67.12,67.12,67.14,67.14,67.10,67.35,67.65,67.80,67.77,67.64,67.66,67.62,67.56,67.53,67.47,67.42,67.38,67.34,67.30,67.20,67.14,67.08,66.95,66.89,66.80,66.68,66.56,66.44,66.27,66.12,66.00,65.93,65.91,65.91,65.91,65.91,65.87,65.83,65.78,65.72,65.70,65.91,66.16,66.40,66.63,66.72,66.80,66.85,66.86,66.90,66.84,66.76,66.71,66.70,66.70,66.66,66.61,66.61,66.60,66.60,66.55,66.47,66.63,66.68,66.75,66.80,66.75,66.79,66.77,66.74,66.71,66.69,66.64,66.59,66.54,66.35,66.20,66.20,66.26,66.30,66.28,66.32,66.32,66.24,66.19,66.09,65.90,65.69,65.64,65.62,65.62,65.63,65.59,65.52,65.51,65.51,65.52,65.58,65.69,65.65,65.56,65.59,65.54,65.51,65.47,65.44,65.44,65.43,65.41,65.39,65.42,65.38,65.35,65.31,65.24,65.22,65.21,65.20,65.19,65.20,65.17,65.13,65.10,65.11,65.11,65.08,65.03,64.99,64.94,64.94,64.95,64.94,64.93
68.33,68.29,68.19,68.11,68.07,68.14,68.19,68.25,68.32,68.36,68.39,68.39,68.36,68.31,68.29,68.27,68.24,68.22,68.24,68.23,68.19,68.14,68.13,68.16,68.18,68.22,68.28,68.33,68.33,68.30,68.27,68.31,68.32,68.32,68.30,68.25,68.12,67.99,67.90,67.89,67.91,67.92,67.91,67.89,67.86,67.90,67.95,68.03,68.13,68.26,68.40,68.57,68.75,68.92,69.13,69.34,69.50,69.55,69.53,69.45,69.34,69.22,69.24,69.30,69.28,69.16,68.93,68.88,68.96,69.03,68.95,68.93,69.03,69.13,69.17,69.18,69.15,69.07,68.95,68.85,68.81,68.76,68.67,68.54,68.36,68.21,68.07,67.97,67.93,67.91,67.83,67.76,67.74,67.80,67.81,67.89,68.05,68.11,68.08,68.07,68.04,67.91,67.87,67.84,67.82,67.73,67.30,67.03,66.91,66.90,66.90,66.90,66.90,66.89,66.85,66.85,66.86,66.86,66.88,66.96,67.02,67.08,67.13,67.16,67.17,67.19,67.18,67.11,67.20,67.47,67.65,67.68,67.57,67.57,67.51,67.44,67.42,67.35,67.31,67.27,67.22,67.19,67.10,67.02,66.94,66.84,66.80,66.68,66.54,66.45,66.32,66.22,66.13,66.03,65.90,65.84,65.80,65.78,65.77,65.78,65.81,65.82,65.78,65.71,65.92,66.15,66.36,66.56,66.72,66.84,66.91,66.92,66.95,66.86,66.76,66.70,66.70,66.67,66.64,66.63,66.64,66.61,66.60,66.55,66.48,66.60,66.65,66.68,66.71,66.68,66.77,66.76,66.71,66.70,66.70,66.69,66.65,66.55,66.38,66.20,66.17,66.21,66.19,66.18,66.20,66.20,66.17,66.15,66.09,65.92,65.72,65.66,65.65,65.65,65.64,65.59,65.55,65.55,65.55,65.55,65.59,65.64,65.60,65.53,65.54,65.52,65.50,65.47,65.43,65.45,65.42,65.37,65.34,65.35,65.33,65.32,65.29,65.24,65.20,65.16,65.15,65.16,65.19,65.17,65.13,65.08,65.05,65.04,65.01,64.98,64.97,64.92,64.93,64.95,64.95,64.93
68.35,68.28,68.17,68.07,68.03,68.11,68.19,68.26,68.31,68.34,68.40,68.41,68.37,68.33,68.30,68.29,68.27,68.25,68.25,68.20,68.12,68.06,68.06,68.11,68.14,68.18,68.22,68.26,68.24,68.24,68.25,68.26,68.25,68.23,68.17,68.08,67.96,67.89,67.88,67.91,67.97,67.99,68.00,67.99,67.99,68.01,68.04,68.10,68.20,68.23,68.25,68.30,68.38,68.47,68.65,68.85,69.01,69.04,69.04,68.96,68.82,68.62,68.56,68.58,68.56,68.49,68.37,68.34,68.37,68.38,68.30,68.42,68.67,68.86,68.96,69.02,69.00,68.87,68.68,68.51,68.48,68.47,68.43,68.32,68.15,68.02,67.90,67.79,67.75,67.77,67.72,67.65,67.61,67.68,67.70,67.76,67.88,67.94,67.90,67.89,67.88,67.81,67.76,67.73,67.68,67.59,67.31,67.07,66.94,66.90,66.91,66.91,66.91,66.91,66.89,66.88,66.88,66.89,66.91,66.97,67.04,67.11,67.16,67.19,67.20,67.21,67.20,67.13,67.10,67.31,67.50,67.57,67.51,67.48,67.41,67.35,67.32,67.24,67.19,67.14,67.08,67.05,66.97,66.87,66.78,66.70,66.68,66.54,66.39,66.33,66.21,66.18,66.13,66.02,65.85,65.77,65.69,65.63,65.63,65.69,65.79,65.85,65.83,65.72,65.93,66.15,66.33,66.50,66.71,66.87,66.97,66.98,66.99,66.87,66.76,66.70,66.69,66.64,66.61,66.62,66.67,66.61,66.60,66.56,66.51,66.59,66.61,66.63,66.64,66.63,66.75,66.74,66.70,66.69,66.67,66.70,66.67,66.56,66.41,66.20,66.14,66.15,66.09,66.08,66.07,66.07,66.07,66.07,66.03,65.91,65.76,65.70,65.70,65.68,65.65,65.60,65.60,65.60,65.60,65.60,65.60,65.59,65.55,65.50,65.51,65.51,65.50,65.47,65.44,65.48,65.43,65.38,65.33,65.32,65.30,65.29,65.28,65.26,65.19,65.13,65.11,65.14,65.19,65.17,65.12,65.05,65.00,64.98,64.95,64.95,64.97,64.92,64.92,64.94,64.96,64.93
68.31,68.27,68.17,68.08,68.07,68.15,68.22,68.28,68.34,68.40,68.45,68.43,68.39,68.36,68.31,68.28,68.27,68.28,68.24,68.11,68.01,67.96,67.99,68.04,68.09,68.14,68.19,68.22,68.19,68.18,68.21,68.26,68.22,68.11,67.99,67.91,67.92,67.96,67.99,68.01,68.05,68.07,68.11,68.14,68.16,68.14,68.14,68.19,68.33,68.38,68.33,68.29,68.27,68.27,68.34,68.41,68.47,68.49,68.51,68.50,68.46,68.40,68.37,68.38,68.37,68.34,68.28,68.28,68.30,68.29,68.20,68.30,68.57,68.79,68.89,68.92,68.88,68.73,68.54,68.38,68.30,68.28,68.27,68.24,68.08,67.96,67.87,67.80,67.75,67.76,67.73,67.67,67.59,67.58,67.59,67.65,67.75,67.80,67.81,67.82,67.81,67.77,67.73,67.71,67.69,67.66,67.51,67.22,67.00,66.91,66.94,66.96,66.97,66.97,66.96,66.96,66.96,66.96,66.98,67.03,67.08,67.12,67.17,67.20,67.20,67.20,67.18,67.12,67.10,67.20,67.33,67.42,67.39,67.33,67.30,67.30,67.30,67.15,67.05,66.95,66.84,66.77,66.72,66.66,66.58,66.50,66.44,66.37,66.31,66.25,66.20,66.19,66.08,65.89,65.76,65.68,65.57,65.49,65.53,65.60,65.72,65.80,65.79,65.66,65.92,66.15,66.32,66.49,66.71,66.85,66.93,66.98,66.93,66.81,66.72,66.69,66.63,66.61,66.57,66.56,66.62,66.60,66.60,66.59,66.57,66.60,66.60,66.64,66.68,66.67,66.71,66.71,66.68,66.62,66.56,66.56,66.57,66.56,66.46,66.21,66.10,66.08,66.03,66.01,65.93,65.88,65.87,65.87,65.82,65.77,65.73,65.73,65.72,65.68,65.63,65.62,65.62,65.62,65.64,65.66,65.61,65.58,65.54,65.52,65.55,65.56,65.52,65.49,65.48,65.50,65.51,65.51,65.49,65.43,65.32,65.26,65.24,65.24,65.14,65.11,65.11,65.14,65.17,65.13,65.08,65.04,64.98,64.98,64.99,65.00,65.01,64.98,64.93,64.92,64.94,64.92
68.30,68.27,68.19,68.13,68.13,68.21,68.28,68.32,68.37,68.43,68.47,68.44,68.39,68.37,68.31,68.27,68.25,68.23,68.11,67.98,67.91,67.91,67.94,67.98,68.04,68.08,68.11,68.14,68.13,68.12,68.11,68.13,68.07,67.98,67.90,67.89,67.96,68.02,68.06,68.07,68.10,68.13,68.17,68.20,68.22,68.21,68.20,68.24,68.34,68.43,68.40,68.32,68.24,68.20,68.20,68.21,68.23,68.27,68.31,68.32,68.32,68.33,68.33,68.33,68.31,68.29,68.26,68.27,68.28,68.27,68.20,68.25,68.44,68.58,68.62,68.62,68.57,68.47,68.34,68.24,68.18,68.17,68.16,68.14,67.97,67.86,67.82,67.81,67.76,67.72,67.70,67.66,67.55,67.49,67.52,67.58,67.66,67.71,67.75,67.77,67.76,67.73,67.73,67.72,67.70,67.64,67.52,67.23,67.00,66.91,66.94,66.97,66.99,66.99,66.99,66.99,66.99,67.00,67.02,67.07,67.09,67.13,67.17,67.20,67.20,67.20,67.18,67.15,67.14,67.16,67.21,67.27,67.27,67.24,67.20,67.17,67.11,66.97,66.90,66.84,66.75,66.66,66.60,66.56,66.50,66.45,66.37,66.29,66.22,66.17,66.19,66.19,66.07,65.85,65.69,65.62,65.53,65.47,65.49,65.58,65.67,65.71,65.69,65.62,65.91,66.15,66.32,66.48,66.68,66.80,66.87,66.91,66.86,66.76,66.68,66.64,66.59,66.58,66.57,66.57,66.60,66.60,66.61,66.60,66.57,66.60,66.60,66.62,66.65,66.65,66.69,66.71,66.68,66.59,66.52,66.49,66.51,66.53,66.47,66.24,66.08,66.01,66.00,65.98,65.94,65.89,65.84,65.84,65.81,65.79,65.82,65.87,65.86,65.77,65.69,65.67,65.68,65.68,65.69,65.70,65.64,65.57,65.51,65.49,65.52,65.56,65.53,65.50,65.50,65.50,65.50,65.51,65.51,65.44,65.31,65.24,65.21,65.21,65.13,65.10,65.11,65.13,65.15,65.09,65.04,65.01,64.96,64.96,64.99,65.02,65.03,65.01,64.96,64.94,64.95,64.93
68.30,68.28,68.23,68.19,68.21,68.29,68.35,68.39,68.40,68.44,68.47,68.44,68.39,68.37,68.31,68.27,68.22,68.12,67.93,67.84,67.84,67.90,67.91,67.94,67.98,68.02,68.02,68.05,68.07,68.05,67.99,67.93,67.87,67.84,67.87,67.95,68.05,68.09,68.10,68.10,68.13,68.17,68.19,68.20,68.21,68.23,68.24,68.25,68.27,68.40,68.45,68.38,68.25,68.21,68.17,68.15,68.16,68.24,68.29,68.30,68.31,68.34,68.38,68.37,68.33,68.30,68.30,68.30,68.30,68.29,68.25,68.25,68.28,68.29,68.25,68.21,68.17,68.14,68.11,68.10,68.10,68.10,68.08,68.02,67.86,67.75,67.74,67.80,67.78,67.68,67.65,67.62,67.52,67.42,67.47,67.55,67.61,67.65,67.73,67.75,67.72,67.71,67.75,67.74,67.69,67.58,67.40,67.15,66.97,66.90,66.91,66.96,66.99,67.00,67.00,67.00,67.00,67.02,67.06,67.08,67.10,67.13,67.17,67.20,67.20,67.19,67.19,67.20,67.20,67.16,67.12,67.12,67.16,67.18,67.11,66.98,66.84,66.75,66.75,66.77,66.75,66.64,66.56,66.52,66.49,66.48,66.38,66.25,66.13,66.09,66.16,66.18,66.08,65.87,65.64,65.58,65.53,65.50,65.48,65.61,65.63,65.60,65.54,65.58,65.90,66.16,66.32,66.47,66.64,66.74,66.79,66.80,66.78,66.72,66.64,66.58,66.57,66.54,66.58,66.62,66.60,66.60,66.62,66.60,66.54,66.59,66.60,66.60,66.60,66.60,66.67,66.71,66.69,66.59,66.52,66.49,66.47,66.47,66.45,66.28,66.07,65.93,66.00,65.99,66.03,66.02,65.92,65.92,65.91,65.92,65.96,66.07,66.05,65.91,65.77,65.74,65.75,65.75,65.74,65.72,65.67,65.54,65.47,65.44,65.43,65.52,65.52,65.50,65.50,65.48,65.43,65.43,65.45,65.41,65.29,65.22,65.20,65.19,65.14,65.11,65.10,65.11,65.13,65.06,65.01,64.98,64.93,64.93,64.97,65.02,65.05,65.02,64.98,64.97,64.98,64.93
68.30,68.29,68.27,68.26,68.28,68.36,68.43,68.46,68.46,68.47,68.44,68.41,68.39,68.38,68.31,68.28,68.22,68.10,67.91,67.84,67.85,67.90,67.92,67.95,67.95,67.94,67.94,67.96,68.00,67.99,67.93,67.85,67.83,67.83,67.88,67.98,68.02,68.05,68.07,68.10,68.11,68.12,68.13,68.14,68.14,68.16,68.20,68.24,68.26,68.31,68.32,68.29,68.22,68.20,68.19,68.19,68.22,68.27,68.31,68.33,68.33,68.34,68.38,68.39,68.36,68.33,68.30,68.30,68.30,68.29,68.25,68.25,68.24,68.20,68.14,68.13,68.10,68.08,68.08,68.10,68.10,68.07,68.02,67.92,67.78,67.67,67.65,67.71,67.78,67.75,67.72,67.66,67.54,67.44,67.46,67.54,67.62,67.66,67.70,67.71,67.71,67.74,67.69,67.60,67.47,67.30,67.14,67.02,66.94,66.92,66.96,67.02,67.04,67.03,67.01,66.99,66.97,66.97,67.00,67.02,67.06,67.10,67.13,67.17,67.17,67.17,67.17,67.21,67.21,67.20,67.18,67.15,67.12,67.12,67.04,66.91,66.80,66.74,66.72,66.69,66.66,66.60,66.55,66.49,66.42,66.38,66.36,66.27,66.15,66.04,66.09,66.08,65.98,65.79,65.58,65.51,65.48,65.47,65.46,65.55,65.54,65.50,65.46,65.57,65.91,66.17,66.32,66.45,66.61,66.71,66.76,66.76,66.73,66.63,66.55,66.53,66.55,66.59,66.62,66.62,66.57,66.54,66.57,66.58,66.55,66.59,66.60,66.60,66.60,66.60,66.65,66.69,66.69,66.61,66.61,66.60,66.57,66.53,66.42,66.28,66.09,65.95,65.97,66.05,66.16,66.19,66.11,66.11,66.06,66.04,66.07,66.14,66.06,65.88,65.74,65.76,65.70,65.72,65.74,65.72,65.67,65.52,65.44,65.42,65.43,65.52,65.52,65.50,65.49,65.45,65.40,65.41,65.46,65.42,65.29,65.23,65.21,65.23,65.16,65.09,65.06,65.08,65.12,65.10,65.04,64.97,64.94,64.96,64.98,65.01,65.02,65.00,64.96,64.94,64.94,64.91
68.31,68.29,68.28,68.30,68.33,68.40,68.45,68.47,68.47,68.46,68.42,68.40,68.40,68.39,68.33,68.28,68.19,68.07,67.90,67.86,67.87,67.90,67.92,67.93,67.90,67.87,67.87,67.88,67.92,67.92,67.88,67.81,67.80,67.83,67.88,67.97,67.99,68.02,68.05,68.09,68.09,68.09,68.09,68.09,68.09,68.10,68.15,68.21,68.24,68.26,68.27,68.25,68.22,68.20,68.19,68.20,68.22,68.27,68.32,68.33,68.33,68.33,68.37,68.38,68.37,68.34,68.30,68.30,68.30,68.29,68.25,68.25,68.20,68.14,68.07,68.08,68.06,68.06,68.08,68.10,68.08,68.05,67.97,67.84,67.70,67.60,67.58,67.65,67.75,67.79,67.76,67.70,67.59,67.48,67.45,67.50,67.59,67.63,67.65,67.65,67.64,67.66,67.54,67.38,67.22,67.07,66.99,66.96,66.94,66.95,67.01,67.06,67.06,67.03,66.99,66.96,66.93,66.92,66.94,66.97,67.03,67.08,67.11,67.12,67.15,67.17,67.20,67.26,67.25,67.26,67.23,67.17,67.09,67.07,66.97,66.84,66.75,66.71,66.66,66.62,66.59,66.56,66.53,66.45,66.34,66.28,66.29,66.25,66.13,65.97,65.97,65.96,65.87,65.72,65.54,65.48,65.46,65.46,65.48,65.55,65.52,65.48,65.46,65.57,65.93,66.18,66.30,66.40,66.53,66.62,66.67,66.67,66.63,66.52,66.47,66.49,66.56,66.62,66.63,66.60,66.53,66.47,66.52,66.56,66.56,66.60,66.60,66.60,66.59,66.56,66.60,66.68,66.72,66.67,66.68,66.66,66.62,66.56,66.43,66.28,66.11,65.98,65.94,66.08,66.22,66.28,66.24,66.21,66.14,66.11,66.14,66.16,66.05,65.85,65.71,65.75,65.64,65.69,65.73,65.71,65.65,65.51,65.43,65.41,65.41,65.51,65.52,65.50,65.49,65.44,65.39,65.40,65.44,65.40,65.32,65.25,65.23,65.23,65.16,65.08,65.04,65.05,65.10,65.10,65.05,64.98,64.96,64.98,64.99,65.00,65.00,64.99,64.96,64.93,64.91,64.89
68.35,68.26,68.25,68.29,68.34,68.39,68.41,68.41,68.41,68.41,68.40,68.40,68.40,68.41,68.37,68.26,68.14,68.03,67.90,67.89,67.90,67.90,67.90,67.88,67.84,67.81,67.81,67.81,67.82,67.83,67.83,67.80,67.81,67.83,67.87,67.93,67.97,68.00,68.04,68.07,68.07,68.07,68.07,68.07,68.06,68.07,68.09,68.14,68.21,68.26,68.29,68.28,68.25,68.20,68.18,68.17,68.17,68.23,68.29,68.30,68.30,68.31,68.33,68.35,68.35,68.33,68.30,68.30,68.30,68.29,68.25,68.24,68.18,68.10,68.05,68.07,68.07,68.08,68.10,68.10,68.06,68.03,67.94,67.77,67.60,67.53,67.54,67.61,67.71,67.76,67.76,67.72,67.68,67.54,67.43,67.42,67.49,67.55,67.58,67.56,67.50,67.44,67.27,67.06,66.92,66.90,66.96,66.98,67.00,67.01,67.06,67.06,67.04,67.00,66.96,66.90,66.87,66.87,66.90,66.93,67.01,67.07,67.09,67.07,67.12,67.20,67.30,67.37,67.34,67.34,67.29,67.19,67.09,67.03,66.91,66.77,66.67,66.63,66.59,66.56,66.54,66.52,66.49,66.38,66.24,66.17,66.18,66.16,66.07,65.89,65.82,65.80,65.74,65.64,65.53,65.50,65.48,65.49,65.55,65.63,65.60,65.56,65.56,65.59,65.95,66.18,66.26,66.33,66.39,66.46,66.51,66.50,66.45,66.38,66.38,66.45,66.57,66.61,66.58,66.53,66.50,66.38,66.44,66.53,66.58,66.60,66.60,66.60,66.57,66.47,66.52,66.67,66.79,66.78,66.73,66.66,66.61,66.57,66.47,66.28,66.13,66.02,65.92,66.07,66.18,66.25,66.28,66.22,66.14,66.14,66.16,66.11,66.00,65.83,65.69,65.69,65.58,65.64,65.70,65.68,65.60,65.52,65.47,65.43,65.36,65.48,65.51,65.50,65.50,65.47,65.42,65.39,65.39,65.34,65.35,65.31,65.25,65.19,65.12,65.08,65.05,65.03,65.08,65.04,65.01,65.00,64.99,65.00,65.00,65.00,65.00,65.00,64.98,64.94,64.90,64.87
68.32,68.29,68.29,68.32,68.35,68.37,68.39,68.39,68.37,68.38,68.39,68.39,68.39,68.41,68.38,68.24,68.09,67.98,67.89,67.89,67.90,67.90,67.90,67.88,67.83,67.80,67.80,67.81,67.83,67.85,67.85,67.82,67.82,67.85,67.88,67.91,67.94,67.98,68.02,68.03,68.03,68.03,68.03,68.02,68.00,68.00,68.04,68.09,68.16,68.22,68.27,68.29,68.25,68.19,68.16,68.15,68.17,68.22,68.28,68.30,68.30,68.30,68.31,68.32,68.32,68.31,68.30,68.30,68.30,68.29,68.25,68.21,68.14,68.09,68.09,68.12,68.10,68.09,68.10,68.08,68.04,68.01,67.93,67.75,67.55,67.49,67.53,67.61,67.68,67.70,67.71,67.70,67.66,67.51,67.41,67.41,67.49,67.53,67.49,67.38,67.25,67.17,67.04,66.91,66.84,66.87,66.93,66.97,66.99,67.01,67.02,67.00,66.95,66.88,66.84,66.83,66.84,66.88,66.93,66.92,67.03,67.09,67.11,67.11,67.17,67.27,67.35,67.40,67.41,67.44,67.38,67.23,67.11,66.98,66.85,66.73,66.64,66.58,66.54,66.52,66.52,66.51,66.49,66.40,66.27,66.18,66.12,66.06,65.98,65.84,65.76,65.71,65.65,65.56,65.47,65.46,65.45,65.48,65.61,65.67,65.61,65.55,65.54,65.59,65.95,66.17,66.22,66.26,66.28,66.34,66.36,66.29,66.30,66.30,66.35,66.43,66.53,66.55,66.56,66.55,66.50,66.36,66.39,66.48,66.54,66.59,66.50,66.44,66.44,66.42,66.53,66.69,66.80,66.79,66.72,66.64,66.60,66.57,66.45,66.30,66.17,66.04,65.91,65.98,66.06,66.13,66.19,66.20,66.14,66.11,66.11,66.03,65.91,65.75,65.63,65.60,65.58,65.62,65.65,65.64,65.62,65.52,65.43,65.36,65.29,65.42,65.48,65.49,65.48,65.43,65.37,65.35,65.34,65.31,65.31,65.27,65.20,65.16,65.11,65.09,65.06,65.04,65.10,65.09,65.04,64.97,64.95,64.96,64.98,64.98,64.96,64.92,64.90,64.87,64.84,64.83
68.25,68.26,68.29,68.31,68.31,68.33,68.35,68.35,68.32,68.33,68.36,68.35,68.35,68.38,68.36,68.22,68.06,67.93,67.86,67.88,67.90,67.90,67.90,67.88,67.84,67.81,67.80,67.83,67.86,67.88,67.88,67.85,67.83,67.86,67.89,67.89,67.91,67.95,67.98,67.99,67.99,67.99,67.98,67.96,67.94,67.95,67.99,68.05,68.11,68.17,68.24,68.27,68.24,68.17,68.14,68.13,68.16,68.22,68.27,68.28,68.27,68.27,68.27,68.27,68.27,68.28,68.29,68.28,68.28,68.26,68.22,68.15,68.07,68.05,68.09,68.15,68.11,68.08,68.06,68.02,67.98,67.96,67.89,67.73,67.52,67.47,67.51,67.60,67.64,67.64,67.66,67.67,67.61,67.48,67.40,67.40,67.46,67.47,67.36,67.19,67.02,66.95,66.88,66.82,66.80,66.86,66.90,66.95,66.98,66.99,66.96,66.91,66.83,66.75,66.73,66.77,66.83,66.90,66.96,66.94,67.04,67.10,67.12,67.15,67.21,67.29,67.37,67.42,67.46,67.51,67.44,67.26,67.12,66.94,66.80,66.69,66.61,66.55,66.51,66.50,66.50,66.50,66.49,66.42,66.31,66.22,66.07,65.97,65.89,65.81,65.73,65.66,65.59,65.52,65.44,65.41,65.40,65.44,65.60,65.64,65.56,65.49,65.48,65.56,65.93,66.14,66.16,66.16,66.17,66.21,66.22,66.14,66.20,66.25,66.31,66.38,66.49,66.50,66.54,66.57,66.49,66.35,66.33,66.39,66.47,66.56,66.41,66.31,66.31,66.37,66.50,66.65,66.76,66.75,66.66,66.59,66.56,66.54,66.42,66.33,66.21,66.05,65.89,65.90,65.95,66.02,66.10,66.16,66.12,66.08,66.04,65.96,65.82,65.68,65.58,65.56,65.61,65.60,65.60,65.61,65.62,65.50,65.39,65.30,65.26,65.37,65.44,65.46,65.45,65.39,65.33,65.31,65.29,65.28,65.26,65.22,65.17,65.15,65.13,65.10,65.06,65.05,65.14,65.15,65.06,64.94,64.90,64.92,64.96,64.95,64.88,64.80,64.79,64.79,64.79,64.80
68.08,68.09,68.12,68.15,68.16,68.21,68.25,68.24,68.20,68.22,68.26,68.27,68.26,68.28,68.28,68.21,68.06,67.87,67.81,67.87,67.90,67.90,67.90,67.89,67.86,67.83,67.82,67.86,67.88,67.90,67.89,67.87,67.84,67.85,67.87,67.84,67.85,67.88,67.92,67.96,67.97,67.95,67.93,67.92,67.91,67.92,67.95,68.00,68.07,68.12,68.17,68.20,68.19,68.13,68.09,68.09,68.13,68.21,68.21,68.18,68.17,68.17,68.17,68.16,68.17,68.20,68.23,68.21,68.18,68.14,68.10,68.00,67.90,67.86,67.92,68.04,68.06,68.01,67.93,67.87,67.83,67.80,67.75,67.67,67.52,67.47,67.49,67.54,67.58,67.60,67.61,67.60,67.56,67.50,67.42,67.37,67.33,67.23,67.13,67.03,66.95,66.91,66.86,66.82,66.80,66.82,66.86,66.93,66.96,66.94,66.92,66.76,66.66,66.64,66.69,66.76,66.83,66.90,66.97,66.98,67.05,67.09,67.11,67.16,67.16,67.22,67.31,67.42,67.46,67.48,67.40,67.23,67.08,66.92,66.76,66.65,66.60,66.54,66.51,66.49,66.49,66.50,66.46,66.41,66.35,66.24,66.04,65.90,65.82,65.78,65.72,65.66,65.61,65.57,65.50,65.39,65.34,65.33,65.37,65.43,65.40,65.34,65.32,65.49,65.86,66.02,65.97,65.95,66.00,66.04,66.10,66.18,66.25,66.24,66.23,66.27,66.47,66.50,66.54,66.56,66.48,66.33,66.21,66.20,66.32,66.43,66.43,66.36,66.28,66.26,66.30,66.45,66.59,66.59,66.47,66.43,66.45,66.48,66.46,66.38,66.25,66.07,65.85,65.87,65.91,65.97,66.05,66.11,66.09,66.04,65.99,65.91,65.80,65.68,65.62,65.64,65.65,65.61,65.58,65.58,65.53,65.45,65.39,65.36,65.32,65.38,65.40,65.39,65.38,65.37,65.33,65.30,65.27,65.22,65.22,65.21,65.21,65.22,65.18,65.11,65.07,65.06,65.17,65.14,65.04,64.93,64.90,64.92,64.92,64.86,64.70,64.57,64.64,64.71,64.76,64.78
67.96,67.95,67.96,67.96,67.95,67.98,68.00,68.01,68.02,68.03,68.04,68.02,68.03,68.15,68.14,68.09,68.00,67.87,67.84,67.87,67.88,67.88,67.90,67.89,67.85,67.83,67.83,67.89,67.92,67.92,67.89,67.86,67.79,67.77,67.79,67.80,67.79,67.82,67.86,67.90,67.94,67.92,67.90,67.88,67.86,67.86,67.88,67.90,67.94,67.96,67.97,67.97,67.96,67.93,67.93,67.92,67.92,67.95,67.93,67.91,67.92,67.96,67.98,67.98,67.98,67.98,67.97,67.94,67.92,67.90,67.85,67.76,67.68,67.65,67.67,67.77,67.82,67.81,67.77,67.73,67.69,67.65,67.58,67.48,67.35,67.36,67.43,67.52,67.57,67.61,67.62,67.58,67.50,67.43,67.33,67.25,67.19,67.07,66.99,66.94,66.91,66.90,66.86,66.82,66.80,66.80,66.85,66.91,66.93,66.91,66.90,66.74,66.65,66.64,66.72,66.80,66.87,66.92,66.95,66.95,66.98,66.99,66.98,67.02,67.08,67.15,67.23,67.29,67.32,67.30,67.23,67.13,67.02,66.88,66.74,66.63,66.60,66.54,66.51,66.48,66.44,66.48,66.43,66.41,66.37,66.24,66.01,65.86,65.76,65.71,65.69,65.64,65.61,65.60,65.51,65.38,65.31,65.29,65.28,65.34,65.36,65.36,65.36,65.49,65.80,65.91,65.86,65.85,65.92,65.99,66.08,66.18,66.22,66.21,66.16,66.14,66.27,66.35,66.43,66.46,66.42,66.27,66.13,66.09,66.18,66.25,66.31,66.29,66.24,66.22,66.22,66.29,66.39,66.46,66.36,66.34,66.35,66.37,66.40,66.34,66.22,66.07,65.88,65.85,65.87,65.93,66.02,66.07,66.05,66.01,65.95,65.87,65.76,65.66,65.61,65.64,65.61,65.55,65.53,65.53,65.48,65.42,65.38,65.36,65.34,65.36,65.36,65.35,65.35,65.33,65.31,65.29,65.27,65.20,65.20,65.21,65.22,65.25,65.19,65.12,65.07,65.06,65.15,65.12,65.03,64.95,64.92,64.93,64.93,64.86,64.71,64.61,64.66,64.72,64.74,64.75
67.88,67.83,67.80,67.78,67.72,67.72,67.69,67.73,67.82,67.82,67.78,67.71,67.73,68.00,67.98,67.93,67.90,67.89,67.90,67.88,67.85,67.84,67.89,67.87,67.83,67.81,67.84,67.91,67.95,67.94,67.89,67.84,67.72,67.66,67.68,67.77,67.74,67.77,67.81,67.83,67.89,67.89,67.87,67.83,67.78,67.78,67.78,67.78,67.78,67.75,67.72,67.68,67.66,67.66,67.71,67.69,67.63,67.59,67.55,67.56,67.61,67.71,67.75,67.76,67.74,67.70,67.64,67.60,67.60,67.59,67.54,67.48,67.46,67.44,67.41,67.44,67.51,67.56,67.59,67.61,67.57,67.51,67.41,67.25,67.12,67.19,67.34,67.51,67.59,67.64,67.64,67.58,67.44,67.31,67.19,67.10,67.04,66.97,66.91,66.88,66.88,66.89,66.86,66.83,66.81,66.81,66.85,66.88,66.90,66.90,66.90,66.78,66.71,66.71,66.79,66.87,66.93,66.94,66.91,66.88,66.89,66.85,66.80,66.82,66.98,67.08,67.12,67.09,67.11,67.05,67.00,66.98,66.95,66.85,66.72,66.63,66.60,66.53,66.51,66.45,66.38,66.45,66.41,66.40,66.38,66.23,66.00,65.82,65.70,65.62,65.64,65.62,65.62,65.61,65.50,65.37,65.31,65.29,65.26,65.32,65.39,65.45,65.48,65.54,65.73,65.81,65.78,65.80,65.88,66.00,66.10,66.15,66.16,66.15,66.10,66.01,66.00,66.14,66.25,66.31,66.34,66.20,66.07,66.01,66.04,66.04,66.11,66.17,66.20,66.21,66.20,66.15,66.17,66.34,66.31,66.30,66.28,66.26,66.29,66.25,66.17,66.05,65.94,65.83,65.83,65.90,66.00,66.03,66.01,65.97,65.92,65.83,65.73,65.65,65.60,65.59,65.54,65.48,65.46,65.47,65.44,65.40,65.36,65.34,65.34,65.34,65.32,65.32,65.34,65.30,65.28,65.28,65.27,65.21,65.20,65.21,65.22,65.25,65.20,65.13,65.07,65.05,65.12,65.10,65.04,64.99,64.96,64.96,64.94,64.89,64.81,64.78,64.78,64.76,64.73,64.71
