69.13,69.09,69.05,69.00,68.91,69.01,69.10,69.11,69.11,69.07,69.02,68.89,68.55,68.39,68.37,68.39,68.37,68.42,68.54,68.66,68.77,68.91,68.84,68.76,68.73,68.77,68.71,68.64,68.57,68.49,68.47,68.46,68.44,68.40,68.34,68.30,68.33,68.37,68.38,68.41,68.43,68.39,68.26,67.99,67.59,67.14,66.58,65.80,64.98,64.92,65.56,66.61,66.95,67.40,67.82,68.14,68.26,68.27,68.29,68.30,68.29,68.28,68.34,68.40,68.43,68.44,68.46,68.46,68.44,68.37,68.36,68.35,68.31,68.24,68.18,68.19,68.21,68.21,68.19,68.19,68.20,68.19,68.18,68.21,68.24,68.19,68.03,67.77,67.56,67.35,67.15,67.05,67.08,67.12,67.15,67.15,67.09,67.09,67.10,67.12,67.15,67.24,67.32,67.41,67.51,67.64,67.83,67.98,68.05,68.05,68.07,68.06,68.04,68.07,68.13,68.17,68.20,68.23,68.27,68.29,68.31,68.33,68.34,68.32,68.44,68.69,68.98,69.10,69.14,69.12,69.10,69.16,69.21,69.23,69.21,69.16,69.09,69.05,69.04,69.05,68.88,68.93,69.03,69.11,69.14,69.16,69.17,69.19,69.24,69.24,69.25,69.25,69.22,69.21,69.17,69.15,69.15,69.17,69.17,69.17,69.17,69.16,69.14,69.13,69.10,69.03,69.00,69.00,68.99,68.97,68.95,68.92,68.90,68.88,68.85,68.84,68.76,68.71,68.70,68.72,68.67,68.63,68.62,68.65,68.63,68.64,68.62,68.58,68.59,68.55,68.54,68.55,68.53,68.53,68.51,68.52,68.56,68.60,68.55,68.52,68.50,68.50,68.50,68.55,68.59,68.60,68.57,68.57,68.56,68.56,68.60,68.61,68.59,68.53,68.47,68.48,68.46,68.43,68.41,68.45,68.48,68.52,68.55,68.55,68.49,68.47,68.47,68.47,68.44,68.43,68.43,68.43,68.47,68.27,68.10,68.02,68.02,68.02,68.02,68.08,68.17,68.15,68.16,68.14,68.06,67.86,67.79,67.81,67.86,67.89,67.83,67.83,67.85,67.84,67.82,67.81
68.67,68.65,68.64,68.59,68.58,68.70,68.79,68.79,68.78,68.73,68.72,68.65,68.30,68.27,68.31,68.32,68.28,68.39,68.50,68.60,68.69,68.86,68.85,68.76,68.70,68.73,68.71,68.66,68.58,68.49,68.49,68.47,68.43,68.37,68.33,68.28,68.28,68.30,68.31,68.32,68.31,68.24,68.06,67.60,67.12,66.73,66.24,65.39,64.81,65.18,66.07,67.09,67.41,67.70,67.98,68.20,68.30,68.30,68.31,68.32,68.31,68.28,68.35,68.41,68.45,68.48,68.48,68.45,68.41,68.33,68.28,68.28,68.27,68.21,68.17,68.18,68.19,68.19,68.19,68.21,68.22,68.21,68.17,68.18,68.19,68.13,67.96,67.73,67.50,67.25,67.06,67.00,67.03,67.06,67.11,67.15,67.11,67.08,67.06,67.06,67.07,67.15,67.26,67.36,67.46,67.62,67.81,67.95,68.01,68.02,68.04,68.03,68.02,68.03,68.08,68.13,68.17,68.21,68.24,68.24,68.25,68.27,68.27,68.28,68.40,68.63,68.96,69.12,69.14,69.11,69.08,69.13,69.18,69.19,69.16,69.12,69.06,69.02,69.02,69.05,68.88,68.91,68.98,69.06,69.09,69.11,69.12,69.15,69.19,69.19,69.19,69.19,69.18,69.18,69.15,69.14,69.15,69.16,69.17,69.16,69.14,69.13,69.11,69.11,69.08,69.03,69.00,69.00,69.00,68.99,68.98,68.94,68.93,68.91,68.88,68.86,68.77,68.72,68.70,68.70,68.68,68.65,68.63,68.63,68.61,68.62,68.60,68.56,68.57,68.55,68.55,68.55,68.51,68.52,68.52,68.54,68.57,68.60,68.56,68.53,68.53,68.53,68.53,68.56,68.60,68.60,68.60,68.59,68.56,68.53,68.57,68.57,68.54,68.48,68.45,68.49,68.49,68.46,68.43,68.45,68.48,68.52,68.54,68.52,68.45,68.42,68.43,68.45,68.50,68.45,68.41,68.41,68.46,68.29,68.12,68.00,68.00,68.00,68.01,68.04,68.11,68.09,68.09,68.08,68.03,67.87,67.76,67.79,67.85,67.85,67.79,67.78,67.79,67.79,67.80,67.80
67.87,68.00,68.15,68.13,68.27,68.23,68.17,68.18,68.18,68.14,68.21,68.28,68.11,68.16,68.22,68.23,68.20,68.35,68.44,68.51,68.59,68.83,68.88,68.77,68.63,68.63,68.69,68.62,68.53,68.47,68.46,68.44,68.41,68.37,68.38,68.34,68.31,68.30,68.29,68.24,68.20,68.09,67.79,66.99,66.44,66.15,65.76,64.82,64.80,65.63,66.64,67.40,67.75,67.98,68.14,68.24,68.32,68.31,68.33,68.37,68.39,68.38,68.37,68.39,68.43,68.45,68.45,68.42,68.37,68.30,68.23,68.21,68.21,68.20,68.18,68.17,68.18,68.18,68.17,68.18,68.17,68.15,68.13,68.14,68.12,68.03,67.87,67.72,67.44,67.14,66.93,66.92,66.95,66.99,67.05,67.11,67.11,67.08,67.04,67.01,66.97,67.06,67.18,67.30,67.41,67.55,67.73,67.89,67.98,68.00,68.00,68.00,68.00,67.99,67.98,68.02,68.10,68.19,68.18,68.14,68.15,68.20,68.25,68.27,68.38,68.60,68.95,69.15,69.16,69.12,69.09,69.13,69.18,69.19,69.17,69.13,69.06,69.02,69.02,69.06,68.89,68.88,68.94,69.01,69.03,69.04,69.06,69.10,69.13,69.12,69.11,69.11,69.11,69.12,69.15,69.16,69.17,69.18,69.15,69.13,69.11,69.10,69.10,69.07,69.03,69.01,69.00,69.00,69.00,69.00,69.00,68.98,68.97,68.95,68.91,68.85,68.77,68.72,68.70,68.70,68.70,68.69,68.66,68.62,68.60,68.60,68.60,68.58,68.54,68.56,68.58,68.57,68.51,68.50,68.54,68.58,68.60,68.60,68.59,68.58,68.58,68.58,68.58,68.59,68.60,68.60,68.66,68.63,68.57,68.51,68.52,68.52,68.47,68.44,68.49,68.50,68.50,68.49,68.48,68.48,68.49,68.54,68.57,68.50,68.43,68.40,68.43,68.51,68.64,68.51,68.40,68.40,68.41,68.32,68.15,68.00,68.00,68.00,68.01,68.04,68.08,68.02,68.01,68.01,67.98,67.88,67.76,67.80,67.85,67.78,67.72,67.71,67.71,67.73,67.79,67.79
66.19,66.26,66.39,66.57,66.94,67.00,67.05,67.20,67.23,67.10,67.49,68.08,68.01,68.08,68.12,68.13,68.07,67.60,67.72,68.06,68.42,68.54,68.55,68.49,68.44,68.45,68.58,68.56,68.50,68.46,68.44,68.43,68.40,68.36,68.36,68.34,68.33,68.32,68.29,68.26,68.13,67.76,67.10,66.17,65.79,65.59,65.27,64.56,65.34,66.36,67.23,67.73,67.94,68.13,68.25,68.30,68.33,68.32,68.36,68.40,68.43,68.40,68.37,68.36,68.38,68.41,68.39,68.36,68.32,68.26,68.19,68.18,68.18,68.17,68.18,68.18,68.18,68.16,68.12,68.11,68.10,68.10,68.10,68.07,68.05,68.00,67.91,67.76,67.41,67.07,66.86,66.90,66.92,66.93,66.95,66.99,67.01,66.99,66.95,66.90,66.85,66.88,66.98,67.10,67.20,67.34,67.51,67.66,67.76,67.81,67.88,67.93,67.94,67.88,67.84,67.87,67.95,68.06,68.08,68.04,68.07,68.17,68.27,68.27,68.36,68.57,68.90,69.08,69.11,69.06,69.02,69.07,69.15,69.16,69.12,69.10,69.05,69.02,69.01,69.01,68.81,68.80,68.89,68.99,69.01,69.01,69.02,69.04,69.06,69.08,69.08,69.07,69.09,69.14,69.14,69.14,69.13,69.14,69.15,69.12,69.08,69.08,69.10,69.08,69.05,69.02,69.00,69.00,69.00,69.00,69.00,68.96,68.92,68.88,68.85,68.82,68.78,68.74,68.71,68.70,68.67,68.65,68.63,68.61,68.60,68.60,68.60,68.59,68.57,68.58,68.59,68.59,68.55,68.55,68.58,68.59,68.60,68.60,68.60,68.60,68.59,68.55,68.58,68.59,68.58,68.55,68.54,68.51,68.50,68.50,68.50,68.47,68.43,68.41,68.44,68.44,68.46,68.47,68.44,68.45,68.48,68.52,68.53,68.50,68.43,68.42,68.46,68.51,68.62,68.53,68.43,68.38,68.29,68.25,68.15,68.02,67.95,67.95,67.98,68.01,68.02,67.96,67.94,67.94,67.93,67.89,67.78,67.76,67.76,67.72,67.66,67.67,67.68,67.69,67.78,67.78
64.72,64.72,64.78,65.08,65.54,65.71,65.88,66.12,66.11,65.94,66.76,67.94,67.93,68.00,68.02,67.90,67.54,66.52,66.66,67.24,67.83,67.92,67.90,67.90,67.95,68.02,68.25,68.33,68.35,68.37,68.36,68.38,68.37,68.33,68.32,68.31,68.32,68.32,68.28,68.26,68.05,67.42,66.42,65.41,65.19,65.05,64.86,64.60,65.99,67.06,67.73,67.99,68.08,68.22,68.31,68.35,68.33,68.32,68.37,68.42,68.44,68.40,68.36,68.35,68.35,68.40,68.37,68.33,68.27,68.20,68.15,68.16,68.16,68.14,68.16,68.17,68.16,68.14,68.07,68.04,68.04,68.04,68.05,68.01,67.98,67.96,67.92,67.77,67.32,66.96,66.79,66.89,66.91,66.90,66.88,66.89,66.92,66.90,66.85,66.78,66.71,66.70,66.77,66.86,66.94,67.06,67.21,67.35,67.46,67.55,67.69,67.83,67.89,67.80,67.72,67.71,67.77,67.88,67.95,67.95,68.00,68.13,68.25,68.24,68.32,68.53,68.82,68.97,69.00,68.98,68.95,69.02,69.11,69.12,69.08,69.06,69.03,69.00,68.99,68.98,68.74,68.74,68.84,68.96,68.99,69.00,69.00,69.00,69.00,69.05,69.04,69.05,69.08,69.15,69.14,69.11,69.10,69.10,69.15,69.12,69.07,69.08,69.09,69.09,69.07,69.02,69.00,69.00,68.99,68.99,68.99,68.92,68.86,68.81,68.80,68.80,68.80,68.76,68.71,68.69,68.65,68.62,68.61,68.61,68.61,68.61,68.60,68.60,68.60,68.59,68.59,68.59,68.58,68.59,68.60,68.60,68.60,68.60,68.60,68.59,68.58,68.53,68.56,68.57,68.55,68.50,68.43,68.41,68.44,68.49,68.50,68.45,68.42,68.41,68.40,68.40,68.42,68.43,68.41,68.43,68.47,68.49,68.49,68.49,68.42,68.44,68.48,68.51,68.58,68.53,68.45,68.34,68.18,68.18,68.15,68.05,67.91,67.90,67.96,67.98,67.94,67.89,67.87,67.87,67.88,67.87,67.79,67.72,67.68,67.66,67.63,67.65,67.66,67.66,67.74,67.74
64.13,64.10,64.07,64.16,64.36,64.58,64.80,64.95,64.72,64.63,66.04,67.90,67.85,67.92,67.90,67.33,66.01,64.88,64.98,65.55,66.18,66.52,66.56,66.60,66.71,66.94,67.39,67.66,67.88,68.11,68.15,68.24,68.27,68.25,68.24,68.20,68.22,68.24,68.21,68.16,67.91,67.13,65.90,64.85,64.68,64.57,64.68,65.34,66.73,67.56,67.96,68.09,68.16,68.22,68.28,68.32,68.31,68.31,68.33,68.37,68.42,68.39,68.35,68.36,68.42,68.49,68.47,68.37,68.22,68.12,68.11,68.11,68.11,68.08,68.07,68.10,68.10,68.08,68.02,68.01,68.01,68.00,67.99,67.94,67.90,67.89,67.85,67.62,67.06,66.76,66.74,66.88,66.93,66.92,66.90,66.89,66.88,66.82,66.73,66.63,66.55,66.54,66.55,66.58,66.60,66.67,66.78,66.91,67.02,67.13,67.38,67.68,67.89,67.87,67.69,67.56,67.54,67.64,67.77,67.86,67.97,68.08,68.13,68.14,68.26,68.47,68.71,68.77,68.80,68.82,68.88,68.99,69.06,69.08,69.04,69.01,68.97,68.93,68.94,68.98,68.75,68.73,68.81,68.92,68.97,68.99,69.00,68.99,68.99,69.01,69.02,69.04,69.08,69.12,69.12,69.11,69.10,69.10,69.15,69.14,69.11,69.11,69.08,69.07,69.04,69.01,69.00,69.00,68.98,68.95,68.94,68.88,68.83,68.81,68.80,68.80,68.79,68.76,68.71,68.65,68.67,68.65,68.63,68.62,68.62,68.62,68.62,68.60,68.58,68.58,68.58,68.56,68.53,68.56,68.59,68.59,68.58,68.60,68.58,68.57,68.56,68.55,68.53,68.52,68.51,68.50,68.42,68.42,68.45,68.50,68.50,68.49,68.46,68.42,68.40,68.40,68.38,68.39,68.44,68.48,68.47,68.47,68.47,68.47,68.42,68.42,68.47,68.53,68.56,68.50,68.41,68.29,68.13,68.15,68.15,68.08,67.93,67.88,67.94,67.95,67.87,67.83,67.79,67.79,67.82,67.81,67.74,67.69,67.66,67.65,67.64,67.65,67.65,67.65,67.67,67.67
64.00,64.01,63.95,63.96,63.96,64.08,64.19,64.22,64.11,64.22,65.77,67.71,67.77,67.81,67.75,66.90,64.97,64.14,64.09,64.37,64.75,65.07,65.24,65.28,65.29,65.42,66.10,66.53,66.86,67.13,67.21,67.43,67.70,67.94,68.05,68.10,68.14,68.14,68.10,68.02,67.70,66.97,65.83,64.55,64.36,64.47,64.99,66.15,67.32,67.86,68.06,68.11,68.15,68.20,68.26,68.30,68.30,68.30,68.31,68.34,68.38,68.40,68.39,68.40,68.43,68.50,68.47,68.32,68.16,68.10,68.09,68.07,68.06,68.05,68.06,68.07,68.06,68.02,67.98,67.96,67.96,67.95,67.94,67.89,67.85,67.83,67.77,67.46,66.83,66.59,66.68,66.86,66.92,66.92,66.90,66.88,66.83,66.75,66.64,66.51,66.37,66.34,66.34,66.36,66.35,66.35,66.43,66.53,66.65,66.76,67.07,67.47,67.77,67.76,67.51,67.36,67.33,67.44,67.60,67.72,67.81,67.88,67.93,67.95,68.06,68.23,68.45,68.54,68.62,68.68,68.76,68.88,68.99,69.02,69.01,68.98,68.92,68.89,68.92,68.97,68.71,68.70,68.79,68.91,68.96,68.99,68.99,68.98,68.99,69.00,69.02,69.05,69.09,69.12,69.12,69.11,69.10,69.10,69.14,69.14,69.13,69.13,69.11,69.11,69.08,69.03,69.00,69.00,68.98,68.96,68.94,68.89,68.84,68.81,68.80,68.80,68.78,68.75,68.72,68.67,68.69,68.68,68.67,68.68,68.67,68.65,68.63,68.60,68.55,68.54,68.54,68.54,68.53,68.54,68.56,68.56,68.55,68.57,68.55,68.55,68.55,68.54,68.51,68.50,68.50,68.50,68.44,68.45,68.48,68.50,68.50,68.50,68.48,68.46,68.43,68.41,68.40,68.42,68.47,68.47,68.45,68.45,68.45,68.43,68.41,68.43,68.49,68.56,68.54,68.45,68.36,68.27,68.14,68.13,68.12,68.07,67.96,67.84,67.83,67.82,67.76,67.73,67.71,67.71,67.73,67.72,67.68,67.65,67.64,67.67,67.65,67.66,67.65,67.63,67.63,67.65
64.08,64.14,64.09,64.08,63.95,63.92,63.86,63.77,63.91,64.31,65.78,67.47,67.69,67.69,67.60,66.55,64.23,63.85,63.60,63.50,63.54,63.70,64.00,64.02,63.88,63.81,64.68,65.22,65.58,65.83,65.94,66.28,66.84,67.43,67.74,67.94,68.00,67.99,67.95,67.82,67.39,66.77,65.89,64.37,64.16,64.59,65.56,67.00,67.79,68.05,68.08,68.09,68.12,68.18,68.25,68.29,68.30,68.30,68.30,68.31,68.35,68.41,68.44,68.44,68.43,68.47,68.40,68.25,68.10,68.10,68.08,68.03,68.01,68.03,68.07,68.06,68.02,67.98,67.95,67.91,67.90,67.90,67.90,67.87,67.81,67.77,67.67,67.26,66.62,66.44,66.61,66.84,66.89,66.90,66.89,66.86,66.78,66.70,66.58,66.41,66.21,66.14,66.15,66.18,66.16,66.09,66.13,66.22,66.32,66.43,66.77,67.22,67.58,67.55,67.24,67.11,67.12,67.24,67.41,67.54,67.61,67.62,67.68,67.71,67.79,67.93,68.14,68.29,68.43,68.53,68.61,68.75,68.89,68.96,68.97,68.96,68.89,68.87,68.91,68.95,68.66,68.66,68.77,68.91,68.95,68.99,68.98,68.97,68.98,69.00,69.04,69.08,69.10,69.13,69.13,69.11,69.10,69.10,69.13,69.13,69.12,69.14,69.15,69.17,69.14,69.05,69.00,69.00,69.00,68.99,68.96,68.92,68.86,68.82,68.80,68.80,68.77,68.76,68.74,68.71,68.70,68.70,68.71,68.74,68.71,68.68,68.64,68.60,68.53,68.51,68.50,68.51,68.55,68.52,68.53,68.53,68.51,68.53,68.52,68.53,68.54,68.51,68.50,68.50,68.50,68.50,68.46,68.48,68.50,68.50,68.50,68.50,68.50,68.49,68.47,68.42,68.44,68.47,68.48,68.44,68.41,68.42,68.45,68.41,68.41,68.45,68.53,68.59,68.52,68.40,68.31,68.26,68.18,68.12,68.08,68.03,67.98,67.78,67.68,67.65,67.66,67.64,67.64,67.63,67.63,67.63,67.63,67.62,67.63,67.68,67.64,67.67,67.66,67.60,67.61,67.65
64.05,64.18,64.19,64.19,64.17,64.17,64.14,64.07,64.13,65.35,66.59,67.42,67.59,67.59,67.52,66.49,64.14,63.75,63.56,63.48,63.49,63.50,63.60,63.58,63.51,63.49,63.83,64.10,64.34,64.57,64.67,64.81,65.21,65.89,66.73,67.18,67.37,67.47,67.58,67.15,66.31,65.63,65.11,64.22,64.39,65.28,66.54,67.74,67.98,68.05,68.06,68.09,68.11,68.16,68.21,68.24,68.27,68.28,68.30,68.33,68.37,68.41,68.41,68.42,68.43,68.43,68.34,68.21,68.10,68.10,68.08,68.03,68.00,68.01,68.02,68.01,67.99,67.95,67.92,67.90,67.90,67.90,67.90,67.87,67.84,67.75,67.53,66.93,66.44,66.39,66.63,66.88,66.90,66.90,66.89,66.87,66.80,66.71,66.59,66.42,66.22,66.14,66.11,66.10,66.09,66.06,66.09,66.12,66.16,66.25,66.55,66.94,67.23,67.18,66.85,66.72,66.72,66.80,67.00,67.29,67.46,67.50,67.48,67.47,67.57,67.73,67.88,67.96,68.11,68.27,68.41,68.56,68.71,68.82,68.89,68.92,68.87,68.87,68.91,68.94,68.64,68.63,68.74,68.89,68.93,68.95,68.97,68.98,68.99,69.00,69.04,69.08,69.10,69.11,69.11,69.10,69.10,69.10,69.11,69.11,69.11,69.11,69.12,69.13,69.12,69.07,69.02,69.00,69.00,68.99,68.97,68.93,68.88,68.84,68.81,68.80,68.79,68.79,68.78,68.76,68.72,68.71,68.71,68.72,68.71,68.68,68.65,68.60,68.56,68.52,68.50,68.51,68.53,68.51,68.51,68.51,68.50,68.51,68.51,68.51,68.52,68.50,68.46,68.47,68.50,68.50,68.44,68.47,68.50,68.50,68.50,68.50,68.50,68.50,68.49,68.47,68.48,68.45,68.39,68.41,68.40,68.41,68.43,68.46,68.46,68.48,68.53,68.59,68.52,68.38,68.33,68.34,68.26,68.15,68.03,67.93,67.86,67.74,67.59,67.58,67.75,67.73,67.70,67.67,67.66,67.62,67.65,67.63,67.59,67.57,67.61,67.66,67.66,67.60,67.61,67.67
64.02,64.23,64.33,64.36,64.38,64.38,64.36,64.33,64.42,66.05,67.07,67.34,67.47,67.45,67.43,66.44,64.08,63.65,63.50,63.45,63.44,63.40,63.37,63.36,63.35,63.35,63.39,63.47,63.60,63.77,63.88,63.92,64.19,64.80,65.76,66.17,66.38,66.55,66.77,66.14,65.28,64.73,64.60,64.51,65.14,66.19,67.34,68.21,68.21,68.18,68.12,68.06,68.10,68.14,68.17,68.20,68.22,68.24,68.27,68.31,68.34,68.36,68.36,68.38,68.40,68.36,68.26,68.16,68.10,68.09,68.07,68.03,68.00,68.00,68.00,67.99,67.96,67.92,67.90,67.90,67.90,67.90,67.91,67.89,67.88,67.74,67.36,66.59,66.26,66.33,66.63,66.92,66.94,66.94,66.91,66.87,66.80,66.73,66.61,66.46,66.28,66.19,66.13,66.08,66.06,66.03,66.03,66.03,66.04,66.10,66.34,66.63,66.82,66.73,66.32,66.09,65.99,66.00,66.16,66.51,66.77,66.91,67.05,67.19,67.36,67.53,67.69,67.73,67.86,68.04,68.24,68.42,68.57,68.70,68.80,68.85,68.81,68.81,68.81,68.78,68.51,68.55,68.70,68.87,68.90,68.92,68.94,68.96,68.97,68.99,69.04,69.08,69.10,69.10,69.10,69.10,69.10,69.10,69.10,69.10,69.10,69.10,69.10,69.11,69.10,69.06,69.02,68.99,68.97,68.97,68.95,68.90,68.89,68.86,68.82,68.80,68.80,68.80,68.80,68.79,68.75,68.72,68.71,68.71,68.70,68.69,68.66,68.61,68.59,68.55,68.52,68.51,68.51,68.50,68.50,68.50,68.50,68.50,68.50,68.51,68.51,68.50,68.45,68.46,68.49,68.47,68.42,68.46,68.49,68.50,68.50,68.50,68.50,68.50,68.52,68.50,68.49,68.44,68.36,68.44,68.47,68.48,68.48,68.54,68.50,68.51,68.53,68.56,68.49,68.39,68.34,68.35,68.30,68.23,68.10,67.97,67.85,67.71,67.60,67.63,67.83,67.84,67.79,67.76,67.73,67.64,67.66,67.62,67.55,67.52,67.59,67.65,67.66,67.62,67.61,67.65
63.98,64.29,64.52,64.59,64.55,64.54,64.53,64.54,64.78,66.41,67.22,67.23,67.32,67.29,67.33,66.40,64.06,63.55,63.42,63.40,63.40,63.39,63.34,63.35,63.40,63.39,63.36,63.33,63.35,63.42,63.56,63.62,63.78,64.15,64.84,64.92,65.02,65.23,65.50,64.80,64.28,64.09,64.35,65.26,66.42,67.32,67.96,68.40,68.47,68.44,68.26,68.01,68.09,68.11,68.13,68.15,68.16,68.20,68.23,68.25,68.25,68.26,68.30,68.33,68.33,68.24,68.17,68.12,68.10,68.08,68.04,68.01,68.00,68.00,68.00,67.98,67.94,67.90,67.90,67.90,67.90,67.91,67.92,67.95,67.95,67.72,67.17,66.23,66.08,66.27,66.62,66.97,67.02,67.01,66.94,66.85,66.80,66.74,66.64,66.52,66.40,66.30,66.20,66.11,66.06,66.00,65.96,65.94,65.94,65.99,66.13,66.29,66.35,66.20,65.63,65.21,64.95,64.83,64.85,65.19,65.52,65.84,66.41,66.86,67.14,67.34,67.56,67.61,67.67,67.84,68.10,68.33,68.47,68.60,68.70,68.74,68.73,68.70,68.62,68.46,68.26,68.42,68.65,68.82,68.87,68.89,68.91,68.91,68.92,68.96,69.02,69.07,69.10,69.10,69.10,69.10,69.10,69.10,69.10,69.10,69.10,69.10,69.10,69.10,69.07,69.03,69.00,68.95,68.92,68.91,68.90,68.85,68.86,68.86,68.83,68.80,68.80,68.80,68.80,68.80,68.80,68.75,68.71,68.70,68.70,68.70,68.67,68.62,68.60,68.60,68.56,68.51,68.50,68.50,68.49,68.49,68.50,68.50,68.50,68.50,68.50,68.50,68.44,68.46,68.47,68.42,68.40,68.46,68.49,68.50,68.50,68.50,68.50,68.51,68.56,68.51,68.49,68.45,68.41,68.55,68.62,68.62,68.60,68.66,68.53,68.53,68.55,68.49,68.43,68.40,68.36,68.31,68.32,68.36,68.30,68.15,67.95,67.69,67.71,67.82,67.90,67.96,67.92,67.88,67.84,67.69,67.63,67.57,67.52,67.52,67.59,67.62,67.65,67.67,67.61,67.61
63.98,64.34,64.67,64.81,64.76,64.73,64.70,64.73,65.05,66.42,67.11,67.13,67.17,67.14,66.85,65.90,64.19,63.66,63.46,63.40,63.40,63.39,63.32,63.33,63.36,63.35,63.33,63.31,63.31,63.36,63.49,63.54,63.61,63.75,64.00,64.06,64.24,64.48,64.63,64.06,63.91,64.10,64.67,65.87,66.50,66.90,67.13,67.27,67.27,67.24,67.24,67.36,67.70,68.04,68.18,68.16,68.17,68.20,68.21,68.20,68.17,68.18,68.20,68.21,68.20,68.15,68.10,68.09,68.10,68.09,68.07,68.06,68.05,68.05,68.04,68.00,67.96,67.93,67.90,67.90,67.90,67.90,67.91,67.94,67.89,67.54,66.83,65.94,65.99,66.36,66.82,67.15,67.16,67.12,67.05,66.98,66.92,66.83,66.73,66.61,66.50,66.39,66.26,66.15,66.06,66.00,65.96,65.92,65.89,65.90,65.98,65.99,65.84,65.42,64.79,64.37,64.14,64.09,64.17,64.34,64.54,64.84,65.46,66.05,66.43,66.70,67.00,67.14,67.27,67.53,67.92,68.22,68.39,68.50,68.58,68.62,68.67,68.70,68.63,68.42,68.20,68.36,68.60,68.80,68.85,68.89,68.92,68.94,68.96,68.99,69.04,69.09,69.13,69.12,69.11,69.10,69.09,69.09,69.09,69.10,69.11,69.10,69.10,69.09,69.08,69.06,69.01,68.98,68.94,68.91,68.90,68.83,68.83,68.83,68.82,68.80,68.80,68.80,68.80,68.80,68.80,68.78,68.75,68.71,68.70,68.68,68.64,68.60,68.57,68.59,68.56,68.52,68.51,68.50,68.46,68.45,68.49,68.50,68.51,68.51,68.52,68.52,68.48,68.50,68.51,68.47,68.42,68.45,68.48,68.50,68.50,68.50,68.47,68.45,68.47,68.45,68.41,68.37,68.36,68.49,68.55,68.55,68.53,68.55,68.47,68.45,68.44,68.42,68.43,68.42,68.37,68.33,68.36,68.37,68.34,68.26,68.12,67.76,67.73,67.81,67.88,67.93,67.91,67.89,67.83,67.68,67.66,67.61,67.54,67.51,67.56,67.62,67.65,67.66,67.61,67.60
63.97,64.37,64.74,64.95,64.90,64.85,64.82,64.88,65.28,66.37,66.95,67.01,67.01,66.99,66.38,65.39,64.27,63.71,63.48,63.41,63.39,63.37,63.31,63.31,63.34,63.33,63.31,63.30,63.31,63.33,63.45,63.48,63.48,63.47,63.40,63.47,63.66,63.84,63.89,63.56,63.66,64.05,64.72,65.90,66.03,66.02,65.98,65.91,65.83,65.79,65.93,66.32,66.83,67.46,67.80,67.89,68.00,67.98,68.00,68.04,68.08,68.08,68.09,68.10,68.09,68.06,68.04,68.05,68.08,68.08,68.09,68.09,68.09,68.08,68.05,68.02,67.99,67.96,67.92,67.90,67.90,67.90,67.90,67.92,67.78,67.27,66.43,65.73,65.97,66.51,67.06,67.31,67.29,67.24,67.17,67.12,67.05,66.95,66.85,66.74,66.62,66.49,66.35,66.21,66.09,66.03,65.98,65.93,65.88,65.87,65.89,65.79,65.46,64.85,64.22,63.82,63.65,63.68,63.81,63.84,63.90,64.10,64.60,65.17,65.58,65.95,66.37,66.67,66.93,67.29,67.75,68.09,68.28,68.39,68.45,68.50,68.60,68.69,68.64,68.40,68.14,68.29,68.53,68.73,68.80,68.85,68.90,68.96,69.00,69.02,69.06,69.11,69.15,69.13,69.10,69.09,69.08,69.07,69.07,69.09,69.11,69.11,69.09,69.09,69.08,69.07,69.02,68.99,68.95,68.91,68.90,68.82,68.81,68.81,68.81,68.80,68.80,68.80,68.80,68.80,68.80,68.80,68.78,68.72,68.70,68.67,68.63,68.60,68.55,68.58,68.56,68.53,68.53,68.52,68.45,68.43,68.49,68.50,68.52,68.53,68.53,68.53,68.51,68.53,68.55,68.51,68.43,68.44,68.47,68.50,68.50,68.50,68.46,68.42,68.41,68.40,68.35,68.31,68.31,68.42,68.47,68.47,68.46,68.46,68.42,68.37,68.35,68.34,68.43,68.42,68.38,68.36,68.40,68.38,68.35,68.30,68.17,67.78,67.69,67.73,67.81,67.88,67.88,67.85,67.79,67.64,67.69,67.65,67.57,67.50,67.55,67.61,67.64,67.62,67.60,67.60
63.95,64.34,64.69,64.91,64.84,64.81,64.83,64.95,65.44,66.29,66.77,66.86,66.86,66.83,66.00,64.97,64.22,63.59,63.47,63.44,63.38,63.32,63.31,63.34,63.38,63.38,63.32,63.30,63.30,63.32,63.40,63.42,63.42,63.39,63.33,63.39,63.36,63.32,63.32,63.42,63.56,63.74,64.03,64.71,64.59,64.50,64.46,64.37,64.19,64.14,64.26,64.58,64.98,65.78,66.46,66.94,67.37,67.26,67.36,67.64,67.95,67.94,67.97,68.00,68.00,67.99,67.99,68.00,68.01,68.03,68.07,68.09,68.08,68.06,68.02,68.00,68.00,67.99,67.96,67.92,67.90,67.90,67.87,67.86,67.56,66.85,65.94,65.64,66.08,66.75,67.31,67.41,67.41,67.37,67.30,67.24,67.16,67.09,67.03,66.93,66.77,66.62,66.48,66.34,66.21,66.11,66.03,65.97,65.93,65.92,65.92,65.77,65.40,64.79,64.27,63.94,63.82,63.91,64.05,64.02,63.97,63.95,64.00,64.21,64.56,65.07,65.70,66.29,66.79,67.23,67.62,67.89,68.10,68.24,68.32,68.38,68.52,68.63,68.59,68.34,68.05,68.15,68.37,68.59,68.67,68.74,68.82,68.91,69.01,69.08,69.11,69.14,69.15,69.11,69.08,69.05,69.03,69.02,69.01,69.07,69.11,69.11,69.07,69.08,69.07,69.03,69.01,68.96,68.92,68.90,68.90,68.81,68.81,68.82,68.81,68.80,68.80,68.80,68.80,68.80,68.80,68.80,68.78,68.72,68.70,68.69,68.66,68.61,68.59,68.60,68.58,68.56,68.58,68.55,68.51,68.50,68.53,68.51,68.53,68.54,68.55,68.55,68.52,68.53,68.55,68.53,68.44,68.44,68.47,68.50,68.50,68.50,68.48,68.45,68.45,68.41,68.37,68.32,68.27,68.35,68.42,68.43,68.42,68.46,68.42,68.35,68.30,68.27,68.39,68.40,68.40,68.39,68.40,68.41,68.34,68.18,67.94,67.67,67.54,67.54,67.63,67.81,67.81,67.77,67.71,67.58,67.70,67.70,67.61,67.50,67.56,67.59,67.59,67.57,67.60,67.61
63.95,64.35,64.69,64.85,64.85,64.85,64.86,65.02,65.85,66.37,66.63,66.71,66.71,66.72,65.93,64.84,63.92,63.50,63.43,63.43,63.39,63.35,63.35,63.37,63.39,63.36,63.31,63.30,63.30,63.31,63.35,63.35,63.35,63.34,63.31,63.32,63.23,63.17,63.26,63.46,63.53,63.59,63.69,63.99,63.88,63.80,63.78,63.74,63.62,63.57,63.62,63.77,63.92,64.40,64.89,65.32,65.67,65.71,65.83,66.13,66.63,66.78,67.14,67.47,67.67,67.76,67.83,67.89,67.92,67.93,67.98,68.02,68.03,68.03,68.01,68.00,68.00,67.99,67.97,67.93,67.93,67.92,67.88,67.84,67.39,66.57,65.66,65.60,66.17,66.89,67.43,67.46,67.44,67.41,67.36,67.32,67.25,67.20,67.13,67.04,66.91,66.81,66.71,66.59,66.42,66.28,66.20,66.15,66.11,66.06,66.07,66.02,65.83,65.43,65.02,64.78,64.69,64.70,64.70,64.56,64.38,64.17,63.93,63.86,64.02,64.38,64.94,65.69,66.44,67.05,67.47,67.67,67.89,68.09,68.23,68.31,68.48,68.58,68.52,68.24,67.92,67.98,68.17,68.39,68.51,68.61,68.74,68.90,69.06,69.12,69.16,69.17,69.16,69.09,69.05,69.02,69.01,69.00,69.00,69.04,69.08,69.08,69.06,69.06,69.05,69.01,68.98,68.95,68.93,68.91,68.92,68.85,68.84,68.85,68.86,68.84,68.83,68.83,68.83,68.81,68.82,68.80,68.77,68.74,68.71,68.69,68.65,68.61,68.60,68.62,68.61,68.59,68.62,68.61,68.59,68.58,68.60,68.58,68.57,68.56,68.56,68.56,68.55,68.56,68.57,68.56,68.47,68.46,68.48,68.50,68.50,68.50,68.49,68.48,68.48,68.44,68.41,68.33,68.24,68.31,68.36,68.38,68.38,68.44,68.38,68.31,68.26,68.27,68.41,68.44,68.42,68.39,68.37,68.40,68.23,67.97,67.79,67.50,67.33,67.21,67.13,67.39,67.53,67.59,67.58,67.53,67.65,67.66,67.60,67.51,67.57,67.57,67.56,67.58,67.63,67.64
63.97,64.37,64.71,64.80,64.88,64.90,64.90,65.08,66.26,66.46,66.52,66.56,66.55,66.62,65.99,64.86,63.56,63.43,63.40,63.41,63.42,63.40,63.40,63.40,63.37,63.32,63.31,63.30,63.30,63.30,63.30,63.29,63.29,63.30,63.30,63.27,63.17,63.17,63.38,63.55,63.53,63.51,63.52,63.53,63.50,63.48,63.48,63.52,63.50,63.46,63.43,63.39,63.28,63.29,63.43,63.62,63.75,63.96,64.06,64.29,64.87,65.22,65.94,66.65,67.16,67.40,67.59,67.72,67.80,67.83,67.87,67.93,67.97,67.99,68.02,68.01,68.01,68.01,67.98,67.95,67.95,67.95,67.89,67.79,67.20,66.31,65.46,65.58,66.25,66.99,67.50,67.49,67.45,67.42,67.40,67.38,67.34,67.29,67.22,67.13,67.04,67.02,66.97,66.86,66.67,66.49,66.42,66.38,66.33,66.23,66.27,66.37,66.43,66.32,66.01,65.86,65.78,65.68,65.50,65.26,64.94,64.56,64.11,63.83,63.74,63.86,64.20,65.00,65.95,66.76,67.26,67.42,67.68,67.95,68.16,68.27,68.44,68.53,68.43,68.10,67.79,67.83,68.01,68.23,68.40,68.51,68.69,68.90,69.11,69.15,69.20,69.22,69.19,69.08,69.02,69.00,69.00,69.00,69.00,69.02,69.03,69.03,69.03,69.03,69.02,69.00,68.96,68.96,68.95,68.94,68.96,68.91,68.88,68.89,68.91,68.89,68.88,68.88,68.86,68.83,68.84,68.80,68.76,68.76,68.73,68.67,68.63,68.62,68.61,68.65,68.64,68.63,68.66,68.67,68.66,68.66,68.67,68.66,68.62,68.59,68.58,68.58,68.58,68.59,68.60,68.59,68.51,68.50,68.50,68.50,68.50,68.50,68.50,68.50,68.50,68.49,68.44,68.34,68.22,68.28,68.31,68.32,68.34,68.40,68.34,68.27,68.23,68.29,68.45,68.48,68.44,68.38,68.32,68.34,68.07,67.72,67.65,67.31,67.09,66.83,66.54,66.84,67.15,67.33,67.40,67.46,67.56,67.60,67.57,67.51,67.58,67.56,67.56,67.62,67.68,67.68
64.04,64.38,64.73,64.80,64.86,64.87,64.87,65.00,65.85,66.24,66.41,66.45,66.40,66.51,66.15,65.12,63.54,63.42,63.42,63.45,63.47,63.43,63.41,63.40,63.38,63.35,63.33,63.33,63.32,63.30,63.29,63.27,63.28,63.30,63.30,63.25,63.11,63.14,63.47,63.55,63.53,63.52,63.55,63.57,63.55,63.55,63.56,63.56,63.52,63.51,63.50,63.47,63.36,63.33,63.34,63.36,63.34,63.22,63.24,63.34,63.47,63.63,64.17,65.02,66.00,66.63,67.04,67.35,67.57,67.72,67.80,67.88,67.93,67.96,68.02,68.03,68.07,68.12,68.08,68.01,67.96,67.93,67.88,67.54,66.64,65.78,65.32,65.64,66.37,67.07,67.52,67.54,67.51,67.47,67.44,67.44,67.43,67.39,67.34,67.26,67.20,67.16,67.09,67.00,66.86,66.73,66.69,66.65,66.59,66.50,66.61,66.76,66.89,66.95,66.79,66.67,66.57,66.47,66.29,66.00,65.58,65.07,64.57,64.26,64.05,63.90,63.82,64.23,65.09,66.00,66.75,67.13,67.53,67.89,68.14,68.23,68.35,68.39,68.26,67.92,67.70,67.92,68.24,68.51,68.62,68.67,68.80,68.97,69.11,69.15,69.23,69.28,69.26,69.11,69.03,69.00,69.00,69.00,69.03,69.04,69.01,68.97,68.95,68.95,68.96,68.99,69.02,69.01,69.01,69.02,69.04,68.96,68.91,68.90,68.91,68.90,68.92,68.92,68.90,68.87,68.84,68.81,68.79,68.78,68.73,68.70,68.68,68.68,68.72,68.71,68.69,68.68,68.69,68.69,68.69,68.69,68.69,68.69,68.67,68.66,68.65,68.60,68.60,68.60,68.58,68.53,68.50,68.50,68.50,68.50,68.50,68.50,68.50,68.50,68.50,68.50,68.41,68.30,68.22,68.29,68.30,68.31,68.32,68.33,68.31,68.25,68.21,68.24,68.44,68.45,68.39,68.32,68.28,68.02,67.72,67.48,67.34,67.12,66.84,66.49,66.19,66.44,66.71,66.86,66.91,67.03,67.32,67.48,67.52,67.52,67.62,67.64,67.65,67.67,67.69,67.69
64.08,64.40,64.77,64.80,64.83,64.84,64.85,64.97,65.68,66.08,66.28,66.30,66.24,66.35,66.14,65.24,63.65,63.46,63.44,63.47,63.48,63.46,63.42,63.40,63.39,63.36,63.36,63.35,63.33,63.30,63.31,63.28,63.28,63.29,63.27,63.16,63.05,63.15,63.53,63.53,63.52,63.52,63.55,63.59,63.58,63.59,63.60,63.59,63.54,63.55,63.56,63.52,63.39,63.21,63.09,63.04,62.98,62.83,62.86,62.90,62.82,62.86,63.20,63.90,64.85,65.67,66.22,66.69,67.11,67.47,67.68,67.80,67.87,67.92,67.99,68.04,68.13,68.22,68.20,68.09,67.99,67.88,67.75,67.10,66.07,65.34,65.21,65.68,66.51,67.18,67.55,67.57,67.56,67.52,67.49,67.49,67.52,67.50,67.45,67.38,67.34,67.30,67.23,67.15,67.06,66.98,66.93,66.88,66.80,66.76,66.92,67.05,67.16,67.29,67.25,67.15,67.05,66.97,66.84,66.56,66.10,65.51,64.93,64.60,64.33,64.07,63.80,63.80,64.39,65.27,66.20,66.79,67.36,67.83,68.12,68.17,68.28,68.29,68.13,67.78,67.62,68.00,68.45,68.78,68.83,68.83,68.90,69.00,69.07,69.12,69.24,69.33,69.31,69.13,69.03,69.00,69.00,69.00,69.03,69.02,68.98,68.93,68.91,68.91,68.92,68.97,69.04,69.04,69.04,69.04,69.04,68.96,68.92,68.91,68.93,68.93,68.95,68.93,68.89,68.88,68.86,68.84,68.83,68.81,68.78,68.77,68.75,68.74,68.78,68.74,68.71,68.70,68.70,68.70,68.70,68.70,68.70,68.71,68.70,68.69,68.67,68.62,68.61,68.60,68.57,68.54,68.54,68.52,68.51,68.52,68.53,68.51,68.50,68.50,68.48,68.49,68.41,68.31,68.24,68.32,68.33,68.33,68.32,68.27,68.24,68.20,68.18,68.20,68.38,68.39,68.31,68.20,68.11,67.81,67.58,67.41,67.23,67.06,66.76,66.35,65.96,66.11,66.30,66.41,66.47,66.62,67.03,67.32,67.47,67.50,67.60,67.65,67.67,67.68,67.67,67.67
64.09,64.45,64.85,64.80,64.80,64.80,64.82,64.97,65.70,65.99,66.11,66.12,66.09,66.15,65.97,65.23,63.86,63.53,63.48,63.48,63.45,63.49,63.43,63.40,63.39,63.37,63.39,63.36,63.32,63.31,63.35,63.32,63.29,63.27,63.21,63.01,62.99,63.20,63.58,63.52,63.50,63.50,63.53,63.59,63.60,63.60,63.60,63.60,63.58,63.59,63.59,63.55,63.37,62.95,62.71,62.66,62.66,62.76,62.88,62.94,62.86,62.84,62.95,63.23,63.72,64.56,65.16,65.79,66.45,67.10,67.53,67.72,67.79,67.86,67.93,68.04,68.18,68.32,68.34,68.20,68.03,67.81,67.52,66.51,65.48,64.97,65.13,65.71,66.67,67.31,67.59,67.60,67.60,67.57,67.55,67.54,67.60,67.61,67.55,67.48,67.48,67.44,67.38,67.31,67.26,67.22,67.16,67.08,66.99,67.03,67.19,67.25,67.27,67.37,67.42,67.35,67.26,67.22,67.18,66.97,66.52,65.87,65.21,64.85,64.60,64.38,64.10,63.66,63.84,64.56,65.62,66.41,67.18,67.77,68.10,68.10,68.23,68.22,68.02,67.66,67.54,68.07,68.66,69.04,69.03,69.00,68.99,69.00,69.01,69.05,69.23,69.36,69.34,69.15,69.04,69.00,69.00,69.00,69.00,68.97,68.93,68.90,68.90,68.90,68.91,68.93,69.02,69.07,69.06,69.01,68.95,68.92,68.91,68.93,68.98,68.99,68.95,68.89,68.85,68.87,68.90,68.90,68.88,68.84,68.86,68.88,68.86,68.81,68.81,68.75,68.71,68.70,68.70,68.70,68.70,68.70,68.70,68.72,68.71,68.67,68.63,68.64,68.63,68.59,68.57,68.59,68.61,68.56,68.54,68.57,68.58,68.53,68.51,68.50,68.44,68.47,68.43,68.36,68.29,68.37,68.37,68.37,68.34,68.22,68.14,68.13,68.14,68.15,68.28,68.31,68.23,68.04,67.81,67.71,67.63,67.52,67.29,67.11,66.83,66.38,65.84,65.85,65.92,65.98,66.06,66.21,66.68,67.12,67.42,67.48,67.53,67.58,67.63,67.66,67.63,67.62
64.13,64.45,64.84,64.85,64.85,64.82,64.88,65.11,65.68,65.87,65.94,65.96,65.98,65.85,65.69,65.28,64.55,64.30,64.26,64.23,64.08,63.68,63.47,63.40,63.40,63.38,63.35,63.30,63.28,63.32,63.37,63.36,63.35,63.31,63.19,62.99,63.04,63.26,63.55,63.55,63.52,63.53,63.57,63.60,63.61,63.66,63.69,63.65,63.60,63.60,63.56,63.41,62.93,62.70,62.63,62.66,62.63,62.69,62.72,62.74,62.80,62.87,62.93,62.99,63.11,63.56,64.23,65.04,65.90,66.66,67.20,67.56,67.75,67.82,67.88,67.98,68.08,68.16,68.18,68.10,68.00,67.74,67.13,65.74,65.03,64.83,65.08,65.77,66.88,67.46,67.60,67.60,67.62,67.63,67.63,67.61,67.63,67.64,67.61,67.56,67.54,67.49,67.45,67.42,67.39,67.33,67.26,67.20,67.17,67.23,67.33,67.35,67.34,67.39,67.48,67.46,67.39,67.32,67.28,67.19,66.96,66.57,66.03,65.44,64.93,64.52,64.20,63.83,63.75,64.19,65.15,66.20,67.04,67.63,67.95,67.98,68.05,68.02,67.85,67.54,67.42,67.94,68.54,68.96,69.00,69.02,69.04,69.04,69.02,69.05,69.22,69.36,69.38,69.20,69.07,69.01,69.00,69.00,69.00,68.99,68.97,68.94,68.93,68.93,68.93,68.96,69.00,69.02,69.02,68.99,68.97,68.95,68.94,68.96,68.99,69.00,68.94,68.89,68.87,68.86,68.91,68.91,68.90,68.87,68.86,68.88,68.87,68.82,68.83,68.77,68.73,68.70,68.70,68.70,68.70,68.70,68.71,68.75,68.74,68.71,68.68,68.70,68.70,68.69,68.66,68.63,68.64,68.57,68.53,68.55,68.54,68.51,68.54,68.56,68.49,68.45,68.42,68.33,68.20,68.31,68.35,68.35,68.31,68.24,68.14,68.10,68.08,68.06,68.08,68.09,68.04,67.93,67.81,67.78,67.75,67.66,67.48,67.24,66.93,66.45,65.85,65.61,65.52,65.51,65.60,65.87,66.44,66.93,67.25,67.35,67.53,67.55,67.55,67.58,67.55,67.57
64.18,64.45,64.81,64.87,64.87,64.83,64.91,65.20,65.63,65.75,65.78,65.80,65.88,65.62,65.48,65.33,65.07,64.92,64.87,64.80,64.61,64.03,63.70,63.50,63.39,63.34,63.30,63.25,63.26,63.33,63.37,63.38,63.37,63.31,63.12,62.96,63.11,63.36,63.52,63.56,63.54,63.56,63.60,63.61,63.62,63.67,63.71,63.66,63.61,63.57,63.45,63.19,62.67,62.61,62.68,62.75,62.72,62.76,62.70,62.66,62.72,62.90,62.94,62.88,62.81,62.96,63.57,64.42,65.32,66.04,66.61,67.20,67.61,67.76,67.82,67.92,67.99,68.03,68.05,68.00,67.88,67.47,66.55,65.10,64.72,64.77,65.05,65.72,66.82,67.41,67.56,67.58,67.63,67.68,67.70,67.68,67.66,67.67,67.66,67.62,67.59,67.53,67.50,67.49,67.47,67.40,67.34,67.31,67.32,67.40,67.45,67.44,67.41,67.42,67.51,67.52,67.48,67.40,67.36,67.34,67.27,67.10,66.71,66.04,65.35,64.76,64.33,63.99,63.74,63.93,64.69,65.91,66.86,67.49,67.82,67.88,67.91,67.87,67.71,67.42,67.28,67.74,68.30,68.76,68.92,69.00,69.06,69.07,69.04,69.05,69.21,69.35,69.39,69.22,69.09,69.02,69.00,69.00,69.00,69.01,69.01,68.98,68.97,68.96,68.96,68.97,68.97,68.97,68.98,68.98,68.98,68.96,68.95,68.96,68.98,68.99,68.91,68.87,68.87,68.85,68.89,68.90,68.90,68.90,68.87,68.88,68.87,68.83,68.85,68.80,68.75,68.72,68.70,68.70,68.71,68.71,68.71,68.77,68.77,68.74,68.73,68.74,68.75,68.75,68.72,68.67,68.66,68.58,68.53,68.53,68.51,68.50,68.56,68.60,68.52,68.43,68.40,68.30,68.16,68.25,68.32,68.32,68.29,68.25,68.16,68.10,68.05,68.01,67.94,67.91,67.88,67.86,67.82,67.83,67.82,67.75,67.61,67.31,67.03,66.63,66.08,65.52,65.23,65.09,65.13,65.44,66.09,66.67,67.06,67.21,67.45,67.48,67.48,67.51,67.49,67.53
64.22,64.47,64.79,64.82,64.82,64.80,64.90,65.16,65.54,65.62,65.63,65.67,65.81,65.52,65.45,65.38,65.17,65.14,65.04,64.93,64.83,64.69,64.28,63.78,63.36,63.21,63.23,63.25,63.30,63.36,63.32,63.35,63.35,63.26,62.94,62.90,63.22,63.52,63.52,63.53,63.56,63.59,63.62,63.62,63.61,63.60,63.59,63.59,63.58,63.47,63.19,62.81,62.79,62.85,62.93,63.00,63.00,63.07,63.01,62.83,62.64,62.92,62.97,62.98,63.03,63.14,63.43,64.02,64.67,65.07,65.56,66.47,67.26,67.64,67.75,67.85,67.94,67.99,68.00,67.93,67.58,66.82,65.61,64.75,64.66,64.82,65.05,65.43,66.26,66.97,67.42,67.53,67.61,67.68,67.72,67.71,67.69,67.69,67.69,67.68,67.63,67.55,67.51,67.49,67.48,67.44,67.42,67.42,67.44,67.51,67.57,67.57,67.52,67.48,67.49,67.49,67.48,67.48,67.45,67.38,67.33,67.24,67.05,66.60,65.93,65.19,64.51,64.11,63.83,63.82,64.26,65.43,66.59,67.38,67.78,67.86,67.86,67.81,67.62,67.30,67.12,67.42,67.89,68.39,68.78,68.95,69.04,69.06,69.04,69.04,69.17,69.31,69.35,69.19,69.07,69.01,69.00,69.00,69.00,69.02,69.02,69.01,69.02,69.01,68.98,68.96,68.92,68.93,68.95,68.96,68.96,68.93,68.91,68.92,68.94,68.95,68.83,68.79,68.82,68.84,68.82,68.85,68.88,68.90,68.89,68.90,68.88,68.86,68.86,68.82,68.78,68.75,68.71,68.70,68.72,68.73,68.72,68.77,68.79,68.78,68.75,68.72,68.76,68.76,68.73,68.69,68.67,68.61,68.56,68.53,68.50,68.50,68.55,68.59,68.51,68.43,68.37,68.30,68.21,68.21,68.29,68.31,68.29,68.24,68.19,68.13,68.09,68.06,67.93,67.82,67.81,67.88,67.82,67.82,67.81,67.76,67.61,67.26,67.11,67.00,66.73,65.73,65.16,64.80,64.65,64.82,65.51,66.26,66.83,67.07,67.22,67.35,67.42,67.44,67.43,67.49
64.24,64.48,64.79,64.85,64.84,64.80,64.89,65.17,65.41,65.50,65.51,65.55,65.70,65.44,65.37,65.34,65.20,65.18,64.95,64.61,64.29,64.25,63.81,63.44,63.20,63.11,63.07,63.13,63.23,63.32,63.30,63.28,63.24,63.13,62.88,62.89,63.21,63.51,63.56,63.55,63.56,63.60,63.67,63.68,63.61,63.55,63.51,63.51,63.50,63.26,62.96,62.76,62.98,63.05,63.12,63.17,63.13,63.17,63.14,63.02,62.87,62.96,62.88,62.86,62.94,63.01,63.16,63.49,63.85,64.03,64.54,65.74,66.82,67.31,67.53,67.71,67.85,67.95,67.96,67.73,66.99,65.95,64.85,64.53,64.63,64.83,65.03,65.24,65.79,66.42,66.98,67.32,67.56,67.69,67.73,67.72,67.70,67.70,67.70,67.69,67.66,67.60,67.57,67.55,67.51,67.47,67.47,67.50,67.54,67.61,67.68,67.70,67.65,67.57,67.48,67.42,67.39,67.42,67.40,67.34,67.28,67.21,67.11,66.87,66.41,65.75,64.95,64.30,63.90,63.76,64.00,65.03,66.36,67.28,67.72,67.77,67.71,67.61,67.41,67.13,66.96,67.14,67.53,68.05,68.61,68.89,69.02,69.05,69.04,69.02,69.14,69.27,69.32,69.18,69.07,69.01,69.00,69.00,69.00,69.01,69.01,69.01,69.02,69.01,68.98,68.94,68.91,68.91,68.92,68.93,68.93,68.91,68.90,68.90,68.89,68.91,68.80,68.75,68.77,68.81,68.80,68.83,68.88,68.90,68.90,68.90,68.91,68.91,68.89,68.84,68.80,68.77,68.75,68.74,68.76,68.76,68.76,68.81,68.81,68.78,68.74,68.71,68.74,68.73,68.71,68.70,68.69,68.63,68.58,68.55,68.51,68.50,68.55,68.58,68.51,68.43,68.36,68.30,68.25,68.17,68.23,68.27,68.27,68.18,68.18,68.17,68.13,68.08,67.89,67.77,67.73,67.74,67.68,67.67,67.65,67.60,67.56,67.40,67.38,67.39,67.31,66.60,65.39,64.67,64.48,64.45,64.93,65.68,66.41,66.84,66.94,67.13,67.27,67.31,67.35,67.42
64.24,64.48,64.80,64.89,64.87,64.80,64.90,65.19,65.27,65.37,65.40,65.42,65.57,65.36,65.29,65.26,65.19,65.09,64.71,64.13,63.57,63.54,63.12,63.00,63.06,63.06,62.95,63.02,63.15,63.27,63.28,63.21,63.11,63.00,62.89,62.91,63.14,63.41,63.55,63.56,63.53,63.59,63.71,63.73,63.62,63.51,63.43,63.42,63.37,63.05,62.80,62.83,63.14,63.21,63.25,63.28,63.19,63.19,63.19,63.19,63.15,63.01,62.79,62.71,62.78,62.81,62.85,62.95,63.03,63.04,63.58,64.97,66.22,66.78,67.17,67.49,67.73,67.87,67.88,67.39,66.27,65.04,64.25,64.38,64.60,64.81,64.98,65.14,65.43,65.90,66.48,67.06,67.50,67.69,67.73,67.72,67.71,67.70,67.70,67.69,67.67,67.64,67.63,67.60,67.56,67.50,67.51,67.56,67.62,67.69,67.77,67.80,67.76,67.66,67.48,67.36,67.31,67.34,67.31,67.26,67.20,67.13,67.07,67.01,66.78,66.25,65.36,64.45,63.94,63.71,63.83,64.74,66.17,67.19,67.67,67.66,67.55,67.39,67.18,66.95,66.81,66.92,67.25,67.77,68.45,68.83,69.01,69.05,69.03,69.00,69.12,69.24,69.30,69.19,69.08,69.02,69.00,69.00,69.00,69.00,69.00,69.00,69.00,69.00,68.97,68.93,68.90,68.90,68.90,68.90,68.91,68.90,68.90,68.88,68.84,68.86,68.77,68.72,68.72,68.77,68.78,68.82,68.87,68.89,68.89,68.90,68.93,68.96,68.92,68.85,68.82,68.80,68.79,68.79,68.80,68.80,68.80,68.86,68.83,68.78,68.71,68.70,68.70,68.70,68.69,68.69,68.69,68.64,68.60,68.58,68.52,68.51,68.54,68.57,68.51,68.43,68.35,68.30,68.28,68.15,68.17,68.23,68.25,68.13,68.17,68.19,68.16,68.08,67.85,67.74,67.66,67.59,67.52,67.51,67.48,67.46,67.53,67.59,67.66,67.73,67.77,67.55,65.80,64.73,64.46,64.19,64.39,65.05,65.86,66.52,66.64,66.87,67.05,67.13,67.22,67.33
64.27,64.50,64.80,64.89,64.86,64.83,64.93,65.15,65.13,65.21,65.24,65.25,65.37,65.29,65.26,65.23,65.11,64.60,64.11,63.63,63.27,63.29,63.22,63.19,63.18,63.18,63.13,63.14,63.18,63.22,63.25,63.23,63.14,63.04,63.03,62.98,63.00,63.11,63.26,63.39,63.45,63.55,63.66,63.65,63.57,63.48,63.38,63.25,63.07,62.96,62.91,62.92,63.06,63.12,63.15,63.15,63.10,63.10,63.14,63.18,63.20,63.09,62.91,62.82,62.82,62.80,62.67,62.61,62.58,62.53,62.90,63.95,64.96,65.57,66.24,66.93,67.39,67.58,67.54,66.58,65.34,64.38,64.14,64.37,64.52,64.69,64.92,65.27,65.48,65.79,66.23,66.84,67.49,67.68,67.68,67.68,67.72,67.73,67.71,67.67,67.62,67.59,67.60,67.61,67.56,67.51,67.52,67.57,67.64,67.70,67.73,67.73,67.69,67.62,67.53,67.46,67.40,67.34,67.26,67.20,67.15,67.10,67.03,66.98,66.71,66.10,65.10,64.21,63.75,63.61,63.83,64.84,66.24,67.18,67.59,67.58,67.49,67.35,67.13,66.85,66.69,66.92,67.30,67.77,68.33,68.72,68.94,69.02,69.00,68.98,69.12,69.28,69.36,69.26,69.13,69.04,69.00,69.00,69.00,69.02,69.02,68.98,68.98,68.99,68.98,68.93,68.90,68.90,68.88,68.86,68.88,68.90,68.90,68.88,68.82,68.73,68.67,68.66,68.69,68.72,68.72,68.76,68.81,68.83,68.83,68.90,68.96,68.98,68.92,68.89,68.85,68.81,68.79,68.80,68.80,68.80,68.80,68.82,68.81,68.77,68.71,68.69,68.65,68.64,68.64,68.64,68.64,68.62,68.60,68.59,68.56,68.52,68.55,68.57,68.49,68.43,68.35,68.29,68.25,68.23,68.21,68.21,68.20,68.16,68.14,68.12,68.09,68.01,67.79,67.71,67.66,67.62,67.59,67.60,67.63,67.66,67.68,67.63,67.65,67.72,67.79,67.72,66.67,65.53,64.61,64.06,64.10,64.39,64.95,65.76,66.30,66.54,66.66,66.76,66.90,67.14
64.30,64.52,64.79,64.87,64.91,64.88,64.93,65.08,64.99,65.06,65.09,65.10,65.20,65.18,65.16,64.99,64.57,63.97,63.62,63.36,63.17,63.22,63.26,63.25,63.23,63.22,63.18,63.19,63.20,63.20,63.22,63.22,63.17,63.11,63.14,63.07,63.02,63.02,63.12,63.15,63.25,63.41,63.58,63.53,63.36,63.23,63.13,63.03,62.91,62.92,62.94,62.94,62.98,63.00,63.04,63.11,63.23,63.23,63.22,63.20,63.18,63.12,63.03,62.96,62.91,62.87,62.75,62.66,62.58,62.51,62.66,63.27,63.94,64.46,65.08,65.89,66.46,66.69,66.61,65.56,64.58,64.02,64.09,64.27,64.38,64.51,64.78,65.29,65.59,65.86,66.19,66.70,67.32,67.56,67.60,67.61,67.69,67.74,67.72,67.65,67.60,67.58,67.59,67.60,67.56,67.51,67.52,67.56,67.59,67.50,67.34,67.24,67.21,67.24,67.33,67.40,67.43,67.39,67.32,67.26,67.19,67.12,66.99,66.81,66.41,65.73,64.73,63.94,63.58,63.58,63.99,65.08,66.35,67.17,67.52,67.54,67.48,67.33,67.08,66.76,66.63,66.99,67.44,67.85,68.27,68.64,68.87,68.96,68.95,68.94,69.09,69.26,69.36,69.26,69.12,69.03,68.99,68.99,69.00,69.02,69.03,68.98,68.99,69.00,68.99,68.97,68.92,68.91,68.88,68.86,68.86,68.88,68.88,68.85,68.80,68.70,68.63,68.63,68.67,68.69,68.68,68.70,68.74,68.77,68.79,68.87,68.94,68.96,68.91,68.89,68.85,68.80,68.76,68.79,68.79,68.79,68.79,68.79,68.78,68.73,68.67,68.66,68.61,68.63,68.65,68.64,68.64,68.62,68.60,68.59,68.56,68.53,68.54,68.54,68.46,68.39,68.31,68.25,68.23,68.24,68.22,68.19,68.17,68.15,68.12,68.07,68.01,67.94,67.74,67.67,67.65,67.64,67.65,67.69,67.76,67.81,67.78,67.70,67.67,67.71,67.80,67.79,67.23,66.33,65.27,64.29,64.01,63.98,64.29,65.01,65.77,66.08,66.28,66.46,66.60,66.93
64.34,64.53,64.78,64.83,64.99,64.92,64.90,64.99,64.87,64.91,64.95,64.97,65.04,65.04,65.00,64.59,63.66,63.23,63.23,63.26,63.23,63.29,63.24,63.21,63.20,63.20,63.14,63.17,63.20,63.20,63.20,63.20,63.20,63.20,63.21,63.18,63.15,63.12,63.09,62.85,62.94,63.21,63.48,63.38,63.02,62.79,62.72,62.77,62.86,62.90,62.92,62.91,62.90,62.87,62.92,63.12,63.52,63.52,63.42,63.26,63.11,63.12,63.15,63.13,63.06,63.02,63.03,63.00,62.94,62.89,62.76,62.86,63.10,63.43,63.74,64.47,65.05,65.32,65.21,64.39,63.95,63.90,64.10,64.12,64.17,64.29,64.57,65.21,65.75,66.07,66.30,66.61,67.05,67.34,67.50,67.54,67.64,67.72,67.72,67.65,67.60,67.60,67.60,67.59,67.56,67.51,67.52,67.54,67.48,67.12,66.66,66.41,66.40,66.58,66.91,67.22,67.42,67.48,67.48,67.40,67.30,67.17,66.94,66.52,65.94,65.20,64.29,63.64,63.41,63.62,64.28,65.44,66.48,67.14,67.45,67.53,67.51,67.34,67.04,66.66,66.60,67.13,67.64,67.98,68.25,68.57,68.78,68.88,68.91,68.90,69.04,69.20,69.31,69.21,69.08,69.00,68.98,68.98,68.99,69.01,69.02,69.01,69.02,69.01,69.02,69.03,68.96,68.92,68.89,68.87,68.85,68.86,68.84,68.81,68.79,68.74,68.65,68.62,68.65,68.67,68.66,68.65,68.66,68.72,68.77,68.82,68.88,68.92,68.88,68.87,68.83,68.77,68.71,68.77,68.77,68.77,68.76,68.76,68.74,68.68,68.62,68.60,68.58,68.66,68.72,68.68,68.69,68.65,68.61,68.59,68.52,68.53,68.53,68.49,68.41,68.32,68.23,68.19,68.21,68.20,68.20,68.18,68.14,68.10,68.10,68.03,67.94,67.86,67.70,67.63,67.62,67.66,67.69,67.77,67.86,67.91,67.85,67.77,67.69,67.70,67.80,67.80,67.56,67.13,66.33,64.82,64.08,63.76,63.83,64.28,65.07,65.52,65.89,66.23,66.32,66.70
64.37,64.48,64.64,64.74,64.82,64.89,64.91,64.87,64.72,64.80,64.83,64.83,64.95,64.94,64.58,64.00,63.38,63.25,63.23,63.25,63.27,63.30,63.28,63.24,63.20,63.19,63.17,63.19,63.20,63.20,63.21,63.24,63.23,63.20,63.20,63.20,63.18,63.15,63.09,62.96,63.03,63.08,63.04,62.99,62.88,62.83,62.83,62.85,62.88,62.90,62.90,62.88,62.85,62.86,63.05,63.36,63.64,63.64,63.47,63.20,62.93,62.85,62.92,62.97,62.96,62.99,63.01,62.98,62.93,62.91,62.89,62.85,62.76,62.72,63.20,63.53,63.85,64.10,64.18,63.81,63.60,63.56,63.62,63.72,63.84,64.03,64.39,65.17,65.89,66.30,66.50,66.66,66.91,67.10,67.25,67.36,67.54,67.67,67.69,67.62,67.60,67.60,67.60,67.59,67.56,67.51,67.54,67.27,66.54,65.30,64.87,64.69,64.70,64.86,65.18,65.56,65.98,66.43,66.75,66.85,66.88,66.88,66.80,66.29,65.45,64.48,63.61,63.19,63.12,63.47,64.26,65.35,66.17,66.75,67.12,67.32,67.29,67.10,66.79,66.45,66.43,67.06,67.72,68.16,68.29,68.51,68.72,68.88,68.95,68.93,69.04,69.16,69.24,69.17,69.05,68.97,68.93,68.93,68.96,69.00,69.02,69.02,69.02,69.03,69.02,68.99,68.92,68.88,68.86,68.83,68.78,68.78,68.77,68.74,68.71,68.68,68.59,68.56,68.59,68.60,68.57,68.56,68.58,68.63,68.66,68.73,68.78,68.81,68.80,68.79,68.77,68.73,68.71,68.74,68.74,68.73,68.72,68.72,68.70,68.66,68.61,68.60,68.55,68.63,68.69,68.67,68.64,68.62,68.60,68.60,68.58,68.58,68.51,68.41,68.36,68.26,68.15,68.10,68.14,68.19,68.20,68.19,68.17,68.11,68.07,67.98,67.85,67.72,67.64,67.61,67.56,67.51,67.56,67.73,67.80,67.79,67.78,67.75,67.73,67.75,67.80,67.80,67.74,67.53,66.94,65.54,64.38,63.78,63.64,63.85,64.29,64.68,65.20,65.82,66.19,66.65
64.40,64.46,64.55,64.66,64.68,64.82,64.87,64.75,64.60,64.74,64.74,64.68,64.81,64.60,64.07,63.53,63.24,63.28,63.23,63.24,63.30,63.30,63.30,63.25,63.19,63.17,63.19,63.20,63.20,63.20,63.21,63.25,63.25,63.21,63.20,63.20,63.19,63.16,63.11,63.06,63.11,63.03,62.84,62.83,62.84,62.88,62.92,62.90,62.89,62.89,62.88,62.85,62.81,62.88,63.14,63.50,63.66,63.67,63.45,63.13,62.80,62.67,62.75,62.83,62.87,62.97,63.03,63.02,62.97,62.94,62.97,62.81,62.51,62.26,62.88,62.98,63.10,63.29,63.44,63.34,63.22,63.14,63.13,63.27,63.47,63.76,64.24,65.18,66.03,66.51,66.69,66.75,66.84,66.94,67.05,67.20,67.41,67.58,67.64,67.60,67.61,67.60,67.59,67.58,67.55,67.51,67.55,67.15,66.07,64.26,63.61,63.39,63.40,63.52,63.76,64.10,64.57,65.18,65.72,66.01,66.20,66.34,66.47,66.10,65.23,64.14,63.21,62.92,62.95,63.34,64.07,64.91,65.50,66.04,66.53,66.96,67.05,66.88,66.58,66.28,66.24,66.94,67.71,68.24,68.30,68.47,68.69,68.89,68.99,68.98,69.04,69.12,69.17,69.14,69.03,68.94,68.90,68.90,68.94,68.98,69.00,69.00,69.01,69.03,69.01,68.95,68.87,68.85,68.82,68.78,68.72,68.70,68.68,68.65,68.62,68.61,68.54,68.53,68.56,68.56,68.52,68.50,68.52,68.57,68.61,68.67,68.71,68.72,68.73,68.73,68.72,68.71,68.70,68.72,68.71,68.70,68.68,68.68,68.67,68.63,68.59,68.57,68.53,68.59,68.66,68.65,68.59,68.58,68.57,68.57,68.59,68.58,68.48,68.36,68.34,68.24,68.12,68.06,68.10,68.18,68.20,68.20,68.18,68.11,68.02,67.90,67.76,67.61,67.60,67.60,67.53,67.43,67.50,67.66,67.71,67.69,67.70,67.73,67.77,67.80,67.80,67.78,67.81,67.75,67.31,66.04,64.72,63.91,63.54,63.49,63.64,63.96,64.55,65.35,65.99,66.57
64.42,64.48,64.54,64.56,64.64,64.73,64.74,64.64,64.50,64.75,64.72,64.52,64.60,63.87,63.43,63.27,63.30,63.25,63.22,63.24,63.30,63.30,63.28,63.24,63.18,63.11,63.18,63.20,63.20,63.20,63.22,63.23,63.23,63.22,63.20,63.20,63.19,63.17,63.15,63.10,63.12,63.11,63.07,63.04,62.96,62.94,62.94,62.90,62.87,62.87,62.86,62.83,62.81,62.90,63.15,63.45,63.54,63.55,63.35,63.04,62.74,62.64,62.68,62.74,62.80,62.99,63.14,63.16,63.10,63.01,62.95,62.70,62.37,62.20,62.89,63.04,63.10,63.16,63.16,63.02,62.78,62.60,62.64,62.75,63.04,63.48,64.15,65.30,66.18,66.68,66.87,66.90,66.88,66.89,66.94,67.05,67.24,67.44,67.56,67.59,67.62,67.59,67.57,67.55,67.53,67.52,67.57,67.30,66.45,64.60,63.33,62.84,62.85,62.91,62.94,63.06,63.29,63.66,64.22,64.75,65.13,65.41,65.81,65.99,65.47,64.47,63.31,62.95,63.00,63.25,63.59,63.92,64.26,64.81,65.55,66.38,66.75,66.73,66.48,66.18,66.04,66.72,67.53,68.16,68.28,68.47,68.70,68.90,69.03,69.05,69.06,69.08,69.11,69.11,69.02,68.94,68.90,68.90,68.92,68.94,68.94,68.95,68.97,69.01,68.99,68.93,68.84,68.82,68.78,68.75,68.71,68.64,68.58,68.55,68.53,68.54,68.51,68.52,68.56,68.58,68.50,68.48,68.51,68.58,68.64,68.68,68.68,68.66,68.69,68.70,68.70,68.70,68.70,68.70,68.70,68.68,68.64,68.63,68.63,68.59,68.53,68.47,68.49,68.55,68.60,68.61,68.54,68.53,68.50,68.47,68.52,68.52,68.43,68.34,68.37,68.30,68.18,68.10,68.11,68.18,68.20,68.20,68.18,68.11,67.93,67.80,67.68,67.54,67.58,67.60,67.55,67.49,67.56,67.56,67.58,67.62,67.62,67.75,67.83,67.85,67.79,67.72,67.72,67.67,67.31,66.12,65.11,64.20,63.55,63.25,63.22,63.47,64.00,64.77,65.70,66.43
64.53,64.59,64.63,64.62,64.74,64.80,64.71,64.50,64.36,64.63,64.59,64.36,64.43,63.81,63.41,63.27,63.35,63.28,63.22,63.23,63.28,63.30,63.25,63.22,63.18,63.13,63.18,63.20,63.20,63.20,63.24,63.24,63.24,63.23,63.20,63.20,63.18,63.15,63.13,63.11,63.12,63.12,63.09,63.09,63.02,62.99,62.97,62.92,62.87,62.86,62.86,62.85,62.82,62.88,63.02,63.17,63.25,63.28,63.14,62.90,62.65,62.62,62.65,62.71,62.83,63.10,63.28,63.31,63.22,63.02,62.96,62.68,62.39,62.29,62.90,63.01,63.04,63.05,63.01,62.92,62.74,62.59,62.57,62.62,62.78,63.12,63.68,64.51,65.46,66.38,67.03,67.06,66.99,66.95,66.94,66.97,67.08,67.24,67.36,67.43,67.49,67.50,67.51,67.52,67.52,67.53,67.59,67.52,67.10,65.98,65.05,64.48,64.03,63.30,62.92,62.81,62.88,63.07,63.37,63.73,64.11,64.54,65.16,65.67,65.63,65.03,63.99,63.29,63.06,63.10,63.27,63.45,63.63,63.98,64.55,65.34,66.03,66.35,66.33,66.08,65.98,66.69,67.49,68.09,68.23,68.49,68.75,68.97,69.07,69.08,69.10,69.12,69.14,69.15,69.05,68.96,68.90,68.90,68.91,68.90,68.89,68.90,68.93,68.95,68.93,68.88,68.82,68.78,68.75,68.72,68.70,68.61,68.55,68.52,68.53,68.50,68.48,68.52,68.57,68.59,68.52,68.49,68.51,68.57,68.62,68.64,68.62,68.59,68.62,68.67,68.69,68.69,68.66,68.65,68.65,68.64,68.61,68.58,68.54,68.50,68.47,68.46,68.49,68.50,68.50,68.50,68.46,68.43,68.41,68.41,68.43,68.46,68.40,68.32,68.34,68.30,68.17,68.07,68.06,68.13,68.17,68.20,68.18,68.07,67.92,67.78,67.64,67.50,67.53,67.53,67.50,67.48,67.54,67.60,67.68,67.73,67.70,67.67,67.77,67.82,67.72,67.61,67.59,67.58,67.35,66.47,65.64,64.77,63.94,63.28,63.14,63.16,63.49,64.17,65.15,65.99
64.64,64.68,64.72,64.70,64.84,64.89,64.71,64.35,64.21,64.46,64.42,64.21,64.28,63.86,63.51,63.33,63.38,63.31,63.24,63.22,63.25,63.29,63.23,63.20,63.19,63.16,63.19,63.20,63.20,63.20,63.24,63.24,63.24,63.23,63.20,63.20,63.18,63.14,63.10,63.11,63.12,63.10,63.06,63.08,63.06,63.04,63.00,62.95,62.88,62.87,62.88,62.88,62.82,62.84,62.85,62.86,62.92,62.98,62.91,62.75,62.57,62.60,62.65,62.74,62.91,63.23,63.41,63.44,63.30,63.02,62.90,62.61,62.40,62.45,62.90,62.94,62.94,62.95,62.92,62.88,62.81,62.72,62.65,62.63,62.64,62.82,63.16,63.51,64.38,65.63,66.72,66.93,67.00,67.01,66.99,66.95,66.97,67.05,67.14,67.22,67.30,67.36,67.43,67.48,67.50,67.53,67.62,67.70,67.70,67.39,67.00,66.47,65.60,64.14,63.32,62.97,62.86,62.84,62.83,62.94,63.24,63.78,64.56,65.32,65.75,65.63,64.83,63.77,63.21,63.02,63.09,63.22,63.28,63.40,63.69,64.24,65.12,65.78,66.05,65.91,65.91,66.64,67.42,67.98,68.14,68.48,68.79,69.00,69.08,69.09,69.12,69.16,69.18,69.17,69.07,68.97,68.90,68.90,68.90,68.86,68.84,68.86,68.89,68.89,68.87,68.83,68.81,68.75,68.71,68.69,68.68,68.59,68.53,68.53,68.56,68.48,68.48,68.51,68.56,68.59,68.54,68.51,68.52,68.57,68.59,68.59,68.56,68.52,68.56,68.63,68.67,68.67,68.61,68.60,68.60,68.60,68.59,68.52,68.45,68.41,68.42,68.48,68.49,68.45,68.40,68.39,68.38,68.33,68.32,68.35,68.32,68.36,68.33,68.28,68.28,68.26,68.14,68.04,68.01,68.06,68.13,68.18,68.17,68.04,67.92,67.76,67.59,67.47,67.47,67.47,67.46,67.46,67.52,67.68,67.81,67.87,67.80,67.60,67.68,67.74,67.62,67.49,67.45,67.47,67.37,66.85,66.19,65.42,64.54,63.63,63.36,63.03,63.06,63.58,64.48,65.41
64.62,64.66,64.67,64.65,64.80,64.84,64.64,64.23,64.10,64.32,64.26,64.07,64.16,63.61,63.36,63.30,63.29,63.26,63.25,63.24,63.22,63.25,63.21,63.20,63.20,63.19,63.20,63.20,63.20,63.20,63.21,63.21,63.21,63.21,63.20,63.20,63.19,63.16,63.11,63.14,63.12,63.07,63.02,62.99,63.06,63.08,63.03,62.93,62.90,62.89,62.89,62.88,62.81,62.77,62.74,62.71,62.66,62.69,62.68,62.61,62.49,62.60,62.73,62.90,63.12,63.34,63.45,63.46,63.32,63.00,62.54,62.22,62.26,62.70,62.88,62.86,62.82,62.83,62.89,62.84,62.82,62.81,62.82,62.80,62.79,62.83,62.88,62.72,62.88,63.46,64.39,65.54,66.50,67.00,67.19,67.17,67.04,66.98,66.98,67.03,67.08,67.14,67.24,67.36,67.46,67.52,67.60,67.67,67.70,67.58,67.46,67.26,66.77,65.72,64.57,63.86,63.42,63.10,62.88,62.83,62.98,63.40,64.19,65.10,65.81,66.03,65.56,64.51,63.77,63.38,63.30,63.36,63.38,63.44,63.50,63.48,63.94,64.65,65.23,65.46,65.63,66.29,67.04,67.66,67.98,68.36,68.67,68.87,68.94,69.01,69.07,69.11,69.12,69.08,69.03,68.97,68.92,68.90,68.87,68.84,68.82,68.83,68.86,68.85,68.85,68.84,68.82,68.73,68.67,68.62,68.57,68.55,68.53,68.54,68.57,68.55,68.53,68.50,68.49,68.51,68.51,68.50,68.52,68.57,68.58,68.56,68.51,68.47,68.50,68.56,68.59,68.60,68.58,68.58,68.58,68.58,68.56,68.47,68.42,68.40,68.41,68.46,68.47,68.41,68.35,68.34,68.30,68.26,68.24,68.22,68.10,68.10,68.12,68.16,68.21,68.17,68.12,68.06,68.01,68.00,68.04,68.11,68.15,68.04,67.85,67.62,67.45,67.43,67.45,67.52,67.55,67.54,67.57,67.74,67.84,67.85,67.80,67.66,67.61,67.57,67.50,67.43,67.35,67.32,67.27,67.03,66.64,66.15,65.59,65.00,64.47,63.55,62.97,63.00,63.57,64.62
64.09,64.09,64.15,64.24,64.57,64.60,64.40,64.08,63.97,64.16,64.12,63.95,64.07,63.50,63.31,63.28,63.24,63.25,63.25,63.23,63.20,63.22,63.21,63.20,63.20,63.20,63.20,63.18,63.18,63.20,63.17,63.16,63.18,63.20,63.20,63.20,63.18,63.14,63.11,63.13,63.09,63.05,63.03,62.97,63.03,63.06,63.02,62.95,62.91,62.88,62.88,62.88,62.80,62.73,62.68,62.62,62.53,62.51,62.49,62.48,62.47,62.64,62.83,63.04,63.26,63.39,63.46,63.45,63.33,63.11,62.50,62.12,62.21,62.76,62.83,62.79,62.72,62.67,62.70,62.69,62.70,62.75,62.84,62.89,62.88,62.84,62.72,62.36,62.26,62.45,63.03,64.09,65.39,66.28,66.79,67.00,66.97,66.96,66.97,66.99,66.99,67.03,67.13,67.25,67.37,67.48,67.57,67.63,67.65,67.63,67.62,67.59,67.37,66.74,65.72,65.03,64.52,64.07,63.63,63.34,63.25,63.46,64.18,65.22,66.01,66.31,65.93,64.91,64.14,63.69,63.53,63.50,63.50,63.50,63.45,63.26,63.44,63.97,64.55,64.99,65.32,65.95,66.69,67.40,67.83,68.20,68.49,68.65,68.71,68.81,68.93,69.02,69.06,69.02,69.00,68.97,68.93,68.90,68.88,68.86,68.84,68.81,68.82,68.81,68.81,68.82,68.81,68.73,68.66,68.60,68.54,68.51,68.51,68.52,68.55,68.53,68.53,68.50,68.46,68.47,68.48,68.48,68.50,68.55,68.54,68.51,68.48,68.45,68.47,68.51,68.54,68.54,68.53,68.53,68.52,68.51,68.49,68.42,68.39,68.37,68.37,68.40,68.39,68.32,68.26,68.26,68.21,68.16,68.13,68.08,67.96,67.95,67.99,68.06,68.14,68.10,68.08,68.05,68.00,67.96,67.95,68.01,68.06,67.97,67.77,67.51,67.36,67.45,67.46,67.50,67.53,67.54,67.57,67.70,67.77,67.78,67.75,67.67,67.55,67.45,67.39,67.36,67.25,67.19,67.18,67.15,66.95,66.73,66.43,66.01,65.60,64.47,63.37,62.71,62.83,63.67
63.21,63.16,63.30,63.58,64.20,64.21,64.03,63.91,63.83,64.01,63.98,63.86,64.00,63.50,63.31,63.27,63.21,63.28,63.23,63.20,63.20,63.20,63.20,63.20,63.20,63.20,63.20,63.14,63.13,63.19,63.11,63.10,63.14,63.20,63.20,63.19,63.14,63.10,63.10,63.09,63.04,63.04,63.08,63.01,63.00,63.00,63.00,62.99,62.91,62.85,62.84,62.87,62.80,62.72,62.65,62.57,62.49,62.41,62.35,62.36,62.48,62.71,62.94,63.16,63.34,63.41,63.45,63.41,63.35,63.32,62.69,62.22,62.22,62.70,62.76,62.74,62.63,62.49,62.41,62.45,62.49,62.58,62.75,62.92,62.92,62.83,62.66,62.32,62.25,62.25,62.33,62.61,63.87,65.06,65.99,66.55,66.82,66.99,67.07,67.04,66.98,66.99,67.05,67.15,67.25,67.40,67.51,67.56,67.57,67.57,67.58,67.62,67.59,67.36,66.79,66.39,66.02,65.53,64.86,64.29,63.89,63.83,64.43,65.56,66.31,66.50,66.04,65.07,64.39,63.97,63.77,63.64,63.62,63.57,63.49,63.40,63.40,63.58,63.96,64.50,64.98,65.62,66.38,67.16,67.67,68.03,68.25,68.37,68.41,68.52,68.73,68.91,69.00,68.97,68.98,68.96,68.93,68.90,68.90,68.90,68.87,68.81,68.77,68.76,68.77,68.78,68.77,68.73,68.68,68.61,68.56,68.47,68.46,68.48,68.50,68.45,68.49,68.50,68.47,68.45,68.45,68.45,68.47,68.52,68.49,68.46,68.45,68.45,68.45,68.48,68.49,68.49,68.46,68.45,68.43,68.40,68.39,68.36,68.35,68.33,68.30,68.29,68.26,68.19,68.13,68.14,68.12,68.06,67.99,67.94,67.87,67.87,67.90,67.95,68.06,68.05,68.04,68.03,68.00,67.92,67.87,67.88,67.91,67.85,67.68,67.41,67.30,67.51,67.50,67.43,67.42,67.50,67.53,67.58,67.63,67.67,67.67,67.65,67.51,67.36,67.27,67.27,67.14,67.07,67.10,67.23,67.17,67.19,67.10,66.77,66.74,65.67,64.12,62.63,62.21,62.61
64.38,64.36,64.44,64.55,64.85,64.58,64.17,63.85,63.70,63.89,63.90,63.80,63.86,63.68,63.59,63.60,63.71,63.72,63.62,63.57,63.59,63.53,63.52,63.50,63.49,63.51,63.43,63.35,63.30,63.28,63.20,63.23,63.23,63.19,63.15,63.14,63.12,63.10,63.10,63.08,63.04,63.02,63.03,63.01,63.03,63.01,63.00,63.03,62.97,62.90,62.85,62.84,62.85,62.80,62.73,62.64,62.53,62.46,62.41,62.44,62.60,62.82,63.03,63.20,63.34,63.37,63.42,63.39,63.29,63.09,62.34,62.06,62.19,62.59,62.65,62.62,62.49,62.35,62.32,62.34,62.37,62.46,62.63,62.87,62.89,62.79,62.60,62.30,62.26,62.26,62.29,62.39,63.05,63.72,64.23,64.53,65.01,65.80,66.49,66.94,67.10,67.13,67.15,67.18,67.22,67.29,67.37,67.41,67.43,67.47,67.51,67.55,67.57,67.49,67.28,67.13,66.91,66.53,65.98,65.61,65.36,65.29,65.64,66.27,66.56,66.44,65.89,64.98,64.37,64.01,63.83,63.72,63.67,63.61,63.54,63.48,63.50,63.62,63.88,64.30,64.75,65.31,65.98,66.70,67.37,67.85,68.11,68.23,68.29,68.38,68.55,68.71,68.85,68.89,68.95,68.96,68.93,68.88,68.85,68.81,68.77,68.72,68.71,68.67,68.66,68.68,68.69,68.65,68.58,68.51,68.48,68.42,68.38,68.36,68.35,68.32,68.39,68.41,68.41,68.41,68.39,68.38,68.39,68.41,68.42,68.40,68.39,68.41,68.42,68.44,68.45,68.44,68.39,68.35,68.34,68.33,68.33,68.29,68.30,68.25,68.16,68.10,68.07,68.06,68.07,68.10,68.07,67.96,67.88,67.85,67.79,67.75,67.76,67.83,67.95,67.97,67.94,67.93,67.94,67.87,67.87,67.87,67.86,67.87,67.62,67.34,67.26,67.48,67.54,67.52,67.52,67.55,67.52,67.46,67.47,67.53,67.57,67.61,67.44,67.30,67.28,67.23,67.17,67.16,67.19,67.17,67.22,67.32,67.27,66.95,66.82,66.20,65.01,63.47,62.35,62.34
65.90,65.94,65.99,65.98,66.03,65.41,64.56,63.82,63.60,63.75,63.78,63.71,63.75,63.79,64.00,64.38,64.82,64.78,64.64,64.57,64.57,64.46,64.42,64.35,64.30,64.33,64.18,64.07,63.95,63.81,63.68,63.73,63.67,63.53,63.43,63.39,63.36,63.35,63.31,63.23,63.17,63.13,63.10,63.08,63.08,63.04,63.00,63.04,62.99,62.93,62.87,62.84,62.89,62.87,62.81,62.74,62.66,62.58,62.54,62.59,62.77,62.98,63.13,63.22,63.27,63.30,63.34,63.34,63.21,62.91,62.10,61.98,62.22,62.52,62.57,62.53,62.40,62.26,62.25,62.27,62.32,62.42,62.60,62.84,62.87,62.77,62.57,62.29,62.26,62.26,62.26,62.27,62.49,62.76,62.95,63.06,63.57,64.59,65.56,66.27,66.60,66.81,67.01,67.17,67.25,67.27,67.28,67.28,67.26,67.31,67.38,67.45,67.50,67.52,67.55,67.54,67.44,67.19,66.81,66.61,66.46,66.39,66.51,66.73,66.70,66.38,65.76,64.90,64.35,64.03,63.88,63.79,63.72,63.64,63.58,63.55,63.57,63.63,63.80,64.11,64.56,65.05,65.60,66.24,66.98,67.60,67.96,68.12,68.21,68.29,68.42,68.58,68.74,68.84,68.92,68.93,68.90,68.85,68.80,68.74,68.69,68.65,68.66,68.62,68.58,68.58,68.61,68.57,68.49,68.42,68.41,68.37,68.33,68.29,68.24,68.24,68.29,68.31,68.30,68.33,68.32,68.31,68.30,68.32,68.35,68.35,68.35,68.37,68.39,68.41,68.40,68.37,68.31,68.25,68.24,68.24,68.24,68.19,68.20,68.14,68.03,67.94,67.92,67.95,68.00,68.05,68.00,67.87,67.79,67.79,67.72,67.63,67.63,67.72,67.86,67.90,67.87,67.86,67.89,67.83,67.83,67.82,67.81,67.79,67.46,67.22,67.19,67.45,67.53,67.53,67.51,67.50,67.50,67.40,67.37,67.40,67.49,67.55,67.40,67.26,67.26,67.21,67.19,67.21,67.23,67.14,67.27,67.40,67.37,67.09,66.90,66.52,65.59,64.16,62.71,62.19
67.94,68.04,68.14,68.09,68.01,66.91,65.34,63.85,63.54,63.60,63.60,63.57,63.66,63.76,64.64,65.83,66.84,66.73,66.60,66.49,66.41,66.28,66.19,66.02,65.87,65.89,65.70,65.54,65.32,65.00,64.76,64.77,64.63,64.38,64.21,64.08,64.02,63.96,63.85,63.62,63.49,63.41,63.34,63.26,63.17,63.07,63.00,63.00,62.96,62.92,62.90,62.90,62.91,62.92,62.90,62.88,62.94,62.78,62.75,62.84,63.02,63.20,63.25,63.19,63.10,63.17,63.20,63.22,63.13,62.81,62.01,62.03,62.32,62.51,62.53,62.48,62.36,62.24,62.22,62.27,62.36,62.50,62.71,62.85,62.85,62.75,62.57,62.28,62.23,62.23,62.25,62.28,62.32,62.36,62.39,62.44,62.69,63.37,64.11,64.76,65.19,65.80,66.52,67.10,67.36,67.37,67.29,67.17,67.04,67.05,67.16,67.27,67.36,67.41,67.47,67.49,67.45,67.34,67.20,67.12,67.04,66.94,66.87,66.84,66.69,66.32,65.66,64.85,64.34,64.05,63.92,63.84,63.74,63.65,63.59,63.58,63.62,63.63,63.71,63.93,64.42,64.84,65.26,65.76,66.46,67.27,67.81,68.09,68.17,68.25,68.38,68.54,68.69,68.81,68.89,68.89,68.85,68.82,68.76,68.70,68.64,68.61,68.65,68.63,68.57,68.50,68.50,68.48,68.41,68.35,68.33,68.31,68.33,68.30,68.21,68.23,68.21,68.18,68.15,68.20,68.22,68.22,68.22,68.22,68.28,68.30,68.31,68.32,68.37,68.39,68.34,68.26,68.22,68.16,68.13,68.12,68.11,68.05,68.04,67.99,67.92,67.84,67.82,67.86,67.92,67.98,67.88,67.78,67.75,67.76,67.65,67.51,67.51,67.63,67.78,67.86,67.84,67.83,67.86,67.81,67.74,67.74,67.74,67.58,67.16,67.01,67.12,67.41,67.45,67.44,67.37,67.31,67.47,67.43,67.34,67.31,67.43,67.48,67.39,67.28,67.23,67.20,67.20,67.20,67.20,67.18,67.31,67.41,67.37,67.16,67.00,66.55,65.73,64.60,63.39,62.24
69.41,69.46,69.50,69.47,69.40,67.90,65.79,63.85,63.55,63.56,63.55,63.52,63.59,63.67,65.58,67.68,68.57,68.49,68.41,68.31,68.18,68.10,68.03,67.88,67.74,67.72,67.56,67.43,67.21,66.89,66.71,66.62,66.47,66.25,65.97,65.78,65.67,65.55,65.36,65.01,64.80,64.67,64.57,64.39,64.14,63.95,63.80,63.66,63.47,63.36,63.27,63.19,63.16,63.04,63.00,63.03,63.09,62.93,62.96,63.10,63.26,63.31,63.13,62.95,62.90,63.03,63.08,63.08,62.97,62.67,62.09,62.19,62.43,62.48,62.44,62.39,62.33,62.27,62.26,62.33,62.42,62.56,62.74,62.82,62.82,62.75,62.64,62.46,62.30,62.23,62.23,62.24,62.26,62.28,62.29,62.29,62.37,62.69,63.07,63.44,63.75,64.32,65.00,65.78,66.62,67.18,67.33,67.23,67.01,66.90,66.93,66.98,67.05,67.14,67.24,67.30,67.29,67.21,67.11,67.00,66.89,66.77,66.67,66.64,66.49,66.11,65.45,64.76,64.29,64.01,63.86,63.80,63.73,63.67,63.62,63.62,63.66,63.67,63.69,63.81,64.21,64.56,64.97,65.49,66.25,67.13,67.74,68.09,68.19,68.24,68.35,68.48,68.61,68.71,68.77,68.78,68.76,68.74,68.69,68.63,68.57,68.54,68.59,68.61,68.56,68.47,68.44,68.42,68.41,68.39,68.37,68.35,68.36,68.31,68.20,68.20,68.17,68.13,68.10,68.10,68.13,68.14,68.14,68.14,68.20,68.23,68.24,68.24,68.27,68.28,68.23,68.15,68.10,68.07,68.05,68.03,67.99,67.95,67.94,67.92,67.87,67.81,67.76,67.78,67.84,67.90,67.79,67.70,67.68,67.70,67.58,67.37,67.38,67.52,67.68,67.78,67.67,67.56,67.58,67.66,67.52,67.49,67.53,67.37,66.99,66.92,67.16,67.63,67.60,67.42,67.24,67.15,67.34,67.38,67.18,66.92,66.88,67.07,67.09,67.07,67.10,67.17,67.19,67.18,67.14,67.14,67.25,67.29,67.26,67.13,66.99,66.64,65.96,65.00,63.93,62.51
70.45,70.44,70.43,70.40,70.38,68.64,66.16,63.86,63.58,63.56,63.54,63.51,63.53,63.57,66.45,69.30,69.92,69.89,69.87,69.78,69.64,69.61,69.57,69.48,69.38,69.34,69.24,69.15,68.98,68.73,68.65,68.48,68.34,68.20,67.88,67.67,67.52,67.35,67.11,66.73,66.48,66.32,66.17,65.87,65.52,65.24,65.01,64.75,64.42,64.21,64.02,63.81,63.69,63.43,63.31,63.33,63.32,63.15,63.17,63.27,63.35,63.28,62.94,62.72,62.73,62.90,62.95,62.93,62.81,62.57,62.23,62.36,62.51,62.45,62.35,62.32,62.31,62.31,62.33,62.42,62.51,62.62,62.75,62.80,62.79,62.76,62.72,62.65,62.44,62.29,62.23,62.22,62.24,62.27,62.29,62.27,62.24,62.27,62.33,62.42,62.58,62.96,63.47,64.30,65.57,66.64,67.09,67.14,66.95,66.79,66.76,66.76,66.79,66.87,67.00,67.08,67.09,67.02,66.91,66.77,66.62,66.48,66.39,66.41,66.27,65.89,65.23,64.64,64.24,63.98,63.82,63.77,63.73,63.69,63.66,63.66,63.70,63.70,63.70,63.73,63.99,64.28,64.67,65.24,66.04,66.98,67.66,68.05,68.19,68.23,68.31,68.41,68.52,68.58,68.63,68.65,68.65,68.65,68.61,68.54,68.48,68.46,68.51,68.56,68.55,68.46,68.39,68.39,68.42,68.43,68.41,68.37,68.36,68.31,68.20,68.17,68.13,68.11,68.08,68.03,68.06,68.07,68.07,68.07,68.12,68.15,68.16,68.16,68.16,68.14,68.10,68.04,67.99,67.99,67.98,67.94,67.88,67.86,67.86,67.85,67.82,67.77,67.70,67.70,67.76,67.82,67.69,67.58,67.56,67.58,67.46,67.20,67.19,67.34,67.48,67.57,67.35,67.15,67.17,67.39,67.19,67.13,67.20,67.11,66.82,66.82,67.14,67.70,67.55,67.19,66.89,66.78,66.99,67.07,66.76,66.30,66.06,66.37,66.55,66.67,66.81,66.98,67.06,67.07,67.05,67.07,67.14,67.15,67.11,67.06,66.89,66.59,66.02,65.18,64.24,62.74
70.44,70.43,70.41,70.36,70.35,68.88,66.49,63.96,63.64,63.59,63.55,63.51,63.51,63.52,66.73,69.79,70.15,70.14,70.13,70.07,69.99,70.03,70.02,69.99,69.96,69.95,69.92,69.89,69.83,69.75,69.73,69.68,69.64,69.60,69.49,69.37,69.24,69.09,68.93,68.81,68.74,68.58,68.28,67.84,67.59,67.34,67.06,66.77,66.51,66.20,65.84,65.44,65.04,64.72,64.41,64.12,63.91,63.67,63.36,63.08,62.90,62.79,62.71,62.68,62.69,62.77,62.77,62.75,62.72,62.65,62.49,62.48,62.50,62.45,62.35,62.32,62.33,62.36,62.44,62.59,62.66,62.71,62.78,62.79,62.79,62.78,62.76,62.76,62.77,62.58,62.33,62.26,62.27,62.27,62.28,62.29,62.28,62.29,62.30,62.31,62.33,62.49,62.78,63.29,64.13,65.08,65.82,66.36,66.69,66.75,66.86,66.86,66.80,66.76,66.79,66.83,66.87,66.87,66.78,66.65,66.52,66.41,66.33,66.33,66.16,65.75,65.06,64.51,64.20,64.02,63.90,63.83,63.78,63.74,63.71,63.72,63.73,63.73,63.72,63.72,63.81,64.01,64.34,64.83,65.61,66.65,67.41,67.87,68.06,68.19,68.27,68.32,68.35,68.38,68.45,68.50,68.52,68.52,68.47,68.42,68.37,68.34,68.41,68.50,68.51,68.45,68.37,68.38,68.40,68.40,68.36,68.31,68.29,68.24,68.18,68.13,68.08,68.06,68.05,68.02,68.04,68.03,68.01,67.99,68.03,68.06,68.08,68.09,68.09,68.04,67.99,67.95,67.93,67.96,67.96,67.90,67.81,67.78,67.77,67.73,67.68,67.65,67.59,67.58,67.64,67.76,67.57,67.35,67.27,67.30,67.19,66.91,66.83,66.89,66.96,66.91,66.58,66.39,66.53,66.78,66.63,66.54,66.57,66.64,66.58,66.60,66.75,67.01,66.62,66.15,65.80,65.67,65.90,65.95,65.58,65.04,64.68,64.96,65.36,65.73,66.00,66.28,66.47,66.66,66.83,66.91,66.98,66.99,66.97,66.92,66.51,65.99,65.36,64.61,63.82,62.63
70.69,70.56,70.48,70.46,70.43,69.14,66.82,64.16,63.69,63.60,63.56,63.51,63.50,63.50,66.82,69.96,70.26,70.17,70.14,70.11,70.07,70.11,70.12,70.11,70.10,70.07,70.09,70.09,70.08,70.07,70.07,70.07,70.07,70.06,70.05,70.00,69.92,69.83,69.75,69.74,69.73,69.65,69.45,69.15,69.00,68.84,68.64,68.40,68.23,67.99,67.64,67.20,66.76,66.46,66.12,65.77,65.52,65.21,64.80,64.35,63.94,63.69,63.57,63.47,63.35,63.18,62.83,62.67,62.64,62.64,62.54,62.51,62.51,62.52,62.46,62.43,62.44,62.48,62.58,62.69,62.73,62.74,62.74,62.74,62.76,62.77,62.78,62.82,63.02,62.97,62.73,62.53,62.42,62.35,62.30,62.28,62.28,62.29,62.29,62.26,62.23,62.29,62.40,62.63,63.04,63.63,64.29,64.92,65.44,65.74,66.14,66.43,66.60,66.70,66.67,66.70,66.74,66.76,66.69,66.59,66.48,66.37,66.30,66.27,66.04,65.58,64.88,64.38,64.14,64.01,63.93,63.87,63.82,63.79,63.78,63.79,63.78,63.77,63.75,63.75,63.74,63.88,64.12,64.51,65.16,66.12,66.88,67.44,67.81,68.05,68.16,68.21,68.22,68.25,68.34,68.40,68.44,68.44,68.41,68.35,68.29,68.26,68.33,68.43,68.46,68.42,68.36,68.37,68.39,68.38,68.32,68.25,68.20,68.16,68.12,68.10,68.05,68.03,68.03,68.00,67.99,67.96,67.92,67.90,67.92,67.97,68.02,68.03,68.00,67.96,67.92,67.89,67.89,67.92,67.90,67.84,67.76,67.72,67.66,67.59,67.53,67.51,67.42,67.38,67.45,67.60,67.31,67.03,66.88,66.83,66.72,66.50,66.39,66.37,66.35,66.22,65.95,65.83,65.99,66.19,66.10,66.02,65.93,65.70,65.66,65.66,65.68,65.66,65.12,64.56,64.15,63.96,64.05,64.03,63.76,63.37,63.07,63.33,63.77,64.24,64.65,64.91,65.24,65.62,65.96,66.06,66.06,66.05,66.05,66.06,65.66,65.00,64.34,63.71,62.96,62.09
71.07,70.75,70.59,70.62,70.56,69.40,67.16,64.42,63.74,63.61,63.55,63.51,63.50,63.50,66.79,69.94,70.31,70.07,70.01,70.00,70.00,70.00,70.00,70.00,69.98,69.90,69.96,69.98,69.97,69.97,69.97,69.97,69.97,69.97,69.98,69.96,69.96,69.96,69.96,69.96,69.96,69.99,70.03,70.03,69.98,69.96,69.90,69.74,69.68,69.61,69.39,69.00,68.67,68.44,68.17,67.91,67.73,67.37,66.97,66.48,65.89,65.44,65.10,64.79,64.45,63.92,63.05,62.64,62.57,62.57,62.46,62.49,62.57,62.64,62.66,62.62,62.60,62.64,62.71,62.75,62.75,62.72,62.67,62.67,62.71,62.75,62.78,62.85,63.20,63.38,63.30,62.91,62.65,62.47,62.35,62.27,62.26,62.29,62.29,62.26,62.22,62.23,62.22,62.19,62.19,62.28,62.64,63.11,63.63,64.16,64.90,65.64,66.25,66.63,66.58,66.62,66.66,66.64,66.63,66.56,66.46,66.35,66.30,66.23,65.92,65.39,64.69,64.26,64.07,63.98,63.92,63.89,63.86,63.85,63.86,63.87,63.84,63.81,63.80,63.80,63.76,63.83,63.97,64.22,64.71,65.46,66.20,66.87,67.49,67.86,68.02,68.08,68.11,68.17,68.26,68.34,68.38,68.40,68.38,68.32,68.25,68.20,68.27,68.35,68.39,68.37,68.34,68.37,68.39,68.37,68.29,68.19,68.11,68.06,68.04,68.07,68.03,68.02,68.02,67.98,67.91,67.87,67.83,67.79,67.81,67.89,67.97,67.98,67.91,67.89,67.87,67.85,67.88,67.87,67.82,67.76,67.71,67.65,67.55,67.44,67.37,67.35,67.21,67.13,67.19,67.37,66.95,66.67,66.43,66.24,66.11,65.99,65.89,65.79,65.67,65.51,65.39,65.38,65.50,65.58,65.56,65.50,65.23,64.47,64.30,64.27,64.19,63.93,63.30,62.66,62.17,61.89,61.76,61.65,61.57,61.47,61.33,61.59,61.94,62.41,62.96,63.15,63.62,64.19,64.67,64.76,64.66,64.61,64.65,64.74,64.50,63.75,63.09,62.60,61.84,61.31
70.42,70.28,70.20,70.20,70.18,69.30,67.32,64.65,63.74,63.56,63.51,63.50,63.54,63.51,66.70,69.73,70.07,69.98,69.96,69.95,69.95,69.93,69.94,69.96,69.94,69.86,69.89,69.89,69.86,69.83,69.83,69.83,69.85,69.86,69.88,69.84,69.83,69.84,69.86,69.86,69.84,69.84,69.86,69.86,69.84,69.83,69.81,69.76,69.76,69.76,69.69,69.55,69.43,69.31,69.16,69.01,68.92,68.75,68.51,68.19,67.81,67.39,67.10,66.71,66.07,64.95,63.44,62.70,62.54,62.47,62.57,63.02,63.39,63.43,63.24,62.98,62.75,62.62,62.67,62.68,62.68,62.67,62.65,62.65,62.71,62.76,62.77,62.77,62.94,63.08,63.16,63.15,63.07,62.91,62.71,62.50,62.28,62.26,62.27,62.26,62.20,62.18,62.17,62.16,62.17,62.22,62.36,62.56,62.79,63.03,63.35,63.81,64.36,64.96,65.48,65.89,66.13,66.19,66.34,66.48,66.48,66.39,66.31,66.15,65.75,65.18,64.54,64.21,64.05,63.98,63.94,63.90,63.89,63.88,63.88,63.89,63.83,63.78,63.76,63.78,63.74,63.75,63.85,64.04,64.37,64.99,65.78,66.64,67.46,67.87,68.00,68.03,68.05,68.11,68.23,68.33,68.39,68.40,68.37,68.29,68.20,68.15,68.21,68.28,68.31,68.30,68.26,68.30,68.33,68.33,68.26,68.14,68.04,67.99,68.00,68.03,68.02,68.01,68.00,67.92,67.85,67.80,67.76,67.73,67.74,67.83,67.92,67.96,67.88,67.82,67.78,67.76,67.77,67.77,67.72,67.66,67.59,67.52,67.40,67.29,67.21,67.15,66.98,66.86,66.78,66.70,66.50,66.26,65.86,65.35,64.96,64.91,64.88,64.88,64.91,64.75,64.53,64.37,64.29,64.18,63.95,63.65,63.21,62.42,62.23,62.26,62.38,62.45,62.20,61.53,60.77,60.21,60.28,60.31,60.38,60.48,60.51,60.44,60.47,60.74,61.24,61.58,61.77,62.20,62.67,62.65,62.53,62.57,62.66,62.68,62.33,61.95,61.67,61.50,61.27,61.06
69.88,69.85,69.84,69.83,69.81,69.17,67.44,64.89,63.77,63.53,63.50,63.51,63.54,63.50,66.29,69.10,69.75,69.83,69.87,69.89,69.88,69.83,69.83,69.85,69.84,69.76,69.79,69.77,69.75,69.73,69.71,69.71,69.73,69.75,69.75,69.72,69.71,69.72,69.75,69.76,69.74,69.72,69.72,69.72,69.72,69.72,69.72,69.73,69.77,69.79,69.80,69.80,69.81,69.75,69.68,69.61,69.59,69.57,69.46,69.30,69.11,68.81,68.58,68.06,67.04,65.28,63.50,62.66,62.49,62.46,62.98,63.96,64.67,64.73,64.36,63.93,63.54,63.26,63.16,63.05,62.92,62.78,62.66,62.65,62.71,62.74,62.72,62.69,62.71,62.81,62.97,63.16,63.16,63.10,62.95,62.68,62.30,62.24,62.25,62.24,62.19,62.18,62.17,62.16,62.15,62.19,62.20,62.23,62.28,62.33,62.41,62.62,62.99,63.50,64.15,64.68,65.02,65.17,65.53,65.93,66.16,66.20,66.21,66.08,65.70,65.15,64.53,64.23,64.10,64.05,64.00,63.96,63.94,63.92,63.89,63.86,63.79,63.73,63.71,63.72,63.69,63.66,63.71,63.86,64.06,64.59,65.42,66.41,67.38,67.84,67.98,67.99,67.99,68.04,68.18,68.31,68.38,68.38,68.33,68.24,68.16,68.12,68.15,68.21,68.24,68.24,68.21,68.26,68.29,68.28,68.22,68.10,67.98,67.93,67.95,67.99,68.00,68.00,67.97,67.87,67.79,67.74,67.70,67.68,67.68,67.75,67.84,67.89,67.80,67.71,67.65,67.63,67.61,67.58,67.48,67.34,67.19,67.03,66.71,66.48,66.37,66.35,66.17,65.90,65.61,65.35,65.27,65.15,64.78,64.22,63.80,63.77,63.75,63.72,63.75,63.56,63.29,63.04,62.85,62.63,62.26,61.89,61.48,60.89,60.76,60.86,61.06,61.25,61.25,60.70,59.94,59.31,59.44,59.51,59.65,59.82,59.90,59.70,59.59,59.70,60.06,60.37,60.37,60.60,60.95,60.93,60.88,60.99,61.12,61.12,60.85,60.76,60.75,60.78,60.82,60.83
69.50,69.50,69.51,69.51,69.44,68.99,67.53,65.15,63.83,63.52,63.52,63.57,63.49,63.46,65.48,67.92,69.35,69.59,69.74,69.81,69.79,69.68,69.66,69.66,69.65,69.61,69.63,69.62,69.62,69.64,69.60,69.59,69.61,69.62,69.60,69.59,69.59,69.60,69.62,69.67,69.66,69.64,69.64,69.64,69.64,69.63,69.62,69.63,69.69,69.67,69.66,69.67,69.70,69.64,69.59,69.57,69.60,69.65,69.65,69.63,69.60,69.54,69.39,68.68,67.17,64.68,63.15,62.49,62.42,62.58,63.80,65.43,66.56,66.69,66.17,65.63,65.15,64.73,64.37,64.01,63.55,63.08,62.69,62.69,62.70,62.68,62.64,62.60,62.54,62.57,62.69,62.87,62.80,62.99,63.05,62.78,62.29,62.21,62.21,62.22,62.22,62.25,62.23,62.19,62.14,62.19,62.20,62.20,62.21,62.23,62.24,62.26,62.28,62.29,62.53,62.85,63.14,63.41,64.01,64.79,65.37,65.72,65.97,66.03,65.81,65.34,64.70,64.36,64.24,64.19,64.12,64.08,64.05,63.98,63.88,63.77,63.72,63.68,63.64,63.61,63.57,63.54,63.56,63.66,63.79,64.28,65.13,66.19,67.23,67.77,67.96,67.97,67.91,67.96,68.13,68.27,68.35,68.35,68.27,68.19,68.13,68.10,68.10,68.14,68.18,68.20,68.19,68.24,68.26,68.24,68.20,68.06,67.93,67.86,67.88,67.95,67.97,67.98,67.95,67.85,67.71,67.66,67.65,67.63,67.60,67.63,67.70,67.73,67.64,67.56,67.49,67.44,67.39,67.29,67.06,66.76,66.41,66.07,65.30,64.80,64.65,64.75,64.61,64.06,63.46,63.12,63.03,63.13,63.05,62.76,62.60,62.59,62.44,62.23,62.10,61.84,61.56,61.31,61.11,60.90,60.49,60.24,60.15,60.03,60.07,60.23,60.38,60.40,60.47,60.27,59.86,59.41,59.42,59.42,59.50,59.59,59.56,59.50,59.46,59.49,59.58,59.62,59.57,59.53,59.57,59.74,59.86,60.01,60.14,60.19,60.26,60.40,60.50,60.53,60.51,60.63
68.17,68.12,68.10,68.11,68.06,67.79,66.70,64.84,63.77,63.49,63.53,63.62,63.48,63.49,64.70,66.49,68.15,68.37,68.63,68.78,68.79,68.78,68.74,68.78,68.86,68.87,69.01,69.05,69.14,69.34,69.35,69.35,69.38,69.42,69.44,69.47,69.49,69.49,69.50,69.53,69.53,69.50,69.48,69.52,69.52,69.51,69.51,69.51,69.54,69.53,69.54,69.57,69.59,69.56,69.53,69.53,69.55,69.58,69.58,69.58,69.58,69.57,69.31,68.10,65.91,63.52,62.68,62.41,62.67,63.54,65.49,67.24,68.27,68.33,67.97,67.62,67.19,66.70,66.23,65.75,65.23,64.69,64.18,63.90,63.64,63.36,63.04,62.73,62.53,62.49,62.55,62.62,62.60,62.80,62.99,63.00,62.56,62.59,62.49,62.26,62.26,62.28,62.27,62.22,62.15,62.15,62.15,62.15,62.15,62.17,62.19,62.19,62.15,62.10,62.19,62.31,62.40,62.48,62.79,63.28,63.79,64.27,64.67,65.01,65.11,64.92,64.50,64.28,64.21,64.19,64.17,64.15,64.11,64.05,63.96,63.89,63.85,63.80,63.72,63.61,63.49,63.43,63.43,63.48,63.59,64.09,64.98,66.08,67.15,67.68,67.84,67.84,67.80,67.86,67.97,68.09,68.20,68.23,68.15,68.07,68.01,67.99,67.97,67.99,68.02,68.05,68.07,68.14,68.18,68.17,68.12,68.03,67.89,67.80,67.79,67.81,67.82,67.80,67.74,67.58,67.50,67.43,67.35,67.26,67.14,67.07,67.02,66.97,66.85,66.70,66.54,66.43,66.41,66.03,65.60,65.15,64.72,64.26,63.55,63.14,63.06,63.21,63.25,62.89,62.46,62.26,62.24,62.33,62.14,61.74,61.62,61.55,61.41,61.25,61.13,60.93,60.79,60.63,60.40,60.16,59.91,59.76,59.72,59.71,59.79,59.92,60.02,60.02,60.02,59.90,59.70,59.51,59.50,59.45,59.46,59.50,59.53,59.55,59.52,59.50,59.50,59.50,59.48,59.42,59.38,59.48,59.57,59.72,59.87,59.96,60.04,60.18,60.32,60.39,60.36,60.45
66.50,66.42,66.37,66.39,66.38,66.25,65.57,64.35,63.66,63.46,63.51,63.61,63.47,63.51,64.04,65.14,66.67,66.81,67.13,67.33,67.37,67.46,67.42,67.53,67.68,67.75,68.02,68.09,68.24,68.55,68.62,68.67,68.74,68.83,68.96,69.02,69.06,69.10,69.16,69.22,69.25,69.25,69.23,69.29,69.31,69.33,69.35,69.36,69.37,69.37,69.40,69.46,69.47,69.47,69.46,69.46,69.47,69.47,69.48,69.48,69.47,69.42,68.84,67.10,64.46,62.53,62.31,62.44,63.12,64.79,67.19,68.77,69.50,69.50,69.33,69.19,68.89,68.44,67.98,67.52,67.04,66.52,65.96,65.45,64.98,64.48,63.93,63.36,62.99,62.82,62.75,62.64,62.59,62.70,62.90,63.08,62.75,62.89,62.77,62.42,62.35,62.35,62.33,62.28,62.18,62.14,62.12,62.10,62.11,62.12,62.16,62.17,62.15,62.11,62.12,62.08,62.02,61.94,61.92,62.06,62.39,62.87,63.32,63.82,64.15,64.24,64.08,64.02,64.05,64.12,64.18,64.18,64.15,64.10,64.04,64.01,63.98,63.92,63.82,63.64,63.45,63.35,63.32,63.34,63.43,63.88,64.76,65.89,67.01,67.55,67.70,67.70,67.66,67.70,67.76,67.87,67.99,68.05,68.00,67.91,67.84,67.81,67.79,67.80,67.81,67.83,67.86,67.92,67.97,67.96,67.88,67.79,67.65,67.54,67.49,67.39,67.35,67.29,67.18,66.95,66.91,66.80,66.64,66.46,66.24,66.05,65.88,65.73,65.63,65.47,65.25,65.10,65.12,64.55,63.99,63.47,63.02,62.53,62.02,61.78,61.80,61.97,62.14,62.01,61.82,61.77,61.80,61.84,61.57,61.08,60.97,60.84,60.72,60.62,60.53,60.40,60.39,60.29,60.04,59.77,59.65,59.58,59.54,59.56,59.64,59.74,59.80,59.81,59.74,59.65,59.61,59.61,59.59,59.51,59.46,59.47,59.56,59.61,59.59,59.54,59.51,59.51,59.50,59.46,59.42,59.43,59.48,59.59,59.72,59.82,59.87,60.01,60.17,60.28,60.24,60.29
64.37,64.33,64.31,64.32,64.36,64.27,64.02,63.65,63.47,63.42,63.43,63.45,63.42,63.43,63.73,64.23,64.77,64.76,64.99,65.14,65.18,65.30,65.35,65.52,65.72,65.80,66.17,66.19,66.22,66.40,66.53,66.75,66.93,67.11,67.46,67.55,67.67,67.86,68.15,68.44,68.57,68.68,68.79,68.77,68.87,68.97,69.04,69.12,69.15,69.15,69.18,69.24,69.29,69.31,69.32,69.32,69.34,69.37,69.39,69.39,69.36,69.13,67.70,65.52,63.25,62.40,62.33,62.75,63.97,66.42,68.43,69.23,69.43,69.46,69.42,69.39,69.34,69.23,69.07,68.87,68.64,68.30,67.82,67.37,66.96,66.51,66.00,65.38,64.80,64.32,63.89,63.41,63.04,62.88,62.80,62.70,62.55,62.72,62.87,62.87,62.60,62.52,62.51,62.45,62.23,62.24,62.16,62.11,62.11,62.11,62.12,62.14,62.14,62.14,62.10,62.08,62.08,62.09,61.93,61.92,62.02,62.20,62.42,62.62,62.86,63.11,63.27,63.31,63.57,63.87,64.10,64.12,64.11,64.08,64.04,64.03,64.00,63.97,63.89,63.75,63.50,63.35,63.27,63.26,63.28,63.55,64.31,65.42,66.68,67.34,67.56,67.54,67.44,67.42,67.47,67.59,67.70,67.75,67.76,67.69,67.58,67.48,67.50,67.52,67.51,67.46,67.45,67.39,67.39,67.36,67.20,66.92,66.75,66.65,66.54,66.22,66.01,65.87,65.69,65.37,65.24,65.05,64.79,64.51,64.22,63.93,63.63,63.42,63.48,63.51,63.43,63.33,63.33,62.99,62.56,62.14,61.79,61.51,61.34,61.33,61.45,61.62,61.71,61.66,61.58,61.57,61.61,61.63,61.52,61.31,61.19,61.09,60.93,60.77,60.65,60.59,60.54,60.39,60.11,59.82,59.67,59.60,59.58,59.63,59.64,59.74,59.85,59.89,59.78,59.74,59.73,59.73,59.71,59.61,59.58,59.60,59.64,59.59,59.55,59.54,59.56,59.56,59.50,59.44,59.44,59.53,59.57,59.55,59.51,59.54,59.70,59.87,60.06,60.22,60.17,60.18
63.59,63.56,63.55,63.53,63.56,63.52,63.45,63.38,63.38,63.40,63.41,63.41,63.41,63.38,63.47,63.61,63.72,63.66,63.76,63.84,63.86,63.93,63.95,64.06,64.19,64.27,64.49,64.48,64.49,64.60,64.73,64.97,65.15,65.31,65.57,65.72,65.89,66.11,66.42,66.75,66.97,67.14,67.27,67.33,67.52,67.70,67.86,68.02,68.16,68.30,68.46,68.64,68.74,68.82,68.88,68.94,69.02,69.10,69.15,69.16,69.05,68.31,66.30,64.18,62.61,62.33,62.54,63.49,65.23,67.70,68.97,69.33,69.34,69.37,69.37,69.38,69.39,69.41,69.38,69.33,69.26,69.11,68.84,68.56,68.30,68.02,67.66,67.17,66.64,66.13,65.61,65.02,64.47,64.05,63.67,63.29,63.02,62.96,62.95,62.87,62.54,62.52,62.59,62.55,62.27,62.31,62.21,62.15,62.18,62.18,62.13,62.12,62.14,62.12,62.07,62.09,62.15,62.20,62.07,61.98,61.93,61.93,62.00,62.13,62.39,62.69,62.87,62.81,63.11,63.53,63.89,63.95,63.98,63.99,63.98,63.99,63.98,63.96,63.90,63.76,63.49,63.32,63.25,63.21,63.10,63.18,63.73,64.66,65.82,66.67,67.10,67.18,67.01,66.89,66.94,67.05,67.17,67.23,67.29,67.26,67.18,67.08,67.08,66.98,66.76,66.46,66.15,65.94,65.81,65.72,65.58,65.35,65.18,65.02,64.84,64.46,64.19,63.99,63.81,63.58,63.40,63.24,63.08,62.90,62.67,62.41,62.15,61.98,62.08,62.14,62.11,62.04,62.02,61.86,61.63,61.38,61.17,61.03,61.00,61.04,61.14,61.28,61.34,61.36,61.37,61.39,61.41,61.43,61.37,61.25,61.09,60.94,60.79,60.66,60.58,60.58,60.55,60.40,60.11,59.91,59.76,59.67,59.64,59.68,59.66,59.76,59.87,59.91,59.87,59.84,59.83,59.82,59.81,59.72,59.67,59.66,59.64,59.53,59.47,59.46,59.50,59.54,59.40,59.31,59.31,59.37,59.46,59.42,59.35,59.35,59.56,59.73,59.88,60.01,60.10,60.08
63.53,63.50,63.48,63.44,63.44,63.44,63.41,63.35,63.36,63.40,63.43,63.43,63.43,63.36,63.25,63.16,63.15,63.08,63.04,63.04,63.05,63.03,62.98,62.96,62.98,63.02,62.98,62.96,63.00,63.07,63.17,63.35,63.48,63.54,63.59,63.80,63.97,64.16,64.38,64.64,64.93,65.12,65.22,65.43,65.70,65.96,66.21,66.48,66.73,67.05,67.41,67.75,67.93,68.09,68.23,68.37,68.55,68.69,68.79,68.80,68.59,67.18,64.80,63.00,62.29,62.32,62.88,64.48,66.68,68.73,69.13,69.24,69.24,69.24,69.24,69.24,69.25,69.26,69.29,69.31,69.35,69.39,69.37,69.30,69.25,69.17,69.03,68.76,68.43,68.04,67.57,67.03,66.39,65.74,65.08,64.45,63.92,63.50,63.09,62.69,62.32,62.44,62.61,62.60,62.30,62.35,62.25,62.20,62.26,62.29,62.17,62.13,62.13,62.08,62.04,62.12,62.23,62.30,62.26,62.13,61.99,61.88,61.85,62.01,62.34,62.63,62.68,62.45,62.69,63.14,63.60,63.71,63.79,63.84,63.87,63.90,63.90,63.89,63.84,63.69,63.41,63.27,63.22,63.17,62.91,62.81,63.10,63.76,64.70,65.75,66.44,66.66,66.46,66.25,66.28,66.39,66.52,66.61,66.67,66.67,66.62,66.52,66.48,66.20,65.71,65.08,64.40,64.03,63.75,63.58,63.52,63.45,63.28,63.07,62.82,62.49,62.22,61.99,61.83,61.78,61.58,61.52,61.54,61.55,61.44,61.28,61.15,61.07,61.12,61.14,61.11,61.06,61.02,61.02,60.99,60.95,60.90,60.86,60.84,60.84,60.88,60.94,61.00,61.10,61.19,61.22,61.23,61.23,61.18,61.05,60.84,60.63,60.50,60.45,60.44,60.49,60.50,60.36,60.09,60.01,59.89,59.78,59.72,59.72,59.71,59.80,59.89,59.91,59.97,59.94,59.91,59.90,59.90,59.84,59.76,59.68,59.60,59.46,59.36,59.34,59.40,59.47,59.26,59.13,59.11,59.11,59.25,59.25,59.21,59.22,59.44,59.59,59.67,59.73,60.00,59.98
63.75,63.70,63.62,63.55,63.65,63.70,63.64,63.50,63.51,63.47,63.46,63.47,63.48,63.41,63.26,63.12,63.08,63.06,62.98,62.96,62.97,62.94,62.94,62.90,62.86,62.87,62.85,62.85,62.85,62.87,62.95,63.03,63.05,63.03,63.05,63.11,63.16,63.20,63.27,63.38,63.54,63.64,63.71,63.86,64.08,64.24,64.49,65.01,64.86,65.01,65.34,65.73,66.05,66.29,66.56,66.86,67.14,67.34,67.54,67.63,67.37,65.79,63.78,62.53,62.30,62.47,63.63,65.65,67.75,68.93,69.08,69.12,69.12,69.12,69.13,69.16,69.17,69.19,69.23,69.23,69.24,69.25,69.26,69.21,69.21,69.20,69.18,69.10,68.98,68.83,68.62,68.36,67.98,67.53,67.02,66.47,65.92,65.30,64.41,63.33,62.35,62.39,62.53,62.56,62.38,62.27,62.19,62.18,62.24,62.25,62.19,62.15,62.12,62.05,62.04,62.16,62.27,62.30,62.26,62.19,62.11,62.02,61.88,61.83,62.01,62.29,62.54,62.50,62.65,62.92,63.22,63.33,63.42,63.46,63.47,63.49,63.41,63.29,63.16,63.01,62.86,62.95,63.06,63.08,62.85,62.71,62.75,63.08,63.76,64.56,65.09,65.41,65.60,65.75,65.92,66.09,66.18,66.04,65.59,65.14,64.70,64.30,64.22,63.96,63.56,63.12,62.77,62.46,62.24,62.18,62.29,62.20,62.12,62.06,62.03,61.95,61.85,61.72,61.58,61.50,61.50,61.50,61.48,61.45,61.38,61.27,61.16,61.06,61.00,60.96,60.92,60.90,60.92,60.94,60.90,60.88,60.88,60.88,60.85,60.83,60.83,60.85,60.91,61.01,61.10,61.14,61.18,61.22,61.16,61.02,60.92,60.81,60.73,60.69,60.65,60.60,60.52,60.36,60.14,60.08,60.04,59.96,59.92,60.02,59.93,59.97,60.04,60.02,60.00,59.95,59.92,59.95,59.95,59.94,59.79,59.60,59.52,59.48,59.43,59.41,59.45,59.39,59.30,59.27,59.27,59.25,59.33,59.35,59.34,59.34,59.40,59.44,59.44,59.45,59.54,59.58
63.89,63.82,63.71,63.66,63.82,63.89,63.82,63.65,63.64,63.55,63.50,63.50,63.50,63.43,63.30,63.13,62.97,62.96,62.90,62.87,62.88,62.86,62.90,62.85,62.77,62.76,62.76,62.76,62.75,62.75,62.85,62.88,62.87,62.84,62.82,62.79,62.76,62.74,62.73,62.73,62.80,62.84,62.86,62.93,63.05,63.10,63.27,63.75,63.46,63.50,63.73,64.04,64.31,64.53,64.79,65.12,65.46,65.66,65.95,66.12,65.90,64.38,62.97,62.27,62.32,62.58,64.07,66.12,67.96,68.72,68.88,68.91,68.93,69.00,69.02,69.05,69.07,69.08,69.12,69.13,69.13,69.13,69.16,69.15,69.16,69.19,69.22,69.23,69.23,69.20,69.16,69.08,68.92,68.69,68.41,68.06,67.66,66.99,65.71,64.00,62.45,62.68,63.11,63.34,63.10,62.76,62.50,62.32,62.23,62.22,62.19,62.17,62.14,62.06,62.06,62.19,62.29,62.29,62.28,62.23,62.19,62.13,62.00,61.88,61.93,62.10,62.34,62.46,62.59,62.74,62.90,62.98,63.07,63.12,63.14,63.16,63.07,62.95,62.83,62.73,62.67,62.81,62.93,62.95,62.79,62.63,62.48,62.53,62.93,63.51,63.91,64.25,64.56,64.79,64.95,65.10,65.11,64.81,64.20,63.64,63.11,62.66,62.58,62.39,62.14,61.88,61.75,61.57,61.47,61.49,61.65,61.59,61.56,61.58,61.65,61.70,61.68,61.61,61.51,61.43,61.50,61.51,61.47,61.40,61.33,61.26,61.17,61.07,60.95,60.86,60.82,60.82,60.86,60.89,60.86,60.84,60.86,60.89,60.87,60.83,60.81,60.81,60.86,60.95,61.03,61.07,61.12,61.16,61.13,61.04,61.03,60.99,60.94,60.89,60.87,60.79,60.65,60.47,60.28,60.21,60.20,60.17,60.17,60.31,60.19,60.13,60.10,60.05,60.01,59.95,59.93,59.96,59.96,59.98,59.82,59.59,59.44,59.48,59.46,59.46,59.48,59.35,59.34,59.35,59.36,59.35,59.39,59.39,59.39,59.38,59.37,59.35,59.33,59.31,59.31,59.36
63.94,63.84,63.74,63.75,63.94,64.01,63.94,63.79,63.76,63.63,63.54,63.51,63.50,63.43,63.37,63.17,62.80,62.78,62.78,62.78,62.79,62.79,62.85,62.80,62.71,62.71,62.71,62.71,62.71,62.72,62.87,62.94,62.99,63.00,62.95,62.87,62.85,62.84,62.83,62.78,62.82,62.82,62.76,62.71,62.67,62.61,62.61,62.73,62.60,62.59,62.65,62.72,62.74,62.80,62.91,63.12,63.47,63.60,63.96,64.24,64.13,62.93,62.40,62.25,62.35,62.63,64.14,65.79,67.19,68.03,68.50,68.59,68.64,68.86,68.91,68.93,68.93,68.93,68.95,69.01,69.02,69.03,69.05,69.09,69.11,69.11,69.11,69.11,69.11,69.11,69.11,69.10,69.10,69.13,69.16,69.16,69.09,68.55,67.00,64.71,62.61,63.36,64.45,65.04,64.57,63.90,63.22,62.64,62.25,62.18,62.16,62.17,62.17,62.13,62.12,62.21,62.30,62.29,62.30,62.28,62.24,62.21,62.21,62.21,62.13,62.05,62.06,62.32,62.49,62.59,62.64,62.67,62.74,62.82,62.89,62.93,62.89,62.88,62.90,62.91,62.87,62.86,62.85,62.81,62.74,62.57,62.30,62.12,62.23,62.59,62.91,63.16,63.31,63.30,63.28,63.30,63.23,62.84,62.44,62.15,61.91,61.70,61.65,61.60,61.54,61.47,61.41,61.47,61.55,61.62,61.70,61.72,61.69,61.68,61.75,61.79,61.75,61.69,61.63,61.59,61.59,61.56,61.50,61.42,61.30,61.24,61.19,61.11,60.97,60.87,60.82,60.81,60.85,60.88,60.86,60.83,60.83,60.88,60.89,60.87,60.84,60.83,60.87,60.93,60.98,61.01,61.05,61.06,61.07,61.11,61.20,61.19,61.12,61.06,61.09,61.10,60.93,60.72,60.54,60.39,60.37,60.41,60.48,60.58,60.50,60.27,60.05,59.97,59.99,59.94,59.92,59.94,59.92,59.94,59.84,59.64,59.39,59.46,59.47,59.47,59.48,59.37,59.38,59.38,59.36,59.39,59.40,59.38,59.35,59.35,59.35,59.35,59.35,59.35,59.35,59.35
63.97,63.84,63.77,63.86,64.01,64.04,63.96,63.82,63.79,63.69,63.59,63.52,63.55,63.45,63.47,63.33,62.87,62.76,62.73,62.75,62.79,62.79,62.75,62.71,62.70,62.70,62.70,62.70,62.70,62.73,62.92,62.98,63.02,63.05,62.99,62.95,62.91,62.88,62.88,62.85,62.86,62.86,62.84,62.81,62.77,62.69,62.63,62.66,62.61,62.57,62.55,62.52,62.42,62.42,62.45,62.51,62.67,62.72,62.88,63.02,62.98,62.48,62.27,62.23,62.29,62.49,63.46,64.69,65.78,66.27,66.74,67.03,67.30,67.64,67.96,68.23,68.43,68.57,68.68,68.76,68.82,68.87,68.91,68.96,68.97,68.97,68.99,69.02,69.02,69.03,69.03,69.03,69.04,69.08,69.13,69.17,69.17,68.59,66.84,64.48,63.07,64.89,66.31,66.84,66.32,65.69,65.03,64.37,63.76,63.28,62.87,62.58,62.40,62.33,62.22,62.20,62.22,62.24,62.27,62.28,62.27,62.25,62.26,62.28,62.23,62.16,62.11,62.17,62.28,62.41,62.53,62.58,62.65,62.74,62.83,62.90,62.89,62.89,62.89,62.89,62.86,62.86,62.82,62.74,62.62,62.36,62.08,61.90,61.91,62.04,62.19,62.33,62.41,62.31,62.25,62.27,62.27,62.08,61.87,61.72,61.61,61.53,61.49,61.45,61.43,61.41,61.37,61.45,61.53,61.59,61.61,61.63,61.65,61.72,61.80,61.82,61.77,61.71,61.65,61.60,61.59,61.57,61.53,61.45,61.31,61.26,61.22,61.14,61.00,60.89,60.81,60.79,60.81,60.87,60.86,60.85,60.86,60.89,60.90,60.89,60.88,60.87,60.89,60.93,60.97,60.98,61.01,60.98,60.98,61.05,61.15,61.19,61.15,61.11,61.15,61.17,61.10,60.98,60.87,60.77,60.76,60.81,60.88,60.93,60.88,60.49,60.09,59.97,59.96,59.95,59.95,59.97,59.95,59.93,59.86,59.71,59.45,59.48,59.46,59.44,59.45,59.39,59.39,59.39,59.38,59.40,59.37,59.36,59.36,59.36,59.37,59.34,59.33,59.34,59.34,59.33
63.98,63.86,63.81,63.93,64.03,64.04,63.96,63.86,63.83,63.74,63.62,63.54,63.61,63.48,63.56,63.46,62.96,62.76,62.72,62.74,62.79,62.81,62.68,62.66,62.69,62.70,62.70,62.70,62.71,62.79,62.98,63.01,63.04,63.06,63.02,63.00,62.96,62.92,62.90,62.90,62.90,62.91,62.93,62.93,62.90,62.81,62.73,62.73,62.74,62.69,62.61,62.52,62.34,62.30,62.27,62.24,62.25,62.22,62.22,62.23,62.22,62.26,62.23,62.21,62.25,62.35,62.77,63.57,64.32,64.46,64.86,65.29,65.71,66.11,66.62,67.10,67.49,67.80,68.04,68.24,68.40,68.53,68.62,68.70,68.74,68.79,68.84,68.92,68.93,68.94,68.95,68.95,68.95,68.98,69.01,69.04,69.01,68.26,66.32,64.07,63.67,66.39,67.94,68.30,67.86,67.38,66.84,66.22,65.50,64.75,64.02,63.44,63.04,62.83,62.53,62.34,62.24,62.22,62.23,62.26,62.28,62.28,62.28,62.31,62.31,62.27,62.22,62.11,62.13,62.24,62.40,62.48,62.58,62.70,62.81,62.89,62.90,62.90,62.88,62.85,62.82,62.83,62.79,62.67,62.48,62.17,61.90,61.74,61.72,61.68,61.70,61.75,61.78,61.67,61.59,61.61,61.68,61.66,61.57,61.52,61.50,61.50,61.45,61.43,61.41,61.39,61.36,61.42,61.48,61.50,61.48,61.50,61.59,61.72,61.83,61.83,61.77,61.70,61.65,61.58,61.57,61.57,61.55,61.48,61.33,61.28,61.25,61.18,61.04,60.90,60.81,60.77,60.78,60.85,60.87,60.87,60.89,60.90,60.90,60.90,60.90,60.90,60.90,60.94,60.96,60.94,60.96,60.90,60.90,60.97,61.09,61.15,61.15,61.14,61.18,61.19,61.19,61.17,61.12,61.07,61.08,61.10,61.11,61.07,61.04,60.59,60.11,59.96,59.95,59.96,59.97,59.98,59.96,59.92,59.87,59.74,59.50,59.49,59.44,59.42,59.44,59.43,59.42,59.41,59.40,59.38,59.35,59.36,59.38,59.38,59.40,59.35,59.32,59.32,59.32,59.31
64.01,63.97,63.93,63.87,63.97,64.00,63.99,63.96,63.91,63.76,63.61,63.55,63.68,63.56,63.60,63.47,62.97,62.76,62.77,62.78,62.76,62.86,62.74,62.69,62.70,62.70,62.70,62.68,62.75,62.95,63.05,63.05,63.03,63.03,63.06,63.00,62.98,62.97,62.92,62.90,62.91,62.95,62.98,62.98,62.92,62.84,62.78,62.79,62.87,62.81,62.72,62.61,62.38,62.32,62.30,62.33,62.38,62.29,62.29,62.29,62.26,62.24,62.22,62.24,62.29,62.30,62.38,62.69,63.00,62.96,63.21,63.55,63.88,64.19,64.61,65.05,65.55,66.06,66.46,67.03,67.46,67.76,67.98,68.16,68.33,68.50,68.66,68.79,68.80,68.82,68.84,68.84,68.86,68.90,68.93,68.91,68.76,67.57,65.44,63.57,64.47,67.47,68.75,68.89,68.75,68.58,68.26,67.82,67.28,66.70,66.01,65.32,64.67,64.05,63.38,62.89,62.54,62.29,62.14,62.16,62.23,62.30,62.31,62.34,62.37,62.37,62.35,62.28,62.18,62.13,62.15,62.28,62.50,62.66,62.77,62.88,62.89,62.90,62.89,62.85,62.79,62.76,62.69,62.56,62.33,62.04,61.83,61.71,61.71,61.70,61.70,61.71,61.72,61.69,61.67,61.68,61.68,61.62,61.55,61.51,61.50,61.50,61.48,61.46,61.43,61.38,61.33,61.34,61.35,61.34,61.32,61.38,61.53,61.68,61.80,61.79,61.74,61.69,61.63,61.55,61.54,61.55,61.55,61.48,61.35,61.30,61.26,61.20,61.07,60.92,60.82,60.78,60.79,60.85,60.86,60.86,60.88,60.90,60.90,60.90,60.90,60.90,60.90,60.94,60.94,60.88,60.86,60.84,60.85,60.93,61.06,61.11,61.14,61.17,61.19,61.15,61.17,61.18,61.17,61.13,61.16,61.07,60.86,60.64,60.58,60.35,60.09,59.95,59.97,59.98,59.97,59.93,59.92,59.91,59.84,59.69,59.46,59.43,59.41,59.42,59.48,59.54,59.50,59.45,59.39,59.33,59.37,59.39,59.39,59.39,59.40,59.39,59.35,59.31,59.31,59.30
63.96,63.97,63.98,63.93,64.02,64.09,64.09,64.01,63.97,63.81,63.64,63.57,63.72,63.62,63.64,63.46,62.88,62.74,62.78,62.80,62.79,62.85,62.75,62.71,62.70,62.70,62.72,62.80,62.94,63.11,63.18,63.16,63.10,63.04,63.02,62.98,62.98,62.99,62.96,62.93,62.93,62.96,63.00,62.98,62.92,62.86,62.82,62.83,62.91,62.86,62.76,62.66,62.49,62.40,62.39,62.43,62.47,62.39,62.37,62.36,62.29,62.25,62.25,62.28,62.32,62.32,62.31,62.40,62.49,62.43,62.52,62.69,62.87,63.03,63.28,63.57,63.95,64.37,64.67,65.26,65.72,66.10,66.47,66.81,67.14,67.48,67.82,68.12,68.33,68.52,68.66,68.73,68.74,68.78,68.80,68.76,68.40,66.69,64.69,63.62,65.58,68.03,68.95,69.00,68.97,68.95,68.82,68.61,68.32,67.99,67.53,67.00,66.42,65.79,65.01,64.33,63.74,63.24,62.82,62.56,62.36,62.20,62.16,62.29,62.35,62.37,62.38,62.35,62.27,62.16,62.08,62.11,62.31,62.51,62.67,62.78,62.85,62.87,62.86,62.83,62.76,62.69,62.59,62.45,62.19,61.92,61.76,61.70,61.70,61.69,61.67,61.66,61.66,61.68,61.68,61.66,61.62,61.57,61.52,61.51,61.50,61.50,61.49,61.49,61.44,61.35,61.27,61.27,61.26,61.25,61.24,61.34,61.52,61.67,61.74,61.71,61.68,61.63,61.58,61.52,61.51,61.53,61.53,61.49,61.39,61.33,61.28,61.20,61.08,60.93,60.83,60.79,60.80,60.83,60.85,60.87,60.89,60.90,60.90,60.90,60.89,60.87,60.86,60.89,60.90,60.85,60.85,60.81,60.80,60.85,60.96,61.01,61.06,61.06,60.91,60.78,60.77,60.79,60.77,60.74,60.76,60.69,60.53,60.37,60.34,60.21,60.06,59.93,59.94,59.97,59.96,59.91,59.91,59.89,59.76,59.59,59.47,59.45,59.45,59.45,59.46,59.53,59.51,59.46,59.39,59.35,59.41,59.42,59.41,59.43,59.38,59.38,59.37,59.33,59.33,59.31
63.87,63.92,64.01,64.04,64.13,64.25,64.24,64.05,64.00,63.86,63.68,63.57,63.72,63.65,63.67,63.45,62.78,62.71,62.76,62.81,62.83,62.81,62.75,62.72,62.71,62.71,62.76,62.99,63.18,63.27,63.34,63.29,63.20,63.09,62.96,62.96,62.98,63.00,62.99,62.96,62.95,62.97,62.99,62.95,62.92,62.88,62.86,62.87,62.93,62.87,62.77,62.69,62.62,62.52,62.50,62.53,62.55,62.49,62.45,62.41,62.32,62.27,62.30,62.35,62.38,62.38,62.39,62.40,62.39,62.39,62.31,62.30,62.30,62.29,62.34,62.46,62.63,62.82,62.93,63.34,63.72,64.11,64.59,65.09,65.56,66.06,66.60,67.10,67.57,67.99,68.32,68.51,68.55,68.60,68.64,68.58,67.97,65.74,64.04,63.98,66.80,68.34,68.88,68.89,68.88,68.93,68.96,68.96,68.94,68.88,68.73,68.47,68.10,67.67,66.93,66.15,65.38,64.65,63.94,63.30,62.69,62.21,62.05,62.23,62.29,62.30,62.33,62.37,62.35,62.24,62.09,61.95,62.07,62.30,62.53,62.65,62.77,62.81,62.82,62.80,62.73,62.62,62.50,62.34,62.06,61.81,61.71,61.70,61.70,61.67,61.63,61.61,61.62,61.65,61.65,61.61,61.55,61.51,61.50,61.50,61.50,61.50,61.50,61.50,61.44,61.32,61.22,61.21,61.20,61.20,61.21,61.34,61.54,61.67,61.67,61.61,61.60,61.57,61.53,61.50,61.50,61.50,61.50,61.50,61.45,61.37,61.29,61.20,61.08,60.93,60.84,60.80,60.80,60.80,60.84,60.88,60.90,60.90,60.90,60.89,60.88,60.83,60.81,60.84,60.86,60.84,60.87,60.80,60.75,60.76,60.81,60.86,60.93,60.86,60.51,60.31,60.27,60.27,60.23,60.21,60.20,60.20,60.20,60.20,60.20,60.13,60.03,59.92,59.90,59.94,59.94,59.91,59.90,59.86,59.68,59.49,59.49,59.50,59.50,59.47,59.43,59.48,59.50,59.45,59.40,59.42,59.46,59.44,59.43,59.48,59.36,59.36,59.38,59.38,59.38,59.32
63.80,63.87,64.00,64.06,64.21,64.40,64.40,64.14,63.99,63.85,63.68,63.55,63.59,63.60,63.64,63.52,63.10,62.80,62.70,62.70,62.73,62.73,62.90,62.94,62.86,62.77,63.04,63.29,63.42,63.41,63.39,63.32,63.26,63.19,63.08,63.12,63.04,62.95,62.95,62.98,62.98,62.96,62.95,62.97,62.96,62.95,62.94,62.94,63.00,62.92,62.78,62.65,62.66,62.59,62.57,62.58,62.58,62.51,62.42,62.34,62.27,62.33,62.43,62.52,62.56,62.56,62.57,62.58,62.58,62.58,62.53,62.52,62.49,62.42,62.28,62.30,62.37,62.44,62.45,62.59,62.71,62.85,63.05,63.27,63.57,64.02,64.60,65.14,65.69,66.23,66.75,67.26,67.62,68.02,68.31,68.31,67.35,64.90,63.79,64.77,67.85,68.56,68.77,68.79,68.81,68.82,68.86,68.86,68.81,68.84,68.83,68.76,68.66,68.55,68.25,67.85,67.33,66.70,65.88,65.10,64.37,63.69,63.04,62.47,62.08,61.94,62.12,62.28,62.26,62.14,61.98,61.82,61.76,61.92,62.24,62.52,62.62,62.73,62.80,62.79,62.73,62.60,62.43,62.21,61.93,61.76,61.70,61.70,61.70,61.67,61.63,61.61,61.61,61.62,61.64,61.61,61.56,61.50,61.50,61.50,61.50,61.50,61.50,61.50,61.43,61.31,61.21,61.20,61.20,61.20,61.22,61.36,61.53,61.63,61.63,61.55,61.52,61.50,61.51,61.53,61.53,61.52,61.52,61.53,61.49,61.38,61.25,61.13,61.04,60.91,60.83,60.80,60.80,60.83,60.86,60.89,60.90,60.89,60.86,60.84,60.83,60.84,60.86,60.88,60.89,60.88,60.89,60.83,60.73,60.62,60.52,60.48,60.49,60.47,60.34,60.28,60.28,60.30,60.29,60.23,60.21,60.20,60.20,60.22,60.21,60.21,60.14,59.97,59.92,59.92,59.91,59.90,59.90,59.75,59.62,59.53,59.50,59.50,59.50,59.49,59.48,59.52,59.51,59.45,59.41,59.49,59.47,59.44,59.44,59.47,59.42,59.38,59.35,59.33,59.33,59.33
63.71,63.78,63.90,63.97,64.18,64.39,64.38,64.14,63.99,63.89,63.76,63.63,63.56,63.60,63.62,63.56,63.39,62.88,62.69,62.65,62.69,62.75,63.11,63.20,63.10,62.98,63.24,63.41,63.47,63.43,63.38,63.31,63.26,63.23,63.15,63.20,63.11,63.00,62.98,63.05,63.04,62.99,62.95,62.98,62.99,62.99,62.99,62.98,62.97,62.92,62.80,62.65,62.66,62.62,62.60,62.59,62.56,62.48,62.39,62.31,62.30,62.45,62.58,62.68,62.72,62.70,62.71,62.71,62.71,62.71,62.69,62.68,62.62,62.48,62.22,62.18,62.21,62.26,62.29,62.28,62.25,62.23,62.24,62.26,62.40,62.67,63.06,63.45,63.92,64.43,65.00,65.63,66.14,66.73,67.17,67.21,66.05,64.03,63.74,65.46,68.28,68.56,68.63,68.67,68.70,68.71,68.75,68.76,68.72,68.78,68.82,68.85,68.88,68.92,68.87,68.74,68.49,68.09,67.44,66.75,66.06,65.33,64.48,63.60,62.84,62.31,62.11,62.24,62.18,62.03,61.85,61.68,61.58,61.74,62.09,62.47,62.53,62.62,62.69,62.72,62.69,62.57,62.36,62.10,61.83,61.74,61.71,61.70,61.70,61.67,61.64,61.61,61.60,61.62,61.63,61.60,61.54,61.50,61.50,61.50,61.50,61.50,61.51,61.50,61.43,61.31,61.21,61.20,61.20,61.21,61.25,61.40,61.54,61.60,61.57,61.48,61.44,61.44,61.48,61.53,61.53,61.51,61.50,61.51,61.49,61.37,61.23,61.10,61.01,60.90,60.83,60.80,60.80,60.83,60.86,60.89,60.89,60.86,60.83,60.80,60.80,60.83,60.87,60.89,60.90,60.90,60.89,60.82,60.72,60.57,60.39,60.30,60.28,60.28,60.25,60.28,60.29,60.31,60.31,60.22,60.20,60.20,60.21,60.23,60.22,60.24,60.19,60.01,59.94,59.92,59.91,59.90,59.89,59.69,59.58,59.55,59.51,59.50,59.50,59.50,59.51,59.55,59.52,59.48,59.46,59.55,59.50,59.48,59.47,59.46,59.46,59.40,59.34,59.30,59.30,59.31
63.62,63.64,63.69,63.75,64.06,64.21,64.20,64.06,64.00,63.98,63.92,63.81,63.63,63.66,63.60,63.59,63.65,62.96,62.74,62.69,62.72,62.85,63.37,63.52,63.43,63.34,63.38,63.36,63.33,63.32,63.31,63.25,63.21,63.20,63.20,63.20,63.19,63.15,63.10,63.17,63.13,63.06,63.00,63.00,63.00,63.00,63.00,62.99,62.85,62.86,62.82,62.69,62.62,62.61,62.61,62.58,62.50,62.42,62.35,62.34,62.43,62.64,62.75,62.83,62.86,62.81,62.80,62.80,62.79,62.79,62.79,62.77,62.69,62.49,62.16,62.11,62.16,62.27,62.47,62.43,62.35,62.26,62.13,62.07,62.03,62.01,62.01,62.06,62.25,62.60,63.07,63.62,64.10,64.73,65.22,65.27,64.06,63.12,63.88,66.04,68.07,68.35,68.46,68.53,68.57,68.60,68.64,68.67,68.67,68.69,68.70,68.72,68.74,68.78,68.79,68.83,68.85,68.80,68.60,68.25,67.75,67.12,66.38,65.62,64.59,63.41,62.30,62.25,62.11,61.91,61.70,61.54,61.55,61.76,62.11,62.49,62.50,62.47,62.50,62.60,62.63,62.53,62.31,62.00,61.75,61.74,61.72,61.70,61.70,61.68,61.65,61.62,61.61,61.64,61.62,61.56,61.50,61.50,61.50,61.49,61.49,61.50,61.52,61.51,61.44,61.32,61.21,61.20,61.20,61.23,61.31,61.47,61.56,61.57,61.51,61.41,61.36,61.39,61.46,61.50,61.51,61.48,61.45,61.45,61.43,61.35,61.23,61.10,60.99,60.89,60.83,60.80,60.80,60.80,60.84,60.87,60.87,60.83,60.81,60.78,60.77,60.79,60.85,60.89,60.90,60.90,60.87,60.79,60.71,60.61,60.41,60.32,60.30,60.29,60.26,60.28,60.30,60.30,60.28,60.19,60.18,60.19,60.21,60.23,60.22,60.22,60.18,60.03,59.98,59.96,59.94,59.90,59.86,59.68,59.58,59.55,59.51,59.50,59.50,59.50,59.51,59.58,59.54,59.53,59.56,59.59,59.57,59.56,59.53,59.47,59.49,59.44,59.37,59.31,59.30,59.28
