84.30,84.37,84.35,84.32,84.36,84.36,84.33,84.29,84.26,84.24,84.26,84.25,84.23,84.21,84.27,84.40,84.50,84.51,84.46,84.36,84.32,84.37,84.52,84.60,84.65,84.67,84.67,84.67,84.63,84.60,84.60,84.57,84.52,84.50,84.52,84.58,84.59,84.55,84.50,84.49,84.43,84.47,84.50,84.51,84.48,84.44,84.46,84.52,84.59,84.59,84.59,84.54,84.44,84.25,84.22,84.23,84.26,84.34,84.44,84.43,84.39,84.37,84.46,84.50,84.53,84.57,84.64,84.70,84.72,84.71,84.67,84.55,84.51,84.50,84.48,84.42,84.45,84.56,84.69,84.72,84.75,84.72,84.66,84.62,84.67,84.62,84.54,84.46,84.39,84.33,84.32,84.35,84.42,84.49,84.56,84.59,84.60,84.60,84.58,84.54,84.49,84.47,84.39,84.33,84.29,84.26,84.24,84.25,84.24,84.19,84.17,84.15,84.17,84.19,84.16,84.12,84.10,84.07,84.00,83.91,83.90,83.90,83.90,83.91,83.90,83.94,84.00,84.05,84.01,84.00,83.98,83.94,83.85,83.78,83.77,83.82,83.90,83.90,83.90,83.90,83.89,83.85,83.85,83.89,83.96,84.03,84.07,84.09,84.10,84.10,84.10,84.15,84.23,84.29,84.30,84.31,84.31,84.31,84.31,84.29,84.31,84.33,84.32,84.30,84.29,84.28,84.28,84.27,84.24,84.22,84.20,84.21,84.29,84.34,84.37,84.40,84.45,84.46,84.41,84.31,84.21,84.16,84.18,84.21,84.22,84.26,84.29,84.30,84.30,84.31,84.34,84.34,84.32,84.33,84.31,84.33,84.34,84.33,84.24,84.16,84.06,83.96,83.91,83.86,83.80,83.70,83.57,83.47,83.46,83.53,83.66,83.70,83.72,83.78,83.83,83.81,83.80,83.80,83.80,83.80,83.80,83.80,83.80,83.80,83.80,83.80,83.82,83.83,83.81,83.80,83.80,83.76,83.71,83.70,83.70,83.70,83.70,83.70,83.70,83.70,83.70,83.70,83.70,83.70,83.68,83.65,83.57,83.55,83.57,83.60,83.60,83.60,83.60,83.66,83.73,83.67
84.30,84.37,84.33,84.28,84.33,84.33,84.31,84.28,84.23,84.21,84.22,84.22,84.21,84.20,84.22,84.25,84.30,84.37,84.31,84.30,84.35,84.44,84.50,84.58,84.62,84.64,84.69,84.64,84.65,84.64,84.60,84.58,84.57,84.53,84.53,84.65,84.56,84.55,84.54,84.50,84.48,84.49,84.47,84.43,84.43,84.37,84.42,84.48,84.47,84.52,84.53,84.51,84.45,84.29,84.23,84.24,84.29,84.31,84.34,84.31,84.32,84.42,84.53,84.51,84.48,84.48,84.56,84.66,84.70,84.67,84.61,84.51,84.42,84.36,84.36,84.38,84.51,84.63,84.70,84.71,84.71,84.66,84.62,84.62,84.68,84.65,84.57,84.44,84.32,84.28,84.32,84.38,84.41,84.44,84.50,84.55,84.59,84.59,84.57,84.53,84.47,84.42,84.37,84.31,84.25,84.22,84.24,84.25,84.23,84.19,84.18,84.18,84.19,84.20,84.19,84.15,84.10,84.03,83.96,83.91,83.90,83.92,83.94,83.95,83.94,83.97,84.00,84.01,83.98,83.97,83.96,83.91,83.82,83.75,83.77,83.84,83.91,83.90,83.90,83.88,83.84,83.79,83.81,83.86,83.92,83.94,83.99,84.04,84.08,84.10,84.08,84.11,84.16,84.24,84.28,84.32,84.35,84.35,84.31,84.27,84.27,84.27,84.27,84.28,84.26,84.22,84.20,84.19,84.20,84.22,84.23,84.23,84.28,84.29,84.32,84.36,84.42,84.39,84.31,84.22,84.17,84.19,84.25,84.30,84.27,84.28,84.29,84.30,84.31,84.33,84.33,84.34,84.36,84.37,84.33,84.32,84.32,84.33,84.25,84.16,84.08,83.99,83.92,83.89,83.83,83.72,83.59,83.51,83.45,83.51,83.65,83.70,83.72,83.77,83.80,83.80,83.80,83.80,83.80,83.80,83.80,83.80,83.80,83.80,83.80,83.80,83.83,83.85,83.82,83.83,83.80,83.75,83.70,83.67,83.68,83.70,83.70,83.70,83.70,83.70,83.70,83.70,83.70,83.67,83.63,83.59,83.56,83.58,83.59,83.60,83.60,83.56,83.58,83.67,83.76,83.71
84.33,84.37,84.31,84.24,84.27,84.28,84.27,84.23,84.19,84.22,84.21,84.20,84.20,84.22,84.23,84.20,84.21,84.27,84.25,84.28,84.37,84.48,84.50,84.57,84.60,84.62,84.66,84.62,84.66,84.66,84.60,84.57,84.58,84.57,84.57,84.69,84.56,84.55,84.56,84.53,84.53,84.50,84.45,84.40,84.41,84.39,84.43,84.47,84.43,84.46,84.45,84.43,84.41,84.31,84.25,84.25,84.27,84.29,84.27,84.25,84.29,84.42,84.47,84.45,84.41,84.41,84.48,84.58,84.63,84.61,84.55,84.49,84.37,84.30,84.32,84.40,84.55,84.65,84.69,84.70,84.68,84.63,84.60,84.62,84.66,84.65,84.57,84.42,84.25,84.24,84.32,84.39,84.40,84.41,84.44,84.48,84.52,84.53,84.53,84.50,84.44,84.38,84.33,84.27,84.22,84.19,84.23,84.24,84.21,84.18,84.16,84.18,84.20,84.20,84.19,84.16,84.08,84.00,83.93,83.90,83.91,83.93,83.96,83.98,83.97,83.97,83.97,83.95,83.92,83.91,83.89,83.84,83.77,83.74,83.79,83.87,83.91,83.89,83.87,83.84,83.79,83.75,83.80,83.86,83.90,83.90,83.93,83.99,84.05,84.08,84.07,84.07,84.10,84.17,84.25,84.32,84.34,84.34,84.29,84.27,84.26,84.26,84.26,84.25,84.20,84.15,84.14,84.16,84.21,84.24,84.25,84.25,84.28,84.28,84.30,84.34,84.36,84.30,84.23,84.17,84.16,84.21,84.29,84.33,84.30,84.29,84.30,84.29,84.29,84.30,84.32,84.36,84.40,84.41,84.36,84.31,84.30,84.31,84.26,84.19,84.10,84.00,83.89,83.83,83.76,83.67,83.55,83.49,83.43,83.47,83.60,83.67,83.71,83.75,83.79,83.80,83.80,83.80,83.80,83.80,83.80,83.80,83.80,83.81,83.82,83.83,83.86,83.87,83.82,83.84,83.78,83.72,83.68,83.66,83.68,83.70,83.70,83.70,83.70,83.69,83.68,83.70,83.70,83.65,83.61,83.58,83.57,83.59,83.60,83.60,83.60,83.56,83.58,83.67,83.78,83.76
84.40,84.39,84.31,84.21,84.20,84.20,84.19,84.17,84.14,84.25,84.23,84.21,84.22,84.28,84.29,84.25,84.22,84.22,84.27,84.29,84.37,84.48,84.50,84.57,84.60,84.59,84.60,84.62,84.67,84.66,84.59,84.53,84.57,84.61,84.63,84.70,84.56,84.53,84.56,84.60,84.59,84.52,84.44,84.39,84.43,84.47,84.49,84.48,84.46,84.41,84.34,84.31,84.32,84.30,84.28,84.24,84.23,84.27,84.22,84.23,84.29,84.38,84.31,84.31,84.34,84.38,84.39,84.46,84.52,84.54,84.51,84.49,84.37,84.30,84.35,84.47,84.59,84.65,84.68,84.69,84.66,84.61,84.58,84.61,84.64,84.64,84.56,84.40,84.19,84.22,84.30,84.38,84.40,84.39,84.38,84.37,84.39,84.43,84.45,84.45,84.41,84.34,84.27,84.21,84.18,84.18,84.23,84.22,84.19,84.16,84.13,84.18,84.20,84.18,84.16,84.13,84.05,83.97,83.90,83.90,83.91,83.94,83.98,84.00,83.98,83.96,83.91,83.86,83.83,83.82,83.79,83.73,83.71,83.76,83.84,83.89,83.88,83.86,83.83,83.78,83.74,83.75,83.81,83.87,83.90,83.90,83.90,83.93,83.98,84.05,84.07,84.04,84.04,84.10,84.22,84.29,84.31,84.28,84.25,84.27,84.29,84.29,84.27,84.20,84.11,84.08,84.10,84.18,84.25,84.27,84.26,84.27,84.29,84.30,84.31,84.31,84.28,84.21,84.16,84.16,84.19,84.24,84.29,84.32,84.31,84.30,84.30,84.28,84.25,84.24,84.30,84.39,84.45,84.43,84.39,84.32,84.28,84.28,84.28,84.22,84.13,84.00,83.83,83.70,83.62,83.54,83.46,83.44,83.38,83.41,83.52,83.61,83.66,83.73,83.79,83.80,83.80,83.80,83.80,83.80,83.80,83.80,83.80,83.81,83.87,83.87,83.89,83.87,83.82,83.82,83.76,83.69,83.64,83.67,83.69,83.70,83.70,83.70,83.70,83.66,83.65,83.69,83.70,83.64,83.61,83.60,83.60,83.60,83.60,83.60,83.60,83.59,83.60,83.67,83.79,83.80
84.38,84.33,84.24,84.15,84.14,84.14,84.14,84.13,84.12,84.21,84.24,84.23,84.20,84.20,84.27,84.28,84.27,84.26,84.24,84.25,84.32,84.42,84.45,84.51,84.52,84.53,84.58,84.65,84.69,84.66,84.60,84.57,84.59,84.61,84.63,84.65,84.61,84.61,84.63,84.62,84.57,84.47,84.40,84.40,84.47,84.47,84.45,84.44,84.45,84.40,84.34,84.31,84.33,84.30,84.27,84.24,84.22,84.21,84.21,84.23,84.28,84.32,84.25,84.28,84.30,84.30,84.32,84.40,84.45,84.46,84.45,84.38,84.30,84.28,84.36,84.50,84.58,84.62,84.64,84.65,84.59,84.53,84.51,84.53,84.53,84.50,84.41,84.27,84.15,84.20,84.27,84.32,84.36,84.36,84.34,84.32,84.32,84.33,84.37,84.38,84.34,84.26,84.21,84.19,84.19,84.19,84.20,84.19,84.18,84.18,84.16,84.16,84.15,84.13,84.11,84.06,84.00,83.94,83.92,83.94,83.95,83.96,83.98,83.98,83.95,83.92,83.87,83.82,83.79,83.76,83.72,83.69,83.73,83.80,83.84,83.84,83.83,83.81,83.76,83.72,83.69,83.72,83.76,83.81,83.86,83.88,83.86,83.88,83.91,83.95,83.96,83.98,84.01,84.07,84.16,84.20,84.22,84.22,84.23,84.26,84.27,84.25,84.18,84.08,84.06,84.10,84.17,84.24,84.26,84.25,84.23,84.24,84.27,84.29,84.28,84.24,84.21,84.19,84.18,84.18,84.20,84.25,84.27,84.28,84.28,84.27,84.25,84.24,84.24,84.31,84.39,84.45,84.48,84.46,84.45,84.39,84.31,84.23,84.22,84.21,84.13,84.01,83.84,83.66,83.57,83.51,83.47,83.40,83.34,83.38,83.49,83.59,83.62,83.68,83.73,83.74,83.78,83.80,83.80,83.80,83.80,83.77,83.75,83.76,83.82,83.83,83.86,83.87,83.82,83.85,83.84,83.77,83.69,83.69,83.70,83.70,83.69,83.69,83.66,83.66,83.68,83.70,83.70,83.64,83.58,83.56,83.59,83.64,83.66,83.64,83.61,83.60,83.60,83.65,83.73,83.75
84.33,84.25,84.16,84.10,84.09,84.09,84.08,84.09,84.11,84.18,84.23,84.23,84.18,84.06,84.21,84.28,84.30,84.29,84.23,84.22,84.27,84.35,84.38,84.43,84.44,84.46,84.53,84.64,84.68,84.66,84.60,84.60,84.59,84.60,84.60,84.59,84.62,84.67,84.69,84.64,84.53,84.41,84.38,84.43,84.50,84.46,84.43,84.42,84.44,84.40,84.34,84.31,84.32,84.29,84.26,84.24,84.22,84.15,84.18,84.22,84.25,84.26,84.21,84.24,84.26,84.24,84.26,84.34,84.37,84.38,84.38,84.28,84.23,84.26,84.36,84.50,84.55,84.58,84.61,84.61,84.52,84.46,84.43,84.44,84.42,84.36,84.27,84.18,84.14,84.19,84.23,84.26,84.31,84.32,84.30,84.28,84.26,84.26,84.29,84.30,84.27,84.21,84.18,84.18,84.19,84.19,84.18,84.17,84.17,84.18,84.16,84.14,84.12,84.09,84.08,84.01,83.95,83.93,83.94,83.96,83.97,83.98,83.98,83.98,83.94,83.89,83.84,83.79,83.76,83.71,83.67,83.67,83.77,83.83,83.83,83.79,83.78,83.75,83.71,83.67,83.67,83.71,83.74,83.78,83.83,83.86,83.83,83.83,83.85,83.87,83.89,83.92,83.97,84.04,84.13,84.15,84.17,84.19,84.22,84.22,84.19,84.14,84.07,84.01,84.07,84.17,84.25,84.29,84.26,84.23,84.21,84.22,84.27,84.28,84.25,84.18,84.18,84.19,84.20,84.20,84.19,84.22,84.23,84.24,84.25,84.23,84.21,84.20,84.24,84.36,84.42,84.45,84.46,84.47,84.47,84.43,84.33,84.19,84.17,84.18,84.12,84.01,83.85,83.65,83.55,83.52,83.49,83.37,83.32,83.36,83.48,83.59,83.60,83.63,83.67,83.71,83.77,83.79,83.80,83.80,83.78,83.74,83.72,83.73,83.78,83.80,83.83,83.85,83.83,83.85,83.88,83.83,83.72,83.70,83.70,83.68,83.67,83.67,83.62,83.65,83.69,83.70,83.70,83.64,83.58,83.55,83.59,83.67,83.69,83.67,83.63,83.60,83.60,83.64,83.70,83.72
84.22,84.13,84.08,84.06,84.06,84.06,84.03,84.04,84.11,84.18,84.20,84.23,84.15,83.82,84.09,84.24,84.29,84.30,84.26,84.22,84.24,84.30,84.27,84.31,84.34,84.37,84.42,84.56,84.63,84.63,84.60,84.60,84.57,84.56,84.56,84.52,84.57,84.67,84.73,84.66,84.44,84.35,84.38,84.49,84.50,84.43,84.43,84.45,84.43,84.40,84.33,84.28,84.25,84.24,84.24,84.23,84.20,84.11,84.14,84.18,84.21,84.20,84.16,84.20,84.22,84.21,84.22,84.26,84.27,84.27,84.26,84.18,84.20,84.26,84.34,84.43,84.47,84.53,84.59,84.57,84.46,84.38,84.34,84.34,84.30,84.22,84.16,84.14,84.18,84.19,84.20,84.20,84.21,84.27,84.26,84.23,84.22,84.21,84.22,84.23,84.22,84.20,84.19,84.18,84.17,84.15,84.19,84.19,84.18,84.16,84.12,84.11,84.10,84.09,84.07,83.99,83.94,83.94,83.95,83.95,83.98,84.00,84.00,84.00,83.96,83.91,83.84,83.80,83.77,83.70,83.67,83.70,83.82,83.85,83.82,83.76,83.72,83.69,83.66,83.67,83.70,83.74,83.77,83.81,83.85,83.85,83.82,83.81,83.82,83.86,83.89,83.88,83.90,84.00,84.17,84.21,84.23,84.24,84.23,84.14,84.01,83.93,83.92,84.04,84.19,84.29,84.32,84.30,84.26,84.22,84.22,84.26,84.32,84.27,84.21,84.18,84.20,84.21,84.21,84.20,84.17,84.15,84.17,84.20,84.21,84.21,84.17,84.19,84.27,84.32,84.32,84.32,84.35,84.42,84.43,84.38,84.30,84.21,84.15,84.12,84.08,84.00,83.87,83.67,83.60,83.56,83.50,83.37,83.32,83.36,83.48,83.63,83.60,83.59,83.63,83.74,83.77,83.79,83.79,83.79,83.74,83.72,83.74,83.78,83.80,83.80,83.81,83.82,83.83,83.80,83.84,83.81,83.72,83.70,83.68,83.65,83.62,83.61,83.60,83.64,83.68,83.70,83.70,83.64,83.60,83.59,83.60,83.67,83.68,83.67,83.66,83.61,83.60,83.64,83.70,83.75
84.15,84.10,84.07,84.05,84.00,83.99,83.97,83.99,84.06,84.11,84.17,84.16,84.01,83.59,83.80,84.06,84.24,84.26,84.24,84.25,84.27,84.29,84.26,84.29,84.31,84.32,84.31,84.43,84.53,84.57,84.56,84.56,84.53,84.53,84.52,84.46,84.49,84.56,84.60,84.55,84.33,84.30,84.39,84.50,84.50,84.43,84.42,84.42,84.37,84.35,84.29,84.24,84.21,84.18,84.17,84.17,84.15,84.11,84.15,84.16,84.17,84.19,84.14,84.18,84.21,84.20,84.21,84.22,84.22,84.21,84.17,84.14,84.18,84.23,84.27,84.33,84.41,84.51,84.58,84.52,84.42,84.34,84.29,84.25,84.19,84.13,84.14,84.21,84.25,84.27,84.25,84.21,84.18,84.20,84.18,84.16,84.16,84.15,84.16,84.16,84.16,84.17,84.17,84.16,84.14,84.14,84.19,84.20,84.19,84.16,84.11,84.11,84.11,84.09,84.04,83.99,83.96,83.94,83.95,83.95,83.96,83.97,83.97,83.95,83.93,83.88,83.81,83.74,83.70,83.65,83.64,83.70,83.81,83.81,83.77,83.70,83.65,83.65,83.66,83.68,83.70,83.71,83.75,83.79,83.82,83.82,83.79,83.78,83.80,83.85,83.87,83.86,83.87,83.95,84.09,84.16,84.18,84.16,84.11,83.99,83.89,83.86,83.93,84.08,84.22,84.30,84.33,84.31,84.28,84.25,84.24,84.24,84.25,84.22,84.20,84.22,84.26,84.26,84.25,84.25,84.23,84.18,84.19,84.21,84.21,84.20,84.14,84.14,84.20,84.24,84.23,84.25,84.28,84.34,84.37,84.35,84.29,84.21,84.13,84.08,84.04,83.98,83.88,83.72,83.65,83.59,83.48,83.36,83.32,83.37,83.47,83.62,83.57,83.53,83.56,83.69,83.71,83.73,83.74,83.73,83.69,83.70,83.73,83.77,83.78,83.78,83.77,83.76,83.75,83.74,83.81,83.79,83.70,83.68,83.65,83.62,83.60,83.60,83.60,83.62,83.65,83.70,83.70,83.64,83.60,83.58,83.60,83.65,83.65,83.64,83.63,83.61,83.60,83.65,83.72,83.71
84.11,84.09,84.08,84.03,83.93,83.92,83.91,83.95,84.01,84.04,84.13,84.09,83.86,83.41,83.48,83.85,84.16,84.21,84.21,84.28,84.31,84.30,84.29,84.30,84.30,84.28,84.23,84.31,84.42,84.48,84.49,84.49,84.49,84.49,84.48,84.41,84.40,84.42,84.43,84.39,84.25,84.28,84.39,84.50,84.50,84.44,84.41,84.38,84.30,84.30,84.25,84.20,84.18,84.12,84.11,84.11,84.11,84.12,84.17,84.15,84.14,84.18,84.12,84.16,84.19,84.19,84.20,84.20,84.19,84.17,84.10,84.12,84.17,84.20,84.20,84.23,84.37,84.49,84.54,84.46,84.38,84.31,84.24,84.16,84.09,84.08,84.16,84.30,84.32,84.35,84.32,84.26,84.19,84.14,84.11,84.10,84.10,84.10,84.10,84.10,84.11,84.13,84.15,84.13,84.11,84.15,84.19,84.20,84.19,84.16,84.11,84.11,84.11,84.09,84.00,84.01,83.98,83.95,83.93,83.95,83.95,83.95,83.94,83.89,83.88,83.84,83.77,83.68,83.62,83.59,83.62,83.70,83.78,83.76,83.71,83.64,83.60,83.63,83.67,83.70,83.69,83.67,83.70,83.74,83.77,83.78,83.77,83.76,83.78,83.83,83.83,83.84,83.85,83.90,83.97,84.07,84.09,84.03,83.94,83.84,83.79,83.85,84.00,84.12,84.21,84.27,84.31,84.32,84.30,84.28,84.26,84.21,84.16,84.17,84.21,84.27,84.32,84.31,84.31,84.30,84.29,84.22,84.21,84.21,84.21,84.19,84.13,84.09,84.09,84.15,84.16,84.19,84.23,84.26,84.30,84.31,84.28,84.20,84.10,84.04,83.99,83.95,83.88,83.77,83.70,83.61,83.47,83.35,83.33,83.37,83.45,83.58,83.52,83.47,83.48,83.59,83.62,83.65,83.66,83.64,83.63,83.66,83.69,83.72,83.73,83.73,83.71,83.68,83.65,83.68,83.76,83.75,83.67,83.65,83.62,83.60,83.60,83.60,83.60,83.60,83.63,83.69,83.70,83.64,83.59,83.57,83.60,83.63,83.62,83.60,83.60,83.60,83.60,83.66,83.72,83.65
84.10,84.10,84.06,83.98,83.86,83.89,83.94,83.98,84.01,84.07,84.11,84.04,83.84,83.50,83.41,83.69,84.00,84.12,84.13,84.20,84.26,84.30,84.36,84.32,84.30,84.29,84.28,84.31,84.30,84.31,84.35,84.34,84.39,84.42,84.42,84.40,84.35,84.33,84.31,84.27,84.28,84.31,84.39,84.49,84.50,84.48,84.46,84.40,84.25,84.28,84.23,84.19,84.17,84.11,84.10,84.11,84.14,84.17,84.18,84.17,84.16,84.14,84.11,84.12,84.13,84.15,84.20,84.20,84.19,84.16,84.10,84.12,84.17,84.20,84.20,84.23,84.33,84.39,84.38,84.31,84.25,84.21,84.15,84.08,84.06,84.10,84.18,84.26,84.30,84.32,84.31,84.30,84.29,84.25,84.18,84.13,84.11,84.10,84.09,84.09,84.10,84.10,84.10,84.11,84.13,84.17,84.19,84.20,84.19,84.17,84.12,84.10,84.08,84.06,84.04,84.03,84.00,83.96,83.93,83.94,83.96,83.95,83.92,83.88,83.85,83.80,83.73,83.63,83.60,83.62,83.65,83.69,83.73,83.73,83.69,83.63,83.62,83.65,83.68,83.69,83.66,83.63,83.65,83.69,83.73,83.74,83.75,83.75,83.76,83.78,83.79,83.81,83.82,83.85,83.89,83.94,83.92,83.83,83.72,83.73,83.79,83.89,84.03,84.10,84.15,84.19,84.23,84.29,84.30,84.27,84.22,84.16,84.16,84.19,84.24,84.28,84.32,84.32,84.32,84.31,84.23,84.12,84.09,84.10,84.12,84.14,84.12,84.07,84.03,84.04,84.08,84.14,84.19,84.22,84.22,84.24,84.21,84.13,84.03,83.95,83.90,83.87,83.83,83.76,83.68,83.61,83.51,83.38,83.36,83.35,83.35,83.42,83.44,83.41,83.39,83.43,83.48,83.51,83.50,83.47,83.49,83.52,83.56,83.60,83.61,83.61,83.59,83.56,83.53,83.61,83.65,83.65,83.62,83.61,83.61,83.60,83.60,83.60,83.60,83.60,83.61,83.65,83.69,83.64,83.62,83.63,83.65,83.63,83.61,83.60,83.60,83.60,83.64,83.66,83.66,83.62
84.06,84.06,84.01,83.93,83.83,83.88,83.93,83.97,83.98,84.04,84.03,83.94,83.79,83.58,83.46,83.64,83.88,84.01,84.07,84.15,84.22,84.28,84.35,84.32,84.31,84.31,84.30,84.33,84.30,84.27,84.28,84.24,84.28,84.32,84.33,84.33,84.29,84.26,84.23,84.21,84.30,84.35,84.40,84.47,84.50,84.49,84.47,84.40,84.27,84.27,84.20,84.15,84.15,84.11,84.10,84.12,84.15,84.18,84.16,84.17,84.16,84.13,84.10,84.10,84.09,84.11,84.17,84.18,84.16,84.13,84.10,84.11,84.16,84.20,84.21,84.22,84.27,84.29,84.26,84.19,84.14,84.11,84.08,84.04,84.10,84.16,84.22,84.27,84.30,84.30,84.31,84.33,84.35,84.33,84.26,84.20,84.16,84.13,84.10,84.09,84.09,84.07,84.05,84.07,84.12,84.16,84.18,84.19,84.19,84.17,84.12,84.09,84.07,84.06,84.06,84.03,84.00,83.96,83.93,83.95,83.97,83.95,83.90,83.86,83.80,83.73,83.67,83.60,83.61,83.64,83.66,83.67,83.70,83.68,83.64,83.60,83.61,83.65,83.67,83.66,83.63,83.59,83.62,83.65,83.68,83.69,83.71,83.73,83.73,83.73,83.74,83.75,83.77,83.78,83.78,83.78,83.74,83.68,83.66,83.74,83.83,83.93,84.03,84.04,84.04,84.07,84.13,84.22,84.23,84.21,84.17,84.14,84.18,84.23,84.26,84.29,84.32,84.32,84.29,84.22,84.08,83.98,83.97,84.00,84.03,84.05,84.05,84.02,83.98,83.95,84.01,84.08,84.15,84.17,84.14,84.13,84.11,84.05,83.95,83.88,83.84,83.82,83.79,83.72,83.66,83.60,83.53,83.39,83.35,83.32,83.28,83.31,83.34,83.33,83.31,83.30,83.35,83.38,83.38,83.36,83.41,83.45,83.49,83.53,83.57,83.57,83.55,83.51,83.49,83.55,83.59,83.60,83.60,83.63,83.63,83.63,83.63,83.63,83.63,83.63,83.63,83.62,83.63,83.59,83.60,83.63,83.65,83.62,83.60,83.59,83.57,83.59,83.63,83.64,83.61,83.57
83.98,83.98,83.94,83.87,83.81,83.88,83.91,83.91,83.91,83.97,83.90,83.81,83.72,83.66,83.60,83.68,83.79,83.88,84.03,84.14,84.19,84.22,84.29,84.30,84.31,84.32,84.30,84.38,84.38,84.33,84.25,84.16,84.16,84.20,84.23,84.23,84.23,84.20,84.18,84.21,84.31,84.39,84.42,84.42,84.49,84.47,84.43,84.39,84.35,84.26,84.16,84.10,84.10,84.10,84.10,84.13,84.16,84.15,84.12,84.14,84.16,84.15,84.11,84.09,84.08,84.07,84.12,84.14,84.13,84.10,84.10,84.11,84.14,84.19,84.23,84.20,84.20,84.19,84.16,84.10,84.06,84.02,84.01,84.05,84.18,84.24,84.27,84.30,84.30,84.31,84.33,84.37,84.40,84.39,84.35,84.30,84.23,84.18,84.13,84.10,84.08,84.02,83.98,84.02,84.08,84.11,84.15,84.18,84.19,84.17,84.12,84.08,84.08,84.09,84.07,84.02,83.99,83.97,83.95,83.98,83.98,83.95,83.88,83.81,83.74,83.65,83.59,83.59,83.65,83.65,83.64,83.65,83.67,83.62,83.56,83.54,83.58,83.62,83.63,83.62,83.59,83.56,83.59,83.62,83.63,83.63,83.65,83.68,83.70,83.70,83.69,83.69,83.69,83.69,83.65,83.58,83.55,83.58,83.72,83.83,83.90,83.96,84.00,83.95,83.90,83.93,84.03,84.13,84.11,84.09,84.10,84.14,84.22,84.27,84.29,84.30,84.30,84.30,84.22,84.06,83.86,83.81,83.84,83.90,83.92,83.93,83.93,83.95,83.95,83.88,83.93,84.02,84.09,84.11,84.06,84.00,83.97,83.97,83.88,83.82,83.80,83.79,83.74,83.67,83.62,83.58,83.52,83.39,83.33,83.28,83.23,83.21,83.21,83.21,83.21,83.21,83.21,83.26,83.29,83.31,83.37,83.44,83.48,83.52,83.58,83.59,83.56,83.51,83.50,83.50,83.55,83.59,83.61,83.67,83.69,83.70,83.70,83.70,83.70,83.70,83.67,83.61,83.53,83.51,83.54,83.59,83.60,83.60,83.60,83.57,83.52,83.58,83.60,83.60,83.58,83.51
83.98,83.95,83.89,83.84,83.83,83.90,83.93,83.94,83.93,83.91,83.76,83.72,83.75,83.71,83.69,83.72,83.78,83.84,83.99,84.11,84.16,84.19,84.26,84.27,84.30,84.32,84.27,84.35,84.39,84.39,84.33,84.20,84.17,84.17,84.19,84.19,84.16,84.14,84.15,84.20,84.24,84.27,84.30,84.35,84.45,84.38,84.32,84.29,84.29,84.27,84.19,84.12,84.10,84.10,84.10,84.11,84.12,84.12,84.11,84.11,84.11,84.08,84.06,84.05,84.00,83.95,83.97,84.03,84.07,84.10,84.10,84.11,84.15,84.20,84.23,84.20,84.17,84.15,84.12,84.04,83.99,83.97,84.03,84.18,84.25,84.28,84.29,84.30,84.30,84.31,84.35,84.39,84.40,84.40,84.38,84.33,84.27,84.24,84.19,84.17,84.14,84.04,83.98,83.98,84.01,84.04,84.06,84.10,84.11,84.07,84.01,84.00,84.05,84.09,84.07,84.01,83.99,83.98,83.98,83.99,83.98,83.93,83.85,83.76,83.65,83.56,83.55,83.62,83.69,83.70,83.69,83.65,83.61,83.57,83.56,83.57,83.57,83.56,83.58,83.60,83.59,83.53,83.54,83.55,83.56,83.56,83.58,83.63,83.67,83.67,83.64,83.63,83.63,83.60,83.54,83.50,83.53,83.62,83.77,83.84,83.85,83.86,83.88,83.89,83.95,84.03,84.09,84.11,84.10,84.11,84.15,84.22,84.26,84.29,84.30,84.29,84.26,84.12,83.98,83.87,83.78,83.72,83.72,83.76,83.79,83.82,83.84,83.87,83.89,83.85,83.82,83.89,83.97,83.99,83.93,83.89,83.87,83.87,83.83,83.81,83.78,83.74,83.67,83.62,83.58,83.53,83.46,83.32,83.29,83.24,83.17,83.15,83.20,83.23,83.23,83.20,83.19,83.24,83.28,83.30,83.36,83.41,83.47,83.53,83.54,83.56,83.56,83.54,83.51,83.49,83.53,83.56,83.59,83.63,83.71,83.73,83.71,83.69,83.68,83.72,83.74,83.69,83.53,83.58,83.66,83.70,83.64,83.61,83.57,83.54,83.54,83.56,83.56,83.51,83.42,83.38
83.97,83.91,83.85,83.82,83.85,83.90,83.93,83.93,83.92,83.84,83.68,83.68,83.75,83.74,83.74,83.75,83.77,83.81,83.93,84.05,84.12,84.15,84.21,84.22,84.27,84.30,84.26,84.32,84.37,84.40,84.38,84.24,84.20,84.18,84.17,84.17,84.13,84.11,84.13,84.18,84.18,84.17,84.19,84.27,84.38,84.30,84.23,84.20,84.23,84.26,84.20,84.13,84.10,84.10,84.10,84.10,84.10,84.10,84.10,84.09,84.06,84.01,84.02,84.00,83.94,83.87,83.85,83.95,84.04,84.11,84.12,84.13,84.16,84.20,84.21,84.18,84.14,84.11,84.07,83.97,83.93,83.97,84.09,84.29,84.30,84.30,84.30,84.29,84.28,84.31,84.36,84.41,84.42,84.40,84.39,84.35,84.30,84.28,84.25,84.23,84.20,84.09,84.02,83.98,83.96,83.97,83.96,84.01,84.02,83.98,83.95,83.97,84.03,84.08,84.07,84.01,83.98,83.97,83.97,83.98,83.95,83.89,83.80,83.69,83.57,83.52,83.55,83.65,83.71,83.73,83.71,83.64,83.57,83.55,83.57,83.59,83.57,83.52,83.54,83.58,83.57,83.49,83.47,83.47,83.47,83.48,83.51,83.57,83.62,83.63,83.61,83.59,83.57,83.52,83.47,83.48,83.55,83.66,83.79,83.83,83.81,83.79,83.83,83.91,84.02,84.10,84.13,84.10,84.10,84.13,84.19,84.26,84.29,84.29,84.27,84.23,84.15,83.93,83.78,83.71,83.70,83.65,83.64,83.65,83.70,83.75,83.79,83.82,83.85,83.82,83.74,83.77,83.83,83.87,83.83,83.82,83.82,83.82,83.80,83.79,83.75,83.68,83.61,83.58,83.54,83.49,83.42,83.29,83.26,83.22,83.14,83.10,83.16,83.20,83.20,83.16,83.15,83.20,83.24,83.27,83.33,83.38,83.45,83.52,83.51,83.51,83.54,83.55,83.53,83.50,83.54,83.57,83.58,83.58,83.69,83.73,83.70,83.66,83.62,83.69,83.75,83.72,83.54,83.65,83.75,83.76,83.65,83.61,83.53,83.49,83.52,83.50,83.49,83.42,83.31,83.30
83.94,83.84,83.80,83.82,83.88,83.87,83.89,83.89,83.86,83.77,83.71,83.70,83.72,83.71,83.71,83.75,83.79,83.81,83.86,83.97,84.06,84.11,84.14,84.14,84.19,84.25,84.27,84.30,84.29,84.32,84.38,84.28,84.27,84.23,84.19,84.19,84.17,84.13,84.11,84.13,84.13,84.12,84.12,84.16,84.25,84.22,84.17,84.14,84.21,84.22,84.16,84.11,84.10,84.10,84.10,84.10,84.10,84.10,84.10,84.09,84.04,83.94,83.99,83.95,83.90,83.85,83.77,83.93,84.05,84.13,84.18,84.18,84.19,84.20,84.19,84.13,84.11,84.08,84.02,83.86,83.91,84.03,84.20,84.36,84.31,84.30,84.29,84.27,84.23,84.29,84.37,84.43,84.47,84.41,84.39,84.35,84.30,84.30,84.29,84.28,84.24,84.18,84.14,84.05,83.95,83.89,83.86,83.90,83.93,83.94,83.98,83.99,84.02,84.05,84.06,83.99,83.94,83.92,83.92,83.91,83.89,83.82,83.70,83.56,83.51,83.56,83.64,83.69,83.70,83.70,83.68,83.64,83.56,83.54,83.58,83.62,83.59,83.51,83.51,83.52,83.50,83.42,83.38,83.36,83.36,83.39,83.43,83.48,83.52,83.56,83.59,83.57,83.51,83.46,83.48,83.57,83.64,83.70,83.77,83.81,83.76,83.76,83.89,84.08,84.12,84.12,84.11,84.11,84.11,84.13,84.18,84.25,84.28,84.27,84.20,84.08,83.91,83.75,83.65,83.60,83.62,83.63,83.61,83.62,83.67,83.75,83.80,83.82,83.83,83.80,83.70,83.66,83.68,83.75,83.79,83.81,83.83,83.84,83.79,83.75,83.68,83.60,83.54,83.53,83.50,83.47,83.42,83.29,83.26,83.22,83.15,83.09,83.07,83.06,83.05,83.05,83.06,83.12,83.17,83.21,83.28,83.35,83.42,83.46,83.47,83.44,83.48,83.54,83.57,83.54,83.61,83.63,83.59,83.54,83.62,83.66,83.66,83.61,83.50,83.59,83.66,83.63,83.55,83.69,83.78,83.75,83.60,83.57,83.49,83.43,83.42,83.36,83.36,83.34,83.30,83.30
83.87,83.79,83.77,83.80,83.85,83.80,83.84,83.86,83.82,83.74,83.71,83.70,83.71,83.70,83.70,83.75,83.81,83.84,83.83,83.91,83.99,84.05,84.10,84.11,84.16,84.23,84.28,84.26,84.26,84.28,84.30,84.29,84.26,84.22,84.20,84.20,84.23,84.19,84.15,84.16,84.16,84.12,84.11,84.11,84.11,84.07,84.05,84.07,84.14,84.15,84.12,84.10,84.10,84.10,84.10,84.10,84.10,84.10,84.09,84.06,83.99,83.90,83.90,83.87,83.84,83.82,83.78,83.87,83.96,84.05,84.13,84.15,84.19,84.20,84.16,84.10,84.09,84.04,83.96,83.82,83.90,84.05,84.21,84.32,84.30,84.29,84.27,84.23,84.19,84.23,84.31,84.40,84.46,84.42,84.38,84.35,84.34,84.32,84.33,84.32,84.27,84.24,84.19,84.12,84.05,83.99,83.94,83.92,83.90,83.88,83.90,83.94,83.99,84.03,84.02,83.98,83.95,83.93,83.92,83.89,83.83,83.75,83.64,83.52,83.53,83.60,83.68,83.70,83.68,83.65,83.62,83.59,83.55,83.53,83.55,83.58,83.56,83.51,83.48,83.46,83.42,83.37,83.32,83.28,83.26,83.29,83.35,83.40,83.46,83.53,83.58,83.54,83.48,83.43,83.46,83.54,83.61,83.68,83.73,83.80,83.83,83.89,84.00,84.12,84.13,84.12,84.12,84.14,84.13,84.14,84.16,84.21,84.24,84.19,84.07,83.91,83.75,83.67,83.63,83.61,83.61,83.64,83.64,83.65,83.67,83.74,83.80,83.84,83.84,83.80,83.68,83.60,83.57,83.62,83.71,83.75,83.78,83.78,83.71,83.63,83.56,83.51,83.50,83.48,83.45,83.42,83.39,83.28,83.24,83.21,83.17,83.09,83.03,82.98,82.94,82.93,82.97,83.04,83.11,83.19,83.25,83.30,83.35,83.40,83.43,83.45,83.49,83.55,83.62,83.60,83.61,83.62,83.61,83.59,83.61,83.63,83.64,83.60,83.48,83.57,83.63,83.60,83.56,83.68,83.75,83.73,83.60,83.55,83.47,83.41,83.38,83.31,83.33,83.33,83.29,83.20
83.81,83.75,83.75,83.79,83.80,83.73,83.81,83.85,83.80,83.73,83.70,83.69,83.68,83.69,83.70,83.75,83.82,83.87,83.82,83.86,83.92,84.00,84.08,84.10,84.14,84.21,84.27,84.22,84.25,84.25,84.21,84.27,84.23,84.19,84.19,84.20,84.26,84.24,84.20,84.20,84.20,84.15,84.11,84.08,83.99,83.93,83.94,84.00,84.06,84.06,84.07,84.07,84.08,84.09,84.10,84.09,84.08,84.08,84.07,84.01,83.94,83.87,83.81,83.79,83.78,83.79,83.81,83.82,83.87,83.95,84.03,84.08,84.16,84.18,84.12,84.08,84.05,83.99,83.90,83.81,83.89,84.04,84.18,84.27,84.30,84.29,84.24,84.17,84.13,84.14,84.21,84.33,84.41,84.40,84.37,84.36,84.38,84.35,84.37,84.35,84.29,84.27,84.22,84.19,84.16,84.12,84.06,83.98,83.90,83.84,83.82,83.87,83.95,84.00,83.97,83.96,83.95,83.94,83.91,83.87,83.78,83.68,83.59,83.53,83.58,83.65,83.70,83.69,83.65,83.59,83.56,83.55,83.55,83.54,83.54,83.54,83.53,83.50,83.46,83.41,83.36,83.34,83.29,83.23,83.19,83.19,83.26,83.34,83.42,83.51,83.56,83.51,83.44,83.40,83.42,83.48,83.55,83.64,83.69,83.80,83.92,84.03,84.10,84.12,84.11,84.12,84.14,84.18,84.16,84.14,84.14,84.16,84.16,84.07,83.91,83.73,83.63,83.63,83.65,83.65,83.63,83.66,83.68,83.69,83.67,83.72,83.79,83.84,83.86,83.81,83.68,83.55,83.48,83.49,83.61,83.67,83.70,83.70,83.62,83.50,83.45,83.45,83.46,83.46,83.40,83.36,83.34,83.25,83.21,83.19,83.17,83.10,83.03,82.94,82.87,82.84,82.89,82.96,83.04,83.15,83.21,83.24,83.28,83.33,83.39,83.47,83.51,83.57,83.66,83.65,83.61,83.60,83.63,83.67,83.62,83.62,83.64,83.62,83.52,83.58,83.63,83.60,83.57,83.65,83.70,83.69,83.62,83.55,83.48,83.42,83.39,83.32,83.36,83.36,83.29,83.13
83.79,83.77,83.78,83.78,83.74,83.72,83.80,83.84,83.80,83.77,83.68,83.61,83.59,83.63,83.68,83.75,83.80,83.82,83.81,83.85,83.89,83.94,84.06,84.09,84.11,84.14,84.20,84.20,84.21,84.21,84.20,84.22,84.21,84.17,84.14,84.18,84.21,84.21,84.20,84.20,84.20,84.19,84.15,84.07,83.95,83.93,83.92,83.92,83.93,83.94,83.97,83.99,84.01,84.07,84.07,84.05,84.02,84.02,84.00,83.95,83.89,83.82,83.78,83.74,83.74,83.77,83.84,83.85,83.88,83.89,83.89,83.98,84.02,84.03,84.02,84.01,83.99,83.91,83.83,83.80,83.84,83.97,84.12,84.26,84.32,84.29,84.20,84.09,84.00,83.98,84.01,84.09,84.21,84.25,84.34,84.40,84.42,84.39,84.38,84.35,84.29,84.27,84.22,84.20,84.19,84.17,84.15,84.09,84.02,83.94,83.89,83.85,83.86,83.88,83.86,83.88,83.87,83.86,83.85,83.84,83.73,83.63,83.58,83.60,83.65,83.69,83.70,83.65,83.61,83.55,83.53,83.55,83.62,83.63,83.61,83.57,83.54,83.51,83.48,83.46,83.44,83.37,83.30,83.25,83.20,83.16,83.20,83.28,83.39,83.49,83.49,83.43,83.38,83.38,83.41,83.43,83.50,83.59,83.71,83.87,84.00,84.08,84.10,84.11,84.14,84.17,84.19,84.19,84.16,84.13,84.10,84.07,83.96,83.80,83.66,83.58,83.59,83.65,83.69,83.70,83.68,83.69,83.70,83.68,83.65,83.69,83.73,83.78,83.81,83.77,83.69,83.58,83.46,83.39,83.46,83.55,83.62,83.64,83.60,83.50,83.46,83.47,83.49,83.48,83.39,83.29,83.21,83.16,83.15,83.14,83.13,83.06,83.05,82.99,82.90,82.83,82.87,82.89,82.94,83.04,83.12,83.18,83.24,83.31,83.38,83.43,83.50,83.57,83.63,83.66,83.63,83.60,83.62,83.68,83.67,83.67,83.69,83.73,83.66,83.67,83.68,83.66,83.60,83.62,83.63,83.63,83.61,83.63,83.59,83.53,83.47,83.45,83.50,83.48,83.37,83.26
83.73,83.73,83.76,83.76,83.72,83.72,83.78,83.80,83.75,83.74,83.64,83.58,83.57,83.64,83.68,83.74,83.78,83.80,83.80,83.83,83.85,83.90,84.03,84.08,84.10,84.11,84.15,84.17,84.19,84.20,84.20,84.22,84.21,84.16,84.11,84.14,84.17,84.19,84.20,84.20,84.20,84.20,84.17,84.09,83.98,83.96,83.94,83.90,83.87,83.89,83.89,83.90,83.94,84.00,84.01,84.00,83.98,83.98,83.93,83.89,83.84,83.78,83.75,83.73,83.74,83.78,83.84,83.87,83.88,83.86,83.84,83.92,83.93,83.93,83.95,83.96,83.92,83.87,83.82,83.82,83.82,83.92,84.06,84.23,84.33,84.25,84.11,83.98,83.91,83.88,83.89,83.94,84.04,84.08,84.21,84.32,84.37,84.38,84.39,84.37,84.31,84.25,84.20,84.19,84.20,84.20,84.19,84.16,84.11,84.04,83.98,83.86,83.81,83.79,83.76,83.78,83.79,83.79,83.79,83.77,83.65,83.58,83.59,83.66,83.71,83.73,83.69,83.61,83.57,83.54,83.55,83.60,83.67,83.70,83.67,83.61,83.55,83.49,83.45,83.44,83.47,83.42,83.36,83.29,83.23,83.19,83.18,83.24,83.34,83.44,83.43,83.38,83.35,83.37,83.38,83.41,83.47,83.55,83.65,83.79,83.93,84.04,84.10,84.13,84.16,84.19,84.19,84.19,84.17,84.13,84.05,83.92,83.78,83.65,83.56,83.51,83.53,83.63,83.69,83.71,83.70,83.70,83.69,83.66,83.63,83.65,83.68,83.72,83.75,83.72,83.65,83.54,83.41,83.31,83.31,83.37,83.45,83.52,83.56,83.49,83.46,83.47,83.50,83.48,83.37,83.24,83.14,83.09,83.09,83.10,83.10,83.04,83.04,83.02,82.96,82.88,82.89,82.88,82.90,82.96,83.04,83.11,83.18,83.26,83.34,83.37,83.45,83.53,83.58,83.65,83.63,83.62,83.64,83.71,83.72,83.72,83.73,83.75,83.71,83.71,83.72,83.72,83.67,83.66,83.65,83.65,83.65,83.65,83.65,83.60,83.51,83.47,83.48,83.46,83.40,83.31
83.65,83.66,83.70,83.73,83.71,83.74,83.76,83.73,83.67,83.66,83.60,83.58,83.61,83.69,83.70,83.73,83.77,83.80,83.80,83.80,83.82,83.87,83.98,84.06,84.09,84.10,84.10,84.14,84.18,84.20,84.21,84.24,84.22,84.16,84.10,84.10,84.14,84.18,84.20,84.20,84.20,84.20,84.18,84.13,84.05,84.01,83.98,83.93,83.86,83.89,83.84,83.82,83.86,83.89,83.92,83.94,83.94,83.94,83.86,83.84,83.80,83.74,83.71,83.74,83.78,83.80,83.81,83.88,83.88,83.85,83.87,83.89,83.87,83.87,83.90,83.92,83.87,83.85,83.86,83.85,83.83,83.88,84.01,84.19,84.32,84.17,83.98,83.86,83.83,83.83,83.83,83.84,83.89,83.90,84.01,84.14,84.25,84.34,84.39,84.40,84.35,84.20,84.16,84.18,84.20,84.20,84.20,84.19,84.18,84.15,84.08,83.89,83.79,83.74,83.67,83.67,83.70,83.72,83.72,83.68,83.57,83.54,83.60,83.72,83.77,83.76,83.68,83.57,83.52,83.54,83.60,83.68,83.73,83.75,83.71,83.64,83.56,83.46,83.39,83.39,83.46,83.49,83.43,83.35,83.28,83.24,83.20,83.22,83.28,83.36,83.36,83.35,83.34,83.35,83.35,83.41,83.47,83.51,83.52,83.61,83.76,83.95,84.11,84.18,84.20,84.18,84.15,84.16,84.19,84.14,83.99,83.73,83.59,83.58,83.56,83.49,83.46,83.57,83.66,83.70,83.70,83.70,83.67,83.63,83.60,83.60,83.64,83.68,83.69,83.64,83.57,83.46,83.34,83.24,83.15,83.15,83.22,83.35,83.50,83.48,83.46,83.47,83.50,83.45,83.34,83.22,83.12,83.04,83.05,83.08,83.09,83.03,83.02,83.04,83.05,82.97,82.93,82.91,82.91,82.91,82.96,83.03,83.11,83.18,83.27,83.30,83.39,83.47,83.52,83.63,83.63,83.64,83.68,83.75,83.76,83.77,83.76,83.71,83.70,83.73,83.76,83.77,83.76,83.75,83.74,83.74,83.74,83.63,83.65,83.64,83.50,83.41,83.34,83.35,83.40,83.30
83.66,83.62,83.62,83.65,83.69,83.71,83.70,83.67,83.63,83.59,83.55,83.57,83.64,83.70,83.70,83.71,83.74,83.80,83.83,83.82,83.83,83.89,83.95,84.02,84.07,84.08,84.06,84.11,84.16,84.20,84.20,84.23,84.21,84.17,84.14,84.14,84.16,84.18,84.19,84.16,84.19,84.20,84.19,84.16,84.04,84.04,84.04,84.02,83.98,83.92,83.84,83.82,83.87,83.88,83.84,83.82,83.82,83.82,83.82,83.81,83.78,83.73,83.80,83.83,83.84,83.84,83.81,83.85,83.87,83.86,83.83,83.84,83.83,83.85,83.89,83.86,83.83,83.85,83.88,83.88,83.87,83.88,83.92,83.97,84.04,83.99,83.90,83.82,83.81,83.81,83.81,83.82,83.85,83.89,83.94,84.00,84.07,84.15,84.23,84.32,84.37,84.28,84.17,84.17,84.21,84.22,84.24,84.21,84.19,84.16,84.09,84.02,83.93,83.79,83.58,83.62,83.65,83.67,83.66,83.58,83.58,83.66,83.76,83.77,83.77,83.72,83.62,83.50,83.49,83.56,83.64,83.70,83.73,83.74,83.68,83.61,83.56,83.48,83.45,83.48,83.55,83.53,83.45,83.36,83.29,83.28,83.27,83.29,83.32,83.33,83.30,83.33,83.35,83.36,83.35,83.41,83.46,83.49,83.48,83.50,83.64,83.84,84.06,84.17,84.17,84.12,84.07,84.04,83.98,83.85,83.71,83.63,83.63,83.64,83.63,83.60,83.61,83.67,83.69,83.68,83.65,83.61,83.57,83.55,83.54,83.56,83.61,83.65,83.67,83.66,83.59,83.50,83.39,83.28,83.14,83.07,83.08,83.17,83.32,83.36,83.37,83.38,83.39,83.34,83.26,83.16,83.05,82.96,82.97,83.03,83.08,83.03,83.02,83.05,83.07,83.01,82.98,82.93,82.90,82.88,82.89,82.90,82.96,83.07,83.17,83.25,83.35,83.45,83.54,83.60,83.61,83.62,83.63,83.65,83.66,83.69,83.71,83.70,83.70,83.68,83.67,83.66,83.66,83.62,83.59,83.57,83.58,83.53,83.50,83.48,83.43,83.35,83.32,83.30,83.28,83.24
83.71,83.64,83.59,83.59,83.64,83.65,83.64,83.62,83.58,83.54,83.54,83.59,83.67,83.70,83.70,83.70,83.73,83.80,83.86,83.83,83.83,83.88,83.92,84.00,84.05,84.06,84.02,84.07,84.13,84.18,84.20,84.20,84.18,84.16,84.15,84.15,84.19,84.20,84.18,84.13,84.17,84.21,84.21,84.17,84.05,84.05,84.07,84.07,84.03,83.95,83.85,83.83,83.89,83.90,83.80,83.75,83.75,83.73,83.76,83.76,83.74,83.74,83.81,83.82,83.82,83.82,83.78,83.80,83.85,83.87,83.83,83.81,83.81,83.82,83.85,83.80,83.82,83.86,83.90,83.90,83.89,83.89,83.87,83.85,83.87,83.86,83.83,83.78,83.78,83.79,83.80,83.81,83.82,83.86,83.87,83.90,83.93,83.99,84.07,84.19,84.29,84.26,84.15,84.17,84.21,84.23,84.27,84.24,84.20,84.15,84.09,84.06,83.95,83.77,83.55,83.59,83.61,83.61,83.59,83.52,83.59,83.71,83.80,83.77,83.74,83.66,83.56,83.48,83.52,83.62,83.70,83.73,83.74,83.71,83.65,83.59,83.57,83.51,83.51,83.54,83.59,83.53,83.44,83.35,83.29,83.29,83.32,83.34,83.34,83.33,83.31,83.34,83.37,83.37,83.36,83.39,83.44,83.46,83.44,83.43,83.53,83.72,83.96,84.09,84.09,84.04,83.96,83.91,83.79,83.65,83.55,83.57,83.62,83.66,83.67,83.67,83.70,83.71,83.69,83.65,83.59,83.53,83.50,83.49,83.50,83.52,83.56,83.59,83.61,83.63,83.59,83.53,83.44,83.33,83.15,83.02,82.97,83.02,83.16,83.23,83.25,83.25,83.26,83.23,83.17,83.08,82.98,82.89,82.89,82.96,83.03,82.99,82.99,83.02,83.03,82.99,82.97,82.92,82.87,82.85,82.82,82.77,82.82,82.93,83.05,83.17,83.32,83.45,83.54,83.58,83.59,83.59,83.58,83.58,83.60,83.65,83.70,83.71,83.71,83.66,83.61,83.60,83.60,83.55,83.49,83.47,83.48,83.45,83.40,83.36,83.37,83.32,83.28,83.24,83.20,83.21
83.79,83.75,83.64,83.55,83.54,83.55,83.58,83.58,83.54,83.51,83.59,83.66,83.69,83.70,83.70,83.70,83.73,83.80,83.87,83.84,83.81,83.83,83.89,84.02,84.05,84.02,84.00,84.02,84.07,84.14,84.18,84.13,84.12,84.11,84.11,84.11,84.24,84.23,84.17,84.10,84.11,84.22,84.25,84.18,84.10,84.03,84.05,84.07,84.01,83.99,83.88,83.83,83.91,83.97,83.85,83.79,83.77,83.71,83.70,83.67,83.68,83.77,83.72,83.67,83.67,83.72,83.71,83.73,83.81,83.89,83.88,83.82,83.80,83.79,83.79,83.75,83.84,83.89,83.90,83.90,83.90,83.90,83.90,83.89,83.87,83.82,83.76,83.72,83.73,83.78,83.80,83.80,83.80,83.81,83.82,83.85,83.89,83.90,83.92,83.98,84.06,84.10,84.12,84.18,84.23,84.23,84.29,84.27,84.22,84.14,84.05,83.96,83.79,83.63,83.59,83.60,83.58,83.55,83.50,83.53,83.60,83.66,83.69,83.69,83.66,83.58,83.52,83.51,83.63,83.72,83.77,83.77,83.73,83.67,83.61,83.59,83.59,83.58,83.57,83.57,83.56,83.48,83.38,83.31,83.27,83.27,83.34,83.35,83.34,83.37,83.40,83.41,83.41,83.39,83.37,83.36,83.39,83.42,83.41,83.39,83.45,83.59,83.78,83.93,83.96,83.91,83.82,83.74,83.65,83.60,83.57,83.57,83.55,83.60,83.65,83.69,83.68,83.67,83.65,83.61,83.53,83.48,83.48,83.48,83.47,83.45,83.46,83.47,83.48,83.53,83.57,83.56,83.50,83.41,83.19,83.01,82.91,82.92,83.02,83.07,83.08,83.09,83.11,83.10,83.05,82.97,82.89,82.83,82.82,82.85,82.89,82.91,82.91,82.92,82.91,82.89,82.88,82.85,82.82,82.80,82.75,82.68,82.68,82.77,82.92,83.04,83.28,83.47,83.52,83.57,83.57,83.55,83.55,83.55,83.61,83.68,83.74,83.75,83.75,83.68,83.62,83.60,83.60,83.55,83.50,83.46,83.45,83.42,83.36,83.32,83.33,83.31,83.24,83.18,83.16,83.24
83.81,83.75,83.65,83.56,83.52,83.49,83.49,83.50,83.50,83.50,83.63,83.68,83.66,83.65,83.65,83.65,83.69,83.79,83.88,83.84,83.81,83.82,83.88,83.99,84.03,84.03,84.01,84.00,84.05,84.11,84.13,84.10,84.09,84.07,84.05,84.08,84.17,84.19,84.18,84.15,84.18,84.25,84.25,84.17,84.06,84.05,84.07,84.07,84.00,84.03,83.93,83.87,83.91,83.94,83.88,83.85,83.83,83.76,83.72,83.69,83.68,83.71,83.66,83.65,83.67,83.69,83.70,83.71,83.77,83.84,83.87,83.80,83.75,83.74,83.77,83.81,83.87,83.90,83.90,83.90,83.90,83.90,83.89,83.87,83.82,83.76,83.72,83.70,83.71,83.76,83.79,83.79,83.79,83.80,83.81,83.82,83.84,83.84,83.85,83.89,83.95,83.99,84.03,84.08,84.13,84.18,84.23,84.23,84.17,84.06,83.93,83.80,83.68,83.60,83.60,83.60,83.56,83.51,83.46,83.53,83.59,83.63,83.63,83.62,83.58,83.53,83.53,83.61,83.68,83.72,83.74,83.74,83.71,83.65,83.61,83.58,83.57,83.57,83.56,83.54,83.52,83.45,83.39,83.34,83.30,83.30,83.33,83.33,83.35,83.43,83.46,83.45,83.43,83.40,83.39,83.36,83.36,83.38,83.38,83.37,83.42,83.51,83.63,83.73,83.73,83.70,83.66,83.64,83.61,83.58,83.57,83.58,83.58,83.62,83.68,83.71,83.66,83.63,83.62,83.62,83.55,83.48,83.46,83.46,83.43,83.37,83.36,83.37,83.40,83.45,83.51,83.54,83.54,83.49,83.33,83.11,82.92,82.84,82.87,82.93,82.98,83.02,83.07,83.02,82.93,82.86,82.80,82.77,82.74,82.74,82.79,82.84,82.86,82.86,82.86,82.84,82.84,82.84,82.83,82.80,82.71,82.64,82.60,82.62,82.74,82.89,83.15,83.40,83.52,83.49,83.48,83.48,83.48,83.48,83.55,83.64,83.71,83.70,83.67,83.63,83.61,83.60,83.60,83.59,83.57,83.51,83.44,83.38,83.29,83.25,83.30,83.27,83.19,83.17,83.21,83.23
83.82,83.72,83.64,83.57,83.51,83.45,83.43,83.44,83.47,83.47,83.63,83.66,83.61,83.59,83.60,83.60,83.66,83.79,83.87,83.85,83.82,83.81,83.87,83.94,84.01,84.04,84.01,84.00,84.04,84.07,84.07,84.07,84.07,84.03,83.99,84.05,84.08,84.13,84.17,84.20,84.26,84.25,84.22,84.16,84.02,84.07,84.10,84.07,83.99,84.04,83.96,83.90,83.90,83.90,83.90,83.90,83.88,83.82,83.76,83.74,83.72,83.67,83.63,83.67,83.69,83.67,83.69,83.69,83.73,83.78,83.84,83.76,83.70,83.70,83.77,83.88,83.90,83.90,83.90,83.90,83.90,83.89,83.86,83.82,83.75,83.71,83.70,83.70,83.71,83.75,83.77,83.78,83.76,83.79,83.80,83.80,83.80,83.80,83.81,83.83,83.87,83.91,83.94,83.97,84.02,84.11,84.15,84.17,84.11,83.98,83.78,83.65,83.60,83.60,83.59,83.58,83.54,83.48,83.44,83.51,83.56,83.58,83.58,83.56,83.51,83.51,83.57,83.71,83.71,83.70,83.70,83.69,83.68,83.65,83.61,83.58,83.55,83.55,83.54,83.51,83.48,83.44,83.41,83.38,83.35,83.32,83.31,83.32,83.37,83.48,83.49,83.47,83.43,83.40,83.40,83.37,83.35,83.35,83.35,83.35,83.40,83.46,83.50,83.53,83.53,83.52,83.54,83.59,83.60,83.59,83.59,83.61,83.64,83.67,83.70,83.71,83.64,83.58,83.61,83.65,83.60,83.52,83.47,83.45,83.40,83.32,83.29,83.30,83.33,83.38,83.45,83.51,83.55,83.55,83.46,83.21,82.95,82.77,82.74,82.80,82.88,82.95,83.01,82.90,82.80,82.73,82.71,82.70,82.67,82.66,82.69,82.76,82.78,82.78,82.79,82.79,82.78,82.80,82.81,82.77,82.66,82.61,82.54,82.50,82.59,82.75,83.02,83.27,83.43,83.32,83.30,83.34,83.40,83.41,83.47,83.57,83.64,83.62,83.56,83.57,83.58,83.59,83.59,83.63,83.63,83.56,83.43,83.34,83.23,83.19,83.25,83.21,83.16,83.18,83.24,83.21
83.83,83.65,83.54,83.50,83.48,83.50,83.49,83.47,83.43,83.40,83.49,83.55,83.57,83.57,83.59,83.60,83.65,83.78,83.87,83.88,83.84,83.80,83.84,83.89,83.94,83.99,84.00,84.00,84.01,84.02,84.02,84.02,84.02,83.96,83.91,83.98,84.00,84.04,84.11,84.17,84.21,84.17,84.14,84.12,84.04,84.08,84.10,84.05,83.93,83.97,83.93,83.90,83.90,83.90,83.90,83.88,83.86,83.84,83.83,83.82,83.81,83.78,83.67,83.68,83.68,83.65,83.65,83.63,83.65,83.70,83.77,83.69,83.67,83.71,83.80,83.85,83.89,83.90,83.90,83.90,83.89,83.86,83.80,83.72,83.67,83.66,83.68,83.70,83.70,83.72,83.73,83.74,83.73,83.75,83.78,83.80,83.80,83.80,83.80,83.82,83.85,83.90,83.91,83.92,83.95,84.00,84.06,84.12,84.07,83.90,83.66,83.60,83.59,83.57,83.53,83.51,83.49,83.46,83.44,83.50,83.51,83.51,83.49,83.48,83.48,83.54,83.65,83.77,83.76,83.73,83.68,83.64,83.66,83.66,83.63,83.59,83.55,83.53,83.52,83.51,83.48,83.46,83.42,83.39,83.38,83.33,83.32,83.38,83.44,83.47,83.44,83.43,83.41,83.40,83.40,83.37,83.34,83.33,83.35,83.37,83.40,83.42,83.44,83.44,83.48,83.54,83.60,83.62,83.63,83.63,83.64,83.67,83.71,83.71,83.69,83.66,83.59,83.56,83.64,83.73,83.72,83.62,83.55,83.49,83.42,83.34,83.28,83.26,83.29,83.32,83.38,83.45,83.51,83.55,83.48,83.21,82.93,82.73,82.64,82.64,82.69,82.74,82.74,82.62,82.56,82.56,82.61,82.63,82.65,82.64,82.60,82.62,82.61,82.61,82.63,82.64,82.60,82.62,82.64,82.63,82.56,82.53,82.48,82.46,82.55,82.71,82.89,83.01,82.98,82.85,82.84,83.02,83.30,83.39,83.42,83.47,83.52,83.53,83.51,83.51,83.52,83.52,83.52,83.57,83.60,83.56,83.42,83.33,83.24,83.18,83.16,83.14,83.20,83.23,83.20,83.13
83.86,83.63,83.50,83.46,83.43,83.48,83.49,83.46,83.41,83.39,83.40,83.44,83.49,83.51,83.55,83.57,83.63,83.76,83.87,83.88,83.81,83.73,83.82,83.87,83.91,83.95,84.00,84.00,84.00,84.00,84.00,83.98,83.97,83.92,83.88,83.93,83.95,84.00,84.05,84.11,84.16,84.13,84.09,84.06,84.04,84.06,84.09,84.07,83.97,83.94,83.91,83.90,83.90,83.90,83.90,83.87,83.84,83.86,83.87,83.87,83.87,83.85,83.73,83.70,83.69,83.66,83.62,83.58,83.58,83.62,83.67,83.64,83.67,83.74,83.83,83.83,83.88,83.90,83.90,83.90,83.86,83.80,83.72,83.65,83.63,83.63,83.65,83.68,83.70,83.70,83.71,83.72,83.71,83.73,83.77,83.80,83.80,83.80,83.80,83.81,83.84,83.90,83.90,83.90,83.92,83.96,84.05,84.09,83.99,83.76,83.59,83.61,83.61,83.56,83.46,83.43,83.46,83.47,83.46,83.49,83.49,83.46,83.42,83.42,83.49,83.61,83.72,83.78,83.76,83.73,83.68,83.61,83.64,83.67,83.66,83.61,83.55,83.52,83.51,83.50,83.49,83.46,83.42,83.39,83.36,83.30,83.32,83.39,83.45,83.46,83.44,83.42,83.40,83.38,83.37,83.34,83.32,83.31,83.33,83.36,83.40,83.42,83.42,83.43,83.47,83.53,83.60,83.63,83.61,83.62,83.65,83.70,83.72,83.70,83.67,83.63,83.56,83.56,83.67,83.78,83.78,83.67,83.59,83.52,83.44,83.37,83.30,83.27,83.27,83.29,83.35,83.41,83.48,83.53,83.50,83.30,83.03,82.76,82.58,82.52,82.54,82.59,82.60,82.52,82.47,82.48,82.56,82.60,82.63,82.60,82.54,82.51,82.49,82.48,82.48,82.47,82.42,82.43,82.47,82.50,82.49,82.47,82.43,82.39,82.41,82.60,82.76,82.81,82.71,82.62,82.63,82.85,83.19,83.33,83.36,83.39,83.42,83.44,83.44,83.44,83.46,83.48,83.49,83.53,83.54,83.48,83.34,83.26,83.19,83.13,83.08,83.12,83.21,83.21,83.13,83.06
83.90,83.64,83.50,83.43,83.36,83.44,83.45,83.44,83.41,83.41,83.35,83.34,83.38,83.43,83.50,83.53,83.59,83.73,83.86,83.86,83.75,83.64,83.80,83.87,83.90,83.92,83.99,84.00,84.00,84.00,83.99,83.94,83.93,83.90,83.88,83.90,83.92,83.97,84.01,84.04,84.12,84.11,84.06,84.00,84.03,84.03,84.06,84.09,84.07,83.93,83.90,83.90,83.90,83.90,83.90,83.85,83.82,83.88,83.90,83.90,83.90,83.88,83.79,83.73,83.70,83.67,83.60,83.53,83.51,83.53,83.55,83.60,83.67,83.77,83.86,83.81,83.87,83.90,83.90,83.89,83.81,83.70,83.62,83.60,83.60,83.60,83.61,83.64,83.69,83.70,83.70,83.70,83.70,83.72,83.77,83.80,83.80,83.80,83.80,83.81,83.84,83.90,83.90,83.90,83.91,83.96,84.09,84.08,83.88,83.59,83.55,83.65,83.65,83.55,83.38,83.37,83.44,83.50,83.50,83.50,83.48,83.43,83.37,83.36,83.53,83.70,83.79,83.77,83.74,83.73,83.68,83.61,83.64,83.68,83.68,83.64,83.56,83.51,83.50,83.50,83.50,83.46,83.42,83.37,83.31,83.25,83.32,83.37,83.41,83.44,83.46,83.42,83.39,83.35,83.32,83.31,83.31,83.30,83.30,83.34,83.39,83.43,83.44,83.47,83.49,83.52,83.56,83.61,83.58,83.59,83.64,83.70,83.69,83.66,83.63,83.60,83.54,83.58,83.70,83.82,83.80,83.69,83.61,83.54,83.46,83.39,83.34,83.30,83.27,83.28,83.35,83.40,83.45,83.50,83.50,83.43,83.20,82.82,82.54,82.44,82.42,82.46,82.54,82.53,82.48,82.46,82.53,82.61,82.61,82.56,82.49,82.42,82.40,82.37,82.33,82.29,82.23,82.25,82.30,82.36,82.42,82.42,82.37,82.31,82.23,82.44,82.61,82.65,82.53,82.55,82.60,82.79,83.08,83.26,83.31,83.32,83.32,83.35,83.37,83.37,83.40,83.45,83.47,83.50,83.47,83.37,83.20,83.14,83.09,83.05,83.02,83.11,83.18,83.15,83.03,82.97
83.85,83.64,83.48,83.38,83.33,83.39,83.41,83.43,83.44,83.43,83.41,83.38,83.35,83.35,83.36,83.40,83.53,83.73,83.82,83.80,83.69,83.61,83.82,83.88,83.90,83.92,83.99,84.00,84.00,83.98,83.94,83.87,83.86,83.84,83.86,83.95,83.97,84.02,84.04,84.02,84.10,84.07,84.03,83.99,83.96,83.99,84.03,84.04,84.03,83.93,83.90,83.90,83.90,83.90,83.86,83.82,83.82,83.89,83.90,83.90,83.88,83.83,83.79,83.73,83.67,83.63,83.60,83.57,83.56,83.55,83.52,83.54,83.60,83.66,83.70,83.69,83.78,83.82,83.79,83.71,83.68,83.64,83.61,83.60,83.60,83.60,83.60,83.62,83.65,83.68,83.70,83.70,83.70,83.72,83.76,83.79,83.79,83.80,83.80,83.80,83.81,83.84,83.85,83.88,83.91,83.94,84.01,83.95,83.77,83.57,83.60,83.66,83.63,83.53,83.39,83.47,83.50,83.50,83.49,83.49,83.45,83.40,83.38,83.45,83.57,83.69,83.76,83.75,83.71,83.68,83.65,83.63,83.67,83.71,83.73,83.71,83.66,83.60,83.54,83.49,83.46,83.43,83.36,83.32,83.32,83.36,83.39,83.42,83.44,83.46,83.45,83.43,83.40,83.38,83.39,83.40,83.38,83.35,83.35,83.42,83.51,83.59,83.63,83.61,83.57,83.57,83.61,83.66,83.65,83.65,83.66,83.68,83.67,83.65,83.66,83.68,83.69,83.75,83.82,83.86,83.83,83.75,83.70,83.64,83.57,83.49,83.43,83.37,83.33,83.34,83.38,83.36,83.34,83.36,83.36,83.22,82.97,82.67,82.45,82.37,82.35,82.38,82.45,82.47,82.45,82.44,82.47,82.51,82.50,82.46,82.41,82.38,82.37,82.34,82.29,82.26,82.22,82.24,82.26,82.29,82.33,82.36,82.34,82.30,82.23,82.31,82.41,82.48,82.50,82.56,82.67,82.90,83.16,83.26,83.24,83.24,83.27,83.31,83.32,83.33,83.34,83.37,83.39,83.34,83.26,83.15,83.02,82.94,82.86,82.73,82.57,82.79,82.96,83.00,82.92,82.89
83.77,83.61,83.45,83.33,83.31,83.38,83.41,83.45,83.49,83.46,83.48,83.44,83.36,83.30,83.27,83.31,83.46,83.70,83.76,83.72,83.63,83.57,83.78,83.85,83.87,83.90,83.96,83.99,84.00,83.97,83.90,83.83,83.81,83.80,83.82,83.93,83.97,84.04,84.05,84.00,84.08,84.06,84.02,83.98,83.91,83.95,83.97,83.98,83.97,83.89,83.87,83.86,83.85,83.88,83.81,83.79,83.84,83.89,83.87,83.87,83.85,83.79,83.79,83.73,83.66,83.62,83.60,83.61,83.60,83.56,83.51,83.51,83.55,83.59,83.61,83.63,83.69,83.71,83.67,83.58,83.59,83.59,83.58,83.59,83.59,83.59,83.60,83.60,83.62,83.67,83.69,83.69,83.69,83.71,83.74,83.77,83.77,83.80,83.80,83.80,83.80,83.80,83.81,83.86,83.91,83.92,83.90,83.78,83.65,83.56,83.62,83.64,83.58,83.48,83.42,83.54,83.54,83.50,83.48,83.45,83.41,83.39,83.41,83.50,83.58,83.66,83.72,83.71,83.65,83.63,83.62,83.63,83.67,83.72,83.75,83.75,83.72,83.68,83.59,83.50,83.43,83.39,83.32,83.31,83.36,83.45,83.45,83.46,83.47,83.48,83.47,83.44,83.42,83.40,83.43,83.45,83.42,83.38,83.41,83.50,83.60,83.69,83.74,83.69,83.63,83.61,83.65,83.70,83.69,83.68,83.66,83.66,83.66,83.68,83.71,83.76,83.81,83.86,83.89,83.89,83.84,83.79,83.75,83.70,83.63,83.55,83.48,83.41,83.38,83.39,83.38,83.29,83.19,83.15,83.13,82.96,82.74,82.52,82.38,82.32,82.30,82.31,82.37,82.42,82.43,82.42,82.43,82.42,82.40,82.37,82.35,82.34,82.34,82.32,82.30,82.27,82.22,82.21,82.23,82.25,82.26,82.29,82.30,82.27,82.23,82.21,82.26,82.35,82.48,82.55,82.70,82.94,83.20,83.25,83.19,83.19,83.23,83.27,83.28,83.28,83.28,83.28,83.24,83.15,83.05,82.96,82.86,82.70,82.55,82.38,82.19,82.46,82.72,82.83,82.78,82.69
83.66,83.56,83.40,83.28,83.29,83.42,83.47,83.51,83.56,83.52,83.56,83.54,83.45,83.27,83.28,83.26,83.36,83.62,83.68,83.64,83.57,83.55,83.69,83.77,83.81,83.83,83.90,83.97,83.99,83.96,83.89,83.82,83.80,83.77,83.75,83.80,83.93,84.01,84.02,83.98,84.06,84.09,84.06,83.98,83.91,83.91,83.90,83.89,83.89,83.83,83.81,83.78,83.74,83.85,83.76,83.78,83.87,83.88,83.81,83.79,83.79,83.78,83.79,83.72,83.67,83.65,83.60,83.64,83.62,83.56,83.52,83.50,83.51,83.55,83.62,83.67,83.59,83.54,83.53,83.52,83.57,83.56,83.55,83.57,83.56,83.58,83.60,83.60,83.62,83.67,83.68,83.67,83.67,83.70,83.71,83.72,83.74,83.79,83.80,83.80,83.80,83.80,83.81,83.87,83.91,83.91,83.74,83.57,83.51,83.57,83.61,83.58,83.48,83.41,83.47,83.56,83.55,83.51,83.46,83.39,83.36,83.38,83.44,83.49,83.54,83.62,83.66,83.63,83.57,83.57,83.58,83.61,83.63,83.70,83.74,83.75,83.75,83.73,83.66,83.56,83.43,83.34,83.31,83.36,83.44,83.49,83.49,83.49,83.50,83.51,83.51,83.47,83.44,83.42,83.42,83.43,83.42,83.41,83.46,83.57,83.66,83.72,83.72,83.69,83.66,83.66,83.68,83.70,83.68,83.65,83.63,83.64,83.69,83.76,83.81,83.85,83.87,83.89,83.90,83.89,83.85,83.81,83.76,83.71,83.63,83.55,83.48,83.42,83.40,83.43,83.35,83.18,82.98,82.84,82.78,82.64,82.49,82.38,82.32,82.31,82.28,82.26,82.29,82.39,82.42,82.42,82.40,82.37,82.34,82.32,82.31,82.31,82.31,82.33,82.35,82.32,82.21,82.18,82.21,82.24,82.21,82.22,82.23,82.23,82.21,82.16,82.17,82.27,82.45,82.53,82.66,82.91,83.19,83.22,83.19,83.19,83.21,83.23,83.23,83.23,83.21,83.15,83.00,82.92,82.87,82.81,82.71,82.41,82.16,81.98,81.90,82.12,82.45,82.63,82.60,82.34
83.60,83.54,83.43,83.33,83.29,83.36,83.39,83.46,83.55,83.56,83.60,83.59,83.51,83.38,83.32,83.29,83.31,83.41,83.52,83.53,83.52,83.53,83.66,83.74,83.78,83.81,83.89,83.92,83.93,83.90,83.85,83.81,83.80,83.78,83.75,83.72,83.82,83.86,83.87,83.88,83.96,84.06,84.06,83.97,83.90,83.90,83.88,83.86,83.86,83.79,83.79,83.76,83.71,83.77,83.74,83.77,83.83,83.82,83.78,83.78,83.78,83.76,83.77,83.70,83.66,83.65,83.60,83.62,83.58,83.55,83.58,83.52,83.52,83.57,83.63,83.66,83.61,83.56,83.52,83.51,83.55,83.57,83.55,83.53,83.50,83.52,83.55,83.58,83.61,83.65,83.65,83.63,83.64,83.67,83.69,83.71,83.73,83.79,83.80,83.80,83.80,83.81,83.83,83.86,83.85,83.79,83.59,83.50,83.50,83.57,83.58,83.50,83.45,83.45,83.52,83.56,83.56,83.52,83.45,83.38,83.40,83.48,83.56,83.57,83.55,83.57,83.58,83.57,83.55,83.58,83.61,83.62,83.65,83.69,83.71,83.71,83.69,83.70,83.66,83.56,83.39,83.29,83.35,83.42,83.48,83.50,83.51,83.53,83.54,83.53,83.50,83.45,83.40,83.37,83.39,83.40,83.41,83.44,83.52,83.61,83.68,83.70,83.69,83.67,83.68,83.68,83.69,83.68,83.65,83.63,83.64,83.66,83.72,83.78,83.83,83.86,83.87,83.86,83.86,83.85,83.83,83.81,83.77,83.71,83.63,83.55,83.48,83.42,83.40,83.40,83.31,83.13,82.92,82.73,82.66,82.55,82.44,82.37,82.35,82.35,82.33,82.30,82.27,82.35,82.40,82.41,82.40,82.38,82.34,82.31,82.30,82.30,82.30,82.32,82.34,82.35,82.27,82.24,82.25,82.27,82.25,82.20,82.19,82.20,82.20,82.18,82.16,82.21,82.35,82.47,82.61,82.78,82.97,83.17,83.23,83.25,83.24,83.21,83.21,83.18,83.08,82.93,82.83,82.79,82.76,82.70,82.52,82.18,81.96,81.85,81.82,81.93,82.21,82.40,82.40,82.16
83.56,83.54,83.47,83.37,83.28,83.29,83.31,83.40,83.53,83.58,83.64,83.63,83.58,83.51,83.39,83.35,83.31,83.24,83.36,83.41,83.46,83.52,83.63,83.71,83.75,83.80,83.87,83.86,83.86,83.84,83.80,83.79,83.79,83.80,83.78,83.67,83.73,83.73,83.73,83.80,83.88,84.01,84.03,83.95,83.90,83.90,83.87,83.84,83.84,83.77,83.77,83.75,83.69,83.70,83.73,83.76,83.77,83.74,83.75,83.77,83.77,83.75,83.74,83.70,83.66,83.65,83.61,83.59,83.56,83.56,83.63,83.54,83.54,83.59,83.65,83.64,83.64,83.60,83.55,83.51,83.54,83.57,83.56,83.49,83.46,83.46,83.49,83.55,83.59,83.61,83.61,83.59,83.61,83.65,83.68,83.71,83.73,83.79,83.80,83.80,83.80,83.81,83.84,83.83,83.77,83.65,83.48,83.48,83.52,83.56,83.54,83.45,83.45,83.51,83.55,83.54,83.55,83.51,83.43,83.39,83.46,83.58,83.66,83.64,83.57,83.53,83.52,83.54,83.57,83.62,83.65,83.64,83.68,83.69,83.69,83.67,83.63,83.64,83.62,83.52,83.35,83.29,83.39,83.47,83.49,83.49,83.52,83.54,83.55,83.54,83.49,83.42,83.36,83.33,83.35,83.38,83.42,83.48,83.58,83.63,83.67,83.68,83.65,83.65,83.67,83.68,83.68,83.65,83.62,83.63,83.66,83.70,83.75,83.79,83.82,83.85,83.86,83.84,83.82,83.81,83.81,83.80,83.77,83.71,83.63,83.56,83.48,83.43,83.39,83.35,83.25,83.08,82.87,82.69,82.61,82.52,82.44,82.38,82.39,82.39,82.39,82.36,82.27,82.31,82.36,82.39,82.40,82.40,82.36,82.33,82.32,82.32,82.31,82.30,82.31,82.35,82.32,82.30,82.29,82.30,82.30,82.21,82.17,82.18,82.21,82.21,82.17,82.17,82.26,82.42,82.57,82.65,82.76,83.09,83.21,83.25,83.23,83.15,83.16,83.09,82.93,82.74,82.70,82.70,82.68,82.60,82.37,82.02,81.85,81.80,81.80,81.80,82.01,82.17,82.20,82.04
83.54,83.57,83.47,83.33,83.24,83.27,83.33,83.41,83.50,83.57,83.62,83.65,83.66,83.62,83.54,83.47,83.38,83.27,83.28,83.31,83.37,83.47,83.59,83.67,83.73,83.77,83.80,83.78,83.79,83.79,83.76,83.75,83.75,83.79,83.80,83.68,83.71,83.73,83.76,83.81,83.88,83.92,83.92,83.91,83.90,83.90,83.87,83.84,83.84,83.74,83.70,83.68,83.65,83.69,83.72,83.72,83.69,83.66,83.72,83.75,83.76,83.73,83.71,83.73,83.74,83.72,83.65,83.58,83.58,83.61,83.62,83.57,83.55,83.57,83.62,83.61,83.62,83.61,83.56,83.50,83.51,83.56,83.56,83.50,83.48,83.47,83.48,83.52,83.54,83.54,83.55,83.56,83.61,83.66,83.69,83.71,83.73,83.79,83.80,83.80,83.80,83.80,83.82,83.79,83.68,83.51,83.50,83.53,83.54,83.51,83.47,83.46,83.48,83.50,83.52,83.51,83.50,83.45,83.39,83.45,83.51,83.60,83.66,83.62,83.58,83.54,83.55,83.60,83.65,83.68,83.68,83.68,83.69,83.70,83.69,83.65,83.59,83.55,83.50,83.41,83.31,83.38,83.45,83.48,83.47,83.45,83.49,83.51,83.51,83.51,83.47,83.42,83.38,83.35,83.34,83.43,83.51,83.57,83.59,83.64,83.66,83.65,83.61,83.61,83.62,83.62,83.62,83.61,83.61,83.63,83.67,83.74,83.78,83.80,83.81,83.82,83.85,83.85,83.83,83.80,83.79,83.79,83.76,83.71,83.64,83.59,83.52,83.44,83.37,83.29,83.13,82.97,82.84,82.73,82.62,82.52,82.42,82.36,82.37,82.39,82.40,82.37,82.28,82.25,82.29,82.35,82.39,82.39,82.39,82.38,82.38,82.38,82.34,82.31,82.29,82.26,82.27,82.28,82.29,82.30,82.30,82.25,82.21,82.21,82.25,82.26,82.20,82.18,82.26,82.41,82.53,82.59,82.66,82.92,83.03,83.06,83.02,82.90,82.99,82.85,82.70,82.64,82.69,82.69,82.63,82.52,82.35,82.08,81.90,81.82,81.80,81.80,81.85,81.95,82.03,81.97
83.51,83.57,83.47,83.32,83.20,83.28,83.35,83.42,83.49,83.57,83.60,83.63,83.66,83.67,83.61,83.54,83.44,83.32,83.27,83.26,83.30,83.40,83.51,83.62,83.68,83.71,83.71,83.70,83.72,83.71,83.67,83.69,83.71,83.78,83.84,83.76,83.72,83.74,83.79,83.83,83.86,83.85,83.85,83.86,83.86,83.86,83.84,83.82,83.82,83.72,83.67,83.63,83.63,83.69,83.71,83.68,83.64,83.62,83.69,83.71,83.69,83.68,83.67,83.71,83.74,83.72,83.65,83.58,83.59,83.61,83.57,83.55,83.53,83.54,83.58,83.60,83.61,83.58,83.54,83.50,83.50,83.53,83.54,83.51,83.53,83.52,83.52,83.53,83.51,83.51,83.51,83.53,83.58,83.64,83.68,83.70,83.72,83.76,83.79,83.80,83.80,83.81,83.82,83.74,83.62,83.50,83.56,83.57,83.53,83.47,83.46,83.46,83.47,83.48,83.45,83.42,83.40,83.39,83.38,83.49,83.55,83.61,83.63,83.58,83.53,83.52,83.56,83.63,83.69,83.70,83.70,83.70,83.69,83.69,83.66,83.61,83.54,83.47,83.38,83.31,83.30,83.41,83.47,83.48,83.45,83.42,83.45,83.48,83.49,83.50,83.47,83.42,83.39,83.35,83.33,83.41,83.51,83.59,83.60,83.63,83.64,83.63,83.60,83.60,83.60,83.59,83.57,83.55,83.57,83.63,83.71,83.77,83.79,83.79,83.78,83.78,83.80,83.83,83.82,83.79,83.76,83.75,83.73,83.70,83.67,83.62,83.54,83.45,83.35,83.24,83.08,82.95,82.86,82.78,82.69,82.59,82.48,82.40,82.38,82.40,82.41,82.39,82.31,82.24,82.24,82.28,82.33,82.36,82.38,82.38,82.38,82.38,82.34,82.31,82.27,82.23,82.23,82.26,82.29,82.30,82.30,82.27,82.24,82.22,82.24,82.25,82.21,82.18,82.22,82.38,82.49,82.54,82.58,82.73,82.82,82.85,82.82,82.71,82.76,82.69,82.61,82.59,82.61,82.64,82.60,82.49,82.33,82.13,81.96,81.85,81.81,81.80,81.80,81.84,81.90,81.89
83.47,83.55,83.47,83.31,83.17,83.29,83.36,83.42,83.49,83.57,83.56,83.58,83.62,83.69,83.63,83.57,83.48,83.39,83.31,83.24,83.25,83.32,83.42,83.55,83.61,83.63,83.61,83.61,83.63,83.60,83.56,83.60,83.66,83.77,83.87,83.87,83.75,83.75,83.82,83.87,83.83,83.81,83.80,83.81,83.81,83.81,83.80,83.80,83.79,83.72,83.64,83.60,83.61,83.69,83.70,83.65,83.60,83.60,83.67,83.65,83.61,83.60,83.61,83.67,83.70,83.68,83.61,83.59,83.59,83.57,83.51,83.50,83.50,83.50,83.52,83.59,83.59,83.55,83.50,83.50,83.50,83.50,83.50,83.51,83.58,83.60,83.59,83.57,83.51,83.50,83.50,83.51,83.52,83.60,83.66,83.70,83.70,83.72,83.76,83.79,83.80,83.82,83.82,83.69,83.56,83.56,83.65,83.59,83.50,83.43,83.48,83.45,83.46,83.45,83.37,83.30,83.29,83.32,83.38,83.52,83.58,83.60,83.60,83.54,83.46,83.48,83.56,83.65,83.70,83.71,83.70,83.71,83.68,83.66,83.61,83.55,83.48,83.39,83.27,83.23,83.31,83.41,83.46,83.46,83.44,83.39,83.40,83.44,83.48,83.50,83.47,83.42,83.39,83.35,83.31,83.37,83.47,83.56,83.59,83.60,83.62,83.62,83.60,83.60,83.60,83.58,83.54,83.48,83.53,83.64,83.75,83.80,83.79,83.78,83.75,83.73,83.74,83.79,83.81,83.78,83.71,83.69,83.68,83.69,83.69,83.65,83.56,83.45,83.33,83.20,83.07,82.98,82.90,82.83,82.77,82.69,82.58,82.46,82.41,82.42,82.43,82.42,82.35,82.27,82.21,82.20,82.25,82.32,82.35,82.36,82.36,82.36,82.33,82.29,82.26,82.22,82.20,82.24,82.28,82.30,82.30,82.28,82.25,82.22,82.20,82.22,82.20,82.17,82.17,82.34,82.44,82.49,82.51,82.54,82.60,82.64,82.62,82.56,82.52,82.57,82.60,82.56,82.52,82.58,82.58,82.48,82.30,82.17,82.03,81.91,81.82,81.80,81.80,81.80,81.80,81.80
83.43,83.46,83.40,83.28,83.15,83.21,83.28,83.35,83.43,83.50,83.52,83.53,83.56,83.62,83.61,83.56,83.49,83.41,83.37,83.31,83.29,83.31,83.34,83.42,83.47,83.48,83.47,83.47,83.51,83.53,83.52,83.54,83.59,83.68,83.76,83.81,83.73,83.75,83.79,83.82,83.80,83.79,83.75,83.71,83.84,83.77,83.74,83.73,83.73,83.71,83.65,83.61,83.61,83.63,83.60,83.57,83.55,83.54,83.61,83.59,83.53,83.50,83.55,83.54,83.53,83.53,83.54,83.53,83.53,83.51,83.45,83.49,83.49,83.49,83.51,83.56,83.53,83.47,83.44,83.47,83.47,83.44,83.41,83.39,83.50,83.52,83.54,83.55,83.49,83.49,83.52,83.54,83.54,83.60,83.63,83.66,83.70,83.72,83.71,83.74,83.79,83.80,83.71,83.58,83.52,83.59,83.61,83.56,83.48,83.43,83.49,83.50,83.50,83.47,83.37,83.26,83.27,83.33,83.43,83.52,83.56,83.60,83.61,83.53,83.46,83.50,83.60,83.70,83.74,83.73,83.71,83.70,83.63,83.60,83.56,83.50,83.42,83.30,83.25,83.29,83.38,83.40,83.41,83.41,83.39,83.36,83.36,83.40,83.45,83.47,83.45,83.42,83.39,83.37,83.32,83.34,83.40,83.48,83.53,83.55,83.57,83.59,83.59,83.60,83.60,83.57,83.53,83.53,83.60,83.69,83.75,83.77,83.75,83.73,83.71,83.69,83.68,83.72,83.76,83.77,83.76,83.69,83.65,83.64,83.66,83.63,83.54,83.44,83.34,83.24,83.11,82.98,82.88,82.80,82.78,82.75,82.66,82.53,82.45,82.45,82.45,82.41,82.34,82.26,82.19,82.16,82.19,82.27,82.31,82.32,82.32,82.32,82.29,82.26,82.22,82.21,82.18,82.22,82.27,82.30,82.27,82.24,82.22,82.21,82.20,82.22,82.20,82.17,82.14,82.25,82.37,82.45,82.50,82.54,82.56,82.55,82.52,82.48,82.52,82.58,82.60,82.57,82.55,82.57,82.53,82.43,82.26,82.16,82.08,82.00,81.91,81.83,81.81,81.80,81.81,81.84
83.38,83.38,83.35,83.27,83.15,83.17,83.23,83.30,83.36,83.41,83.42,83.43,83.45,83.51,83.52,83.50,83.45,83.40,83.39,83.35,83.32,83.30,83.30,83.34,83.36,83.38,83.39,83.40,83.43,83.47,83.50,83.48,83.54,83.60,83.67,83.74,83.71,83.72,83.74,83.76,83.77,83.76,83.71,83.68,83.82,83.73,83.70,83.71,83.71,83.71,83.67,83.65,83.64,83.62,83.59,83.58,83.57,83.56,83.60,83.58,83.53,83.50,83.56,83.52,83.49,83.49,83.52,83.52,83.52,83.51,83.47,83.51,83.50,83.48,83.50,83.54,83.49,83.43,83.40,83.42,83.42,83.39,83.35,83.33,83.42,83.45,83.46,83.48,83.43,83.44,83.47,83.51,83.51,83.57,83.57,83.59,83.64,83.68,83.65,83.68,83.74,83.76,83.62,83.53,83.52,83.60,83.58,83.52,83.46,83.42,83.50,83.52,83.51,83.46,83.35,83.24,83.26,83.34,83.44,83.49,83.53,83.57,83.58,83.50,83.47,83.53,83.64,83.74,83.77,83.74,83.71,83.67,83.58,83.54,83.50,83.44,83.34,83.25,83.26,83.34,83.42,83.39,83.36,83.36,83.36,83.34,83.35,83.39,83.42,83.43,83.41,83.39,83.38,83.37,83.35,83.33,83.36,83.41,83.46,83.50,83.54,83.57,83.58,83.60,83.59,83.56,83.52,83.54,83.63,83.70,83.74,83.73,83.72,83.71,83.69,83.66,83.64,83.66,83.71,83.75,83.79,83.73,83.66,83.61,83.62,83.59,83.52,83.42,83.30,83.17,83.04,82.91,82.80,82.74,82.76,82.77,82.72,82.61,82.53,82.52,82.48,82.40,82.31,82.25,82.20,82.16,82.16,82.22,82.27,82.29,82.30,82.30,82.26,82.23,82.20,82.18,82.15,82.18,82.23,82.26,82.24,82.22,82.20,82.18,82.19,82.21,82.20,82.18,82.14,82.19,82.29,82.39,82.46,82.49,82.48,82.46,82.44,82.43,82.52,82.58,82.60,82.58,82.56,82.53,82.48,82.40,82.27,82.16,82.09,82.04,81.99,81.88,81.83,81.81,81.83,81.88
83.34,83.32,83.31,83.26,83.16,83.18,83.22,83.26,83.27,83.28,83.27,83.27,83.29,83.34,83.36,83.37,83.36,83.36,83.35,83.35,83.32,83.29,83.30,83.30,83.31,83.32,83.36,83.39,83.40,83.44,83.48,83.45,83.50,83.55,83.60,83.67,83.67,83.66,83.66,83.70,83.73,83.70,83.70,83.72,83.74,83.69,83.70,83.73,83.73,83.73,83.72,83.72,83.72,83.67,83.68,83.69,83.68,83.66,83.64,83.63,83.63,83.62,83.64,83.63,83.61,83.58,83.57,83.57,83.57,83.57,83.57,83.57,83.52,83.48,83.49,83.52,83.47,83.42,83.37,83.35,83.35,83.35,83.33,83.31,83.35,83.36,83.36,83.36,83.33,83.33,83.35,83.39,83.43,83.49,83.49,83.49,83.53,83.57,83.59,83.62,83.66,83.71,83.57,83.54,83.56,83.59,83.54,83.48,83.42,83.40,83.50,83.52,83.49,83.42,83.30,83.24,83.28,83.35,83.41,83.43,83.47,83.50,83.51,83.46,83.48,83.57,83.68,83.77,83.77,83.73,83.68,83.63,83.53,83.48,83.44,83.38,83.27,83.25,83.30,83.37,83.41,83.37,83.33,83.32,83.33,83.35,83.40,83.42,83.41,83.38,83.35,83.34,83.35,83.37,83.38,83.36,83.34,83.35,83.38,83.45,83.52,83.57,83.59,83.60,83.58,83.53,83.48,83.51,83.61,83.68,83.70,83.70,83.70,83.70,83.68,83.65,83.61,83.61,83.65,83.71,83.80,83.80,83.72,83.63,83.56,83.53,83.47,83.37,83.22,83.00,82.85,82.72,82.65,82.65,82.70,82.75,82.75,82.70,82.66,82.62,82.52,82.38,82.26,82.22,82.22,82.21,82.16,82.18,82.24,82.28,82.30,82.30,82.25,82.22,82.19,82.14,82.11,82.11,82.15,82.19,82.20,82.20,82.18,82.15,82.17,82.19,82.20,82.19,82.18,82.14,82.22,82.31,82.38,82.36,82.34,82.36,82.39,82.41,82.52,82.58,82.60,82.59,82.53,82.46,82.42,82.38,82.31,82.18,82.08,82.04,82.06,81.94,81.86,81.84,81.88,81.90
83.29,83.27,83.28,83.27,83.21,83.21,83.21,83.20,83.20,83.20,83.17,83.17,83.18,83.20,83.24,83.26,83.27,83.27,83.27,83.28,83.28,83.27,83.29,83.30,83.30,83.31,83.35,83.39,83.41,83.46,83.51,83.50,83.54,83.57,83.60,83.65,83.68,83.69,83.70,83.73,83.76,83.75,83.75,83.77,83.77,83.75,83.77,83.79,83.77,83.77,83.75,83.75,83.76,83.71,83.68,83.67,83.67,83.68,83.65,83.64,83.64,83.64,83.63,83.64,83.62,83.60,83.58,83.60,83.64,83.68,83.68,83.65,83.63,83.61,83.59,83.61,83.57,83.51,83.46,83.41,83.36,83.36,83.36,83.34,83.36,83.36,83.36,83.36,83.33,83.33,83.33,83.34,83.35,83.39,83.41,83.43,83.45,83.49,83.50,83.51,83.53,83.55,83.46,83.45,83.48,83.51,83.49,83.46,83.43,83.40,83.48,83.52,83.47,83.36,83.26,83.26,83.32,83.37,83.40,83.41,83.44,83.46,83.49,83.52,83.58,83.63,83.69,83.74,83.74,83.70,83.65,83.58,83.48,83.44,83.38,83.32,83.31,83.34,83.36,83.39,83.42,83.41,83.36,83.33,83.34,83.38,83.41,83.41,83.40,83.38,83.35,83.33,83.32,83.33,83.36,83.36,83.34,83.32,83.33,83.41,83.49,83.55,83.55,83.57,83.63,83.62,83.56,83.51,83.59,83.65,83.67,83.65,83.65,83.65,83.64,83.62,83.60,83.58,83.58,83.61,83.69,83.67,83.60,83.54,83.52,83.48,83.45,83.33,83.11,82.86,82.74,82.66,82.65,82.75,82.80,82.82,82.85,82.87,82.81,82.68,82.51,82.36,82.25,82.24,82.26,82.24,82.17,82.14,82.18,82.24,82.28,82.27,82.22,82.22,82.21,82.15,82.11,82.10,82.11,82.13,82.14,82.17,82.16,82.13,82.13,82.19,82.21,82.20,82.15,82.12,82.15,82.23,82.31,82.29,82.30,82.36,82.44,82.50,82.59,82.63,82.63,82.60,82.53,82.47,82.44,82.40,82.32,82.20,82.10,82.04,82.03,82.01,81.99,81.95,81.91,81.91
83.24,83.24,83.27,83.29,83.27,83.25,83.21,83.18,83.17,83.16,83.14,83.13,83.12,83.11,83.17,83.20,83.21,83.21,83.21,83.24,83.26,83.27,83.30,83.30,83.31,83.32,83.35,83.40,83.44,83.50,83.56,83.57,83.59,83.60,83.63,83.67,83.71,83.75,83.77,83.76,83.80,83.81,83.80,83.80,83.79,83.80,83.82,83.82,83.79,83.78,83.74,83.73,83.75,83.71,83.65,83.62,83.63,83.65,83.62,83.60,83.61,83.61,83.58,83.60,83.60,83.57,83.57,83.59,83.65,83.69,83.69,83.65,83.66,83.65,83.62,83.65,83.62,83.57,83.52,83.45,83.35,83.35,83.38,83.38,83.38,83.38,83.38,83.38,83.35,83.35,83.35,83.34,83.30,83.33,83.37,83.41,83.42,83.44,83.43,83.43,83.44,83.44,83.39,83.39,83.42,83.45,83.44,83.45,83.43,83.40,83.44,83.48,83.42,83.31,83.23,83.28,83.33,83.37,83.37,83.38,83.39,83.41,83.47,83.57,83.62,83.65,83.67,83.70,83.69,83.66,83.60,83.51,83.43,83.39,83.31,83.27,83.35,83.42,83.41,83.40,83.43,83.43,83.38,83.34,83.34,83.40,83.41,83.40,83.40,83.40,83.37,83.32,83.30,83.31,83.34,83.36,83.34,83.31,83.31,83.36,83.46,83.52,83.51,83.52,83.65,83.69,83.63,83.52,83.58,83.63,83.63,83.59,83.58,83.58,83.58,83.58,83.58,83.55,83.52,83.52,83.58,83.54,83.49,83.45,83.46,83.40,83.36,83.21,82.99,82.78,82.71,82.66,82.69,82.86,82.92,82.92,82.95,83.02,82.94,82.71,82.49,82.33,82.25,82.26,82.30,82.29,82.19,82.12,82.14,82.20,82.25,82.24,82.20,82.21,82.21,82.15,82.12,82.11,82.10,82.09,82.09,82.13,82.13,82.10,82.10,82.17,82.21,82.19,82.13,82.10,82.11,82.16,82.24,82.24,82.28,82.38,82.49,82.58,82.64,82.66,82.65,82.60,82.53,82.49,82.45,82.39,82.30,82.19,82.11,82.04,81.99,82.06,82.09,82.04,81.94,81.93
83.24,83.26,83.30,83.33,83.31,83.29,83.27,83.26,83.28,83.25,83.24,83.22,83.20,83.16,83.18,83.22,83.25,83.26,83.26,83.28,83.31,83.34,83.35,83.32,83.33,83.36,83.39,83.48,83.53,83.58,83.64,83.65,83.62,83.64,83.69,83.75,83.77,83.82,83.83,83.80,83.85,83.83,83.80,83.79,83.75,83.78,83.78,83.76,83.73,83.68,83.66,83.63,83.61,83.58,83.56,83.54,83.55,83.55,83.49,83.47,83.49,83.53,83.48,83.51,83.51,83.47,83.51,83.48,83.45,83.44,83.44,83.43,83.43,83.43,83.42,83.48,83.48,83.46,83.44,83.41,83.28,83.29,83.35,83.39,83.39,83.40,83.42,83.45,83.39,83.39,83.42,83.43,83.39,83.44,83.47,83.48,83.48,83.47,83.44,83.45,83.49,83.49,83.47,83.47,83.48,83.47,83.42,83.41,83.41,83.40,83.40,83.36,83.33,83.30,83.27,83.25,83.28,83.29,83.27,83.29,83.27,83.30,83.39,83.50,83.51,83.53,83.56,83.61,83.61,83.58,83.51,83.42,83.36,83.26,83.21,83.24,83.36,83.43,83.42,83.40,83.40,83.37,83.33,83.32,83.35,83.40,83.40,83.40,83.39,83.39,83.36,83.32,83.30,83.30,83.33,83.36,83.37,83.36,83.33,83.34,83.40,83.46,83.46,83.46,83.57,83.65,83.66,83.58,83.62,83.63,83.61,83.55,83.53,83.52,83.52,83.52,83.52,83.51,83.51,83.50,83.52,83.50,83.47,83.41,83.33,83.21,83.05,82.90,82.80,82.83,82.84,82.80,82.80,82.94,83.04,83.04,83.04,83.06,82.99,82.69,82.43,82.27,82.26,82.30,82.34,82.35,82.27,82.16,82.14,82.18,82.23,82.22,82.18,82.16,82.15,82.14,82.14,82.13,82.10,82.07,82.06,82.07,82.06,82.05,82.08,82.11,82.16,82.18,82.13,82.08,82.11,82.16,82.22,82.25,82.32,82.41,82.50,82.58,82.61,82.61,82.61,82.59,82.53,82.48,82.42,82.34,82.23,82.10,82.06,82.02,81.95,82.03,82.07,82.05,81.99,81.95
83.18,83.23,83.28,83.31,83.28,83.27,83.25,83.26,83.27,83.25,83.25,83.22,83.19,83.15,83.18,83.20,83.21,83.24,83.24,83.27,83.31,83.34,83.34,83.34,83.36,83.38,83.40,83.46,83.49,83.53,83.60,83.67,83.63,83.63,83.67,83.74,83.75,83.78,83.80,83.80,83.80,83.78,83.75,83.71,83.68,83.71,83.70,83.67,83.63,83.59,83.58,83.56,83.53,83.49,83.50,83.51,83.51,83.51,83.47,83.46,83.47,83.50,83.43,83.45,83.45,83.43,83.46,83.43,83.40,83.38,83.37,83.36,83.32,83.29,83.30,83.33,83.31,83.30,83.28,83.26,83.19,83.18,83.20,83.22,83.22,83.22,83.25,83.28,83.29,83.31,83.33,83.34,83.34,83.38,83.41,83.43,83.45,83.46,83.42,83.44,83.50,83.52,83.53,83.53,83.53,83.52,83.49,83.48,83.48,83.48,83.47,83.41,83.39,83.38,83.35,83.32,83.31,83.30,83.28,83.27,83.24,83.24,83.27,83.33,83.34,83.36,83.40,83.44,83.44,83.44,83.41,83.34,83.28,83.21,83.20,83.26,83.35,83.41,83.41,83.39,83.37,83.32,83.28,83.29,83.34,83.38,83.38,83.36,83.35,83.35,83.33,83.31,83.30,83.30,83.31,83.33,83.34,83.34,83.32,83.32,83.37,83.42,83.44,83.44,83.51,83.57,83.60,83.57,83.60,83.61,83.58,83.53,83.51,83.50,83.50,83.50,83.50,83.49,83.49,83.48,83.48,83.47,83.43,83.32,83.13,82.95,82.81,82.71,82.68,82.81,82.91,82.93,82.96,83.06,83.11,83.10,83.09,83.11,83.09,82.83,82.55,82.34,82.30,82.33,82.39,82.40,82.34,82.21,82.15,82.15,82.19,82.20,82.18,82.17,82.16,82.16,82.16,82.15,82.12,82.10,82.06,82.04,82.03,82.04,82.08,82.09,82.13,82.14,82.11,82.06,82.09,82.13,82.17,82.21,82.32,82.41,82.50,82.58,82.60,82.60,82.60,82.59,82.53,82.42,82.31,82.20,82.12,82.03,81.99,81.98,81.95,82.02,82.07,82.05,81.98,81.92
83.11,83.17,83.24,83.27,83.23,83.21,83.21,83.21,83.22,83.21,83.21,83.17,83.13,83.11,83.16,83.15,83.15,83.19,83.20,83.25,83.28,83.30,83.30,83.35,83.39,83.40,83.40,83.40,83.40,83.43,83.50,83.65,83.62,83.60,83.61,83.68,83.69,83.70,83.73,83.78,83.72,83.71,83.67,83.62,83.61,83.62,83.61,83.58,83.52,83.52,83.52,83.52,83.50,83.43,83.47,83.50,83.51,83.50,83.50,83.49,83.48,83.48,83.42,83.42,83.42,83.41,83.43,83.42,83.41,83.41,83.39,83.36,83.25,83.19,83.21,83.21,83.16,83.12,83.11,83.09,83.09,83.05,83.00,82.98,82.97,82.97,82.98,83.01,83.12,83.17,83.17,83.17,83.22,83.24,83.28,83.33,83.36,83.41,83.39,83.41,83.48,83.55,83.55,83.56,83.57,83.58,83.59,83.60,83.60,83.60,83.58,83.54,83.52,83.50,83.45,83.44,83.39,83.35,83.34,83.29,83.25,83.21,83.16,83.14,83.15,83.19,83.22,83.24,83.25,83.28,83.29,83.27,83.21,83.19,83.24,83.31,83.34,83.37,83.38,83.37,83.33,83.28,83.25,83.27,83.32,83.36,83.34,83.32,83.30,83.30,83.30,83.30,83.30,83.30,83.28,83.28,83.29,83.30,83.29,83.31,83.35,83.39,83.43,83.44,83.46,83.49,83.51,83.53,83.56,83.57,83.56,83.52,83.51,83.50,83.50,83.50,83.50,83.48,83.46,83.45,83.45,83.43,83.36,83.18,82.89,82.66,82.60,82.59,82.61,82.77,82.95,83.06,83.13,83.18,83.15,83.12,83.12,83.17,83.20,83.03,82.75,82.47,82.33,82.37,82.42,82.44,82.40,82.26,82.16,82.12,82.13,82.17,82.19,82.20,82.20,82.20,82.18,82.17,82.16,82.15,82.06,82.02,82.02,82.05,82.09,82.10,82.10,82.10,82.09,82.04,82.05,82.08,82.11,82.16,82.29,82.40,82.49,82.57,82.59,82.60,82.60,82.58,82.51,82.32,82.15,82.05,82.01,81.96,81.93,81.93,81.97,82.03,82.07,82.04,81.95,81.86
83.17,83.19,83.21,83.22,83.21,83.16,83.17,83.20,83.21,83.20,83.17,83.12,83.07,83.06,83.07,83.10,83.12,83.14,83.15,83.17,83.20,83.23,83.25,83.29,83.34,83.37,83.37,83.35,83.34,83.34,83.36,83.45,83.47,83.47,83.50,83.61,83.64,83.68,83.72,83.74,83.72,83.73,83.74,83.74,83.71,83.73,83.71,83.67,83.66,83.66,83.64,83.60,83.57,83.56,83.51,83.51,83.52,83.48,83.50,83.46,83.42,83.41,83.46,83.49,83.47,83.44,83.52,83.49,83.47,83.44,83.36,83.22,83.11,83.09,83.16,83.19,83.19,83.16,83.10,83.06,83.09,83.08,83.03,82.94,82.91,82.92,82.91,82.90,82.93,82.97,83.00,83.02,83.03,83.05,83.08,83.13,83.20,83.22,83.25,83.28,83.32,83.39,83.40,83.44,83.48,83.51,83.56,83.57,83.57,83.59,83.62,83.58,83.55,83.53,83.52,83.51,83.47,83.45,83.45,83.42,83.38,83.33,83.27,83.25,83.25,83.25,83.25,83.22,83.21,83.20,83.18,83.16,83.14,83.14,83.19,83.26,83.29,83.31,83.33,83.34,83.31,83.29,83.26,83.26,83.29,83.32,83.31,83.31,83.30,83.30,83.30,83.30,83.30,83.30,83.27,83.25,83.25,83.28,83.32,83.34,83.37,83.41,83.46,83.48,83.49,83.49,83.49,83.48,83.50,83.54,83.56,83.54,83.52,83.52,83.51,83.48,83.45,83.44,83.42,83.40,83.40,83.31,83.13,82.91,82.70,82.58,82.54,82.55,82.64,82.85,83.02,83.11,83.15,83.17,83.15,83.12,83.12,83.17,83.20,83.15,82.94,82.64,82.39,82.38,82.42,82.45,82.42,82.29,82.18,82.11,82.08,82.11,82.16,82.19,82.20,82.20,82.22,82.21,82.20,82.18,82.11,82.05,82.02,82.03,82.08,82.09,82.10,82.09,82.06,82.02,82.02,82.05,82.09,82.09,82.22,82.34,82.44,82.52,82.57,82.59,82.55,82.44,82.31,82.16,82.06,82.01,81.96,81.93,81.91,81.92,81.98,82.02,82.00,81.94,81.87,81.82
83.20,83.22,83.21,83.19,83.19,83.13,83.16,83.19,83.20,83.19,83.14,83.10,83.08,83.07,83.07,83.10,83.13,83.15,83.16,83.18,83.20,83.23,83.25,83.25,83.27,83.30,83.31,83.29,83.28,83.26,83.24,83.27,83.33,83.38,83.45,83.59,83.64,83.71,83.75,83.74,83.74,83.77,83.80,83.82,83.78,83.79,83.76,83.72,83.74,83.74,83.68,83.62,83.61,83.65,83.53,83.47,83.46,83.43,83.46,83.42,83.38,83.39,83.48,83.51,83.49,83.47,83.54,83.51,83.50,83.47,83.39,83.19,83.02,82.96,83.02,83.07,83.10,83.08,83.03,82.99,83.04,83.07,83.04,82.97,82.92,82.91,82.89,82.86,82.86,82.89,82.93,82.96,82.96,82.98,82.99,83.03,83.10,83.13,83.19,83.22,83.25,83.30,83.31,83.36,83.41,83.44,83.50,83.53,83.53,83.54,83.59,83.56,83.53,83.51,83.51,83.49,83.47,83.46,83.46,83.47,83.44,83.40,83.35,83.33,83.33,83.32,83.30,83.26,83.24,83.20,83.14,83.11,83.12,83.13,83.16,83.21,83.22,83.23,83.26,83.28,83.29,83.30,83.29,83.28,83.28,83.30,83.30,83.30,83.30,83.30,83.30,83.30,83.30,83.29,83.26,83.23,83.24,83.28,83.33,83.36,83.40,83.44,83.49,83.49,83.49,83.49,83.48,83.47,83.48,83.52,83.56,83.56,83.55,83.56,83.53,83.47,83.41,83.39,83.38,83.34,83.28,83.11,82.89,82.70,82.55,82.50,82.52,82.61,82.77,82.96,83.10,83.15,83.15,83.15,83.15,83.14,83.15,83.18,83.20,83.21,83.09,82.85,82.56,82.46,82.45,82.47,82.45,82.33,82.22,82.13,82.06,82.06,82.13,82.18,82.20,82.20,82.23,82.24,82.22,82.18,82.12,82.07,82.04,82.03,82.07,82.09,82.09,82.06,82.03,82.02,82.02,82.03,82.05,82.04,82.14,82.27,82.39,82.46,82.50,82.50,82.42,82.27,82.14,82.05,81.99,81.95,81.92,81.94,81.94,81.95,81.99,81.98,81.94,81.88,81.82,81.80
83.19,83.25,83.22,83.18,83.18,83.13,83.17,83.20,83.20,83.18,83.13,83.13,83.15,83.15,83.15,83.17,83.19,83.20,83.24,83.27,83.29,83.30,83.32,83.23,83.20,83.20,83.21,83.22,83.22,83.19,83.14,83.13,83.18,83.30,83.46,83.62,83.71,83.79,83.82,83.79,83.79,83.83,83.85,83.84,83.81,83.80,83.76,83.72,83.75,83.75,83.64,83.58,83.61,83.69,83.54,83.40,83.33,83.36,83.39,83.37,83.37,83.41,83.49,83.48,83.48,83.50,83.50,83.50,83.50,83.50,83.47,83.27,82.99,82.80,82.78,82.84,82.87,82.89,82.89,82.88,82.96,83.02,83.05,83.05,83.00,82.97,82.93,82.90,82.90,82.92,82.97,83.00,83.00,83.02,83.03,83.05,83.09,83.14,83.20,83.23,83.25,83.27,83.28,83.33,83.36,83.36,83.43,83.48,83.48,83.46,83.49,83.47,83.45,83.43,83.42,83.38,83.37,83.37,83.38,83.43,83.43,83.41,83.40,83.39,83.39,83.39,83.38,83.37,83.34,83.27,83.18,83.13,83.16,83.16,83.16,83.16,83.13,83.14,83.16,83.20,83.26,83.32,83.34,83.32,83.29,83.30,83.30,83.30,83.30,83.30,83.30,83.30,83.30,83.29,83.26,83.24,83.26,83.29,83.31,83.36,83.43,83.48,83.50,83.47,83.46,83.47,83.50,83.50,83.49,83.52,83.56,83.60,83.60,83.60,83.56,83.48,83.38,83.33,83.33,83.29,83.09,82.80,82.64,82.54,82.46,82.42,82.56,82.77,82.99,83.13,83.18,83.17,83.14,83.11,83.15,83.18,83.19,83.20,83.20,83.20,83.19,83.11,82.88,82.64,82.53,82.50,82.49,82.39,82.29,82.18,82.07,82.01,82.09,82.16,82.20,82.20,82.21,82.24,82.23,82.16,82.11,82.10,82.07,82.04,82.06,82.08,82.06,82.03,82.02,82.06,82.05,82.02,82.01,82.00,82.05,82.19,82.33,82.38,82.37,82.30,82.19,82.07,82.01,82.00,81.94,81.88,81.91,82.01,82.03,82.01,81.99,81.94,81.91,81.86,81.80,81.80
83.18,83.23,83.22,83.19,83.17,83.12,83.18,83.22,83.21,83.15,83.12,83.11,83.13,83.15,83.14,83.16,83.19,83.20,83.24,83.28,83.28,83.28,83.32,83.23,83.19,83.19,83.20,83.14,83.12,83.09,83.05,83.02,83.12,83.29,83.50,83.69,83.75,83.79,83.80,83.80,83.80,83.81,83.82,83.81,83.76,83.75,83.75,83.72,83.65,83.64,83.57,83.55,83.61,83.69,83.58,83.40,83.26,83.28,83.32,83.33,83.36,83.46,83.49,83.49,83.49,83.50,83.50,83.53,83.54,83.54,83.54,83.41,83.22,83.00,82.79,82.72,82.72,82.73,82.74,82.73,82.78,82.84,82.93,83.03,83.00,82.99,82.95,82.90,82.90,82.91,82.93,82.95,82.95,82.97,83.01,83.06,83.12,83.21,83.26,83.29,83.31,83.29,83.29,83.32,83.35,83.39,83.45,83.46,83.46,83.47,83.49,83.51,83.49,83.44,83.40,83.36,83.31,83.30,83.32,83.31,83.30,83.30,83.29,83.29,83.29,83.29,83.31,83.33,83.32,83.27,83.19,83.14,83.20,83.23,83.24,83.23,83.22,83.21,83.20,83.20,83.23,83.25,83.26,83.26,83.27,83.31,83.35,83.37,83.35,83.30,83.30,83.30,83.30,83.30,83.28,83.27,83.28,83.30,83.33,83.39,83.48,83.53,83.53,83.46,83.47,83.49,83.50,83.48,83.45,83.47,83.49,83.50,83.46,83.45,83.42,83.37,83.30,83.29,83.23,83.10,82.86,82.78,82.71,82.64,82.54,82.58,82.75,82.91,83.02,83.10,83.15,83.16,83.14,83.11,83.12,83.13,83.14,83.14,83.14,83.14,83.16,83.15,83.06,82.88,82.76,82.68,82.60,82.50,82.44,82.36,82.24,82.09,82.08,82.12,82.18,82.23,82.25,82.25,82.21,82.15,82.12,82.09,82.05,82.02,82.02,82.01,82.01,82.02,82.05,82.08,82.08,82.06,82.03,82.02,82.02,82.11,82.21,82.20,82.18,82.16,82.11,82.04,81.98,81.98,81.96,81.94,81.97,82.00,82.01,82.00,81.99,81.93,81.89,81.83,81.78,81.78
83.17,83.21,83.22,83.19,83.15,83.11,83.18,83.22,83.19,83.12,83.11,83.10,83.11,83.14,83.12,83.15,83.19,83.22,83.26,83.29,83.28,83.27,83.31,83.22,83.18,83.18,83.18,83.06,83.02,83.00,82.98,82.94,83.07,83.26,83.49,83.71,83.75,83.74,83.73,83.75,83.76,83.77,83.78,83.77,83.71,83.70,83.73,83.71,83.59,83.58,83.54,83.54,83.61,83.69,83.61,83.42,83.23,83.23,83.27,83.29,83.36,83.48,83.48,83.49,83.49,83.48,83.48,83.55,83.57,83.56,83.55,83.52,83.45,83.24,82.91,82.67,82.61,82.59,82.59,82.60,82.61,82.66,82.78,82.95,82.99,82.98,82.94,82.89,82.88,82.89,82.89,82.89,82.89,82.92,82.99,83.07,83.16,83.27,83.30,83.33,83.35,83.30,83.28,83.29,83.33,83.41,83.44,83.42,83.44,83.48,83.51,83.54,83.51,83.44,83.37,83.34,83.30,83.28,83.30,83.25,83.24,83.23,83.22,83.20,83.19,83.20,83.23,83.27,83.27,83.24,83.19,83.14,83.22,83.27,83.30,83.30,83.31,83.28,83.25,83.23,83.24,83.23,83.22,83.23,83.25,83.31,83.37,83.39,83.36,83.30,83.29,83.29,83.28,83.30,83.30,83.30,83.29,83.29,83.34,83.41,83.48,83.53,83.52,83.45,83.48,83.50,83.49,83.47,83.43,83.43,83.44,83.42,83.35,83.32,83.29,83.26,83.24,83.24,83.14,82.95,82.72,82.80,82.82,82.77,82.70,82.79,82.93,83.02,83.04,83.07,83.11,83.14,83.14,83.11,83.10,83.09,83.08,83.09,83.10,83.11,83.13,83.17,83.18,83.08,82.99,82.88,82.75,82.64,82.60,82.54,82.42,82.20,82.08,82.07,82.14,82.22,82.26,82.25,82.20,82.15,82.14,82.08,82.03,81.99,81.97,81.97,81.99,82.04,82.09,82.10,82.10,82.08,82.06,82.04,82.00,82.04,82.09,82.06,82.04,82.05,82.05,82.03,81.98,81.98,81.99,82.00,82.00,81.97,81.97,81.98,81.98,81.92,81.88,81.82,81.77,81.75
83.17,83.20,83.20,83.18,83.13,83.07,83.13,83.17,83.15,83.11,83.10,83.10,83.10,83.12,83.11,83.14,83.20,83.27,83.34,83.33,83.30,83.29,83.30,83.19,83.14,83.13,83.12,82.99,82.94,82.93,82.92,82.91,82.99,83.15,83.37,83.61,83.64,83.60,83.57,83.58,83.63,83.69,83.72,83.72,83.70,83.65,83.67,83.70,83.67,83.66,83.62,83.59,83.61,83.68,83.58,83.42,83.29,83.29,83.23,83.26,83.34,83.42,83.42,83.47,83.47,83.42,83.42,83.54,83.55,83.50,83.45,83.55,83.56,83.45,83.21,82.77,82.59,82.49,82.46,82.51,82.52,82.50,82.57,82.77,82.94,82.94,82.90,82.87,82.83,82.87,82.85,82.82,82.84,82.90,83.01,83.11,83.20,83.28,83.29,83.30,83.30,83.28,83.23,83.23,83.29,83.37,83.34,83.36,83.40,83.45,83.53,83.50,83.45,83.38,83.29,83.29,83.34,83.38,83.37,83.35,83.35,83.32,83.27,83.20,83.16,83.15,83.16,83.17,83.17,83.17,83.15,83.13,83.20,83.25,83.28,83.31,83.34,83.31,83.31,83.33,83.34,83.31,83.29,83.27,83.25,83.25,83.27,83.29,83.29,83.28,83.28,83.25,83.25,83.28,83.32,83.30,83.27,83.27,83.33,83.37,83.40,83.41,83.42,83.45,83.48,83.50,83.50,83.49,83.47,83.45,83.44,83.41,83.32,83.25,83.23,83.23,83.22,83.19,83.08,82.92,82.78,82.83,82.89,82.95,82.99,83.03,83.06,83.08,83.09,83.09,83.10,83.12,83.13,83.10,83.09,83.06,83.06,83.07,83.12,83.14,83.16,83.19,83.22,83.17,83.12,83.05,82.95,82.81,82.74,82.66,82.54,82.31,82.09,82.02,82.04,82.12,82.19,82.22,82.20,82.16,82.15,82.08,82.01,81.97,81.96,82.02,82.06,82.10,82.13,82.12,82.11,82.10,82.08,82.06,82.00,81.98,81.99,82.01,82.03,82.02,82.00,81.98,82.02,82.03,82.02,81.99,81.94,81.92,81.93,81.94,81.95,81.88,81.88,81.85,81.80,81.73
83.14,83.17,83.19,83.18,83.15,83.06,83.07,83.10,83.11,83.10,83.10,83.10,83.11,83.11,83.10,83.14,83.21,83.28,83.36,83.36,83.35,83.33,83.31,83.21,83.15,83.11,83.10,83.00,82.91,82.86,82.85,82.82,82.87,83.02,83.23,83.43,83.45,83.43,83.41,83.42,83.48,83.53,83.57,83.60,83.63,83.58,83.62,83.68,83.69,83.69,83.63,83.58,83.57,83.64,83.47,83.35,83.28,83.22,83.19,83.25,83.33,83.41,83.43,83.46,83.46,83.43,83.40,83.48,83.50,83.49,83.45,83.53,83.52,83.46,83.34,83.00,82.70,82.51,82.42,82.45,82.46,82.45,82.50,82.66,82.83,82.89,82.88,82.85,82.82,82.85,82.83,82.82,82.86,82.90,82.96,83.04,83.12,83.20,83.22,83.23,83.22,83.20,83.17,83.22,83.29,83.33,83.28,83.30,83.34,83.39,83.46,83.42,83.38,83.34,83.28,83.31,83.37,83.41,83.40,83.39,83.38,83.35,83.29,83.22,83.18,83.19,83.21,83.20,83.17,83.16,83.15,83.15,83.18,83.20,83.23,83.25,83.29,83.29,83.32,83.35,83.36,83.34,83.33,83.32,83.30,83.28,83.28,83.28,83.28,83.27,83.25,83.23,83.23,83.26,83.30,83.28,83.26,83.27,83.32,83.33,83.34,83.35,83.39,83.45,83.48,83.49,83.49,83.50,83.49,83.46,83.42,83.35,83.26,83.23,83.22,83.23,83.22,83.19,83.12,83.03,82.92,82.91,82.96,83.02,83.08,83.10,83.10,83.10,83.10,83.10,83.10,83.10,83.09,83.08,83.07,83.05,83.06,83.10,83.17,83.19,83.21,83.22,83.23,83.22,83.23,83.21,83.11,82.91,82.80,82.71,82.59,82.40,82.17,82.03,81.99,82.03,82.14,82.19,82.19,82.15,82.11,82.02,81.96,81.96,81.99,82.06,82.11,82.13,82.14,82.12,82.11,82.10,82.10,82.07,82.04,81.99,81.95,81.94,81.97,82.00,82.01,82.02,82.03,82.03,82.00,81.96,81.91,81.90,81.91,81.92,81.92,81.85,81.83,81.82,81.79,81.73
83.09,83.14,83.17,83.18,83.18,83.07,83.02,83.03,83.08,83.10,83.10,83.11,83.11,83.11,83.10,83.14,83.21,83.28,83.36,83.38,83.39,83.38,83.32,83.25,83.17,83.12,83.11,83.05,82.90,82.79,82.76,82.70,82.73,82.87,83.07,83.23,83.25,83.26,83.26,83.28,83.34,83.35,83.40,83.48,83.54,83.51,83.57,83.65,83.67,83.67,83.62,83.55,83.50,83.57,83.35,83.25,83.23,83.11,83.16,83.24,83.34,83.43,83.46,83.45,83.45,83.45,83.40,83.40,83.45,83.50,83.50,83.50,83.44,83.40,83.37,83.21,82.83,82.55,82.43,82.41,82.43,82.46,82.51,82.59,82.72,82.83,82.87,82.83,82.83,82.83,82.82,82.83,82.90,82.90,82.89,82.92,83.00,83.07,83.12,83.13,83.12,83.12,83.13,83.22,83.30,83.28,83.25,83.25,83.27,83.31,83.34,83.32,83.31,83.31,83.30,83.35,83.38,83.40,83.39,83.39,83.39,83.36,83.31,83.24,83.23,83.26,83.29,83.26,83.20,83.17,83.18,83.18,83.16,83.16,83.17,83.19,83.22,83.25,83.29,83.31,83.34,83.34,83.35,83.36,83.37,83.35,83.34,83.31,83.28,83.25,83.24,83.21,83.21,83.24,83.27,83.26,83.26,83.27,83.30,83.30,83.30,83.32,83.37,83.45,83.47,83.47,83.48,83.50,83.50,83.46,83.37,83.26,83.20,83.22,83.24,83.24,83.22,83.21,83.20,83.17,83.08,83.01,83.01,83.05,83.10,83.10,83.10,83.10,83.10,83.10,83.10,83.08,83.06,83.05,83.05,83.05,83.08,83.15,83.23,83.27,83.28,83.26,83.23,83.26,83.33,83.35,83.25,83.00,82.83,82.71,82.61,82.47,82.26,82.07,81.97,81.97,82.09,82.16,82.17,82.12,82.04,81.94,81.92,81.96,82.04,82.10,82.14,82.15,82.13,82.11,82.10,82.10,82.10,82.09,82.08,82.01,81.93,81.87,81.90,81.98,82.05,82.07,82.03,82.00,81.97,81.93,81.90,81.90,81.90,81.90,81.90,81.84,81.77,81.75,81.76,81.72
83.06,83.08,83.10,83.11,83.10,83.04,83.04,83.06,83.09,83.10,83.10,83.12,83.14,83.15,83.12,83.14,83.18,83.24,83.30,83.31,83.32,83.34,83.31,83.23,83.15,83.10,83.14,83.10,82.87,82.70,82.66,82.63,82.61,82.73,82.94,83.12,83.14,83.16,83.19,83.22,83.24,83.27,83.32,83.40,83.44,83.44,83.49,83.56,83.59,83.60,83.58,83.52,83.44,83.44,83.30,83.20,83.15,83.13,83.15,83.23,83.35,83.47,83.43,83.42,83.39,83.35,83.36,83.39,83.43,83.47,83.50,83.50,83.44,83.37,83.26,82.87,82.61,82.51,82.51,82.48,82.54,82.58,82.62,82.68,82.77,82.86,82.89,82.88,82.88,82.85,82.82,82.83,82.90,82.90,82.88,82.88,82.91,82.92,82.97,83.00,83.03,83.08,83.14,83.23,83.28,83.25,83.25,83.27,83.29,83.29,83.27,83.25,83.25,83.27,83.27,83.27,83.28,83.30,83.31,83.33,83.34,83.33,83.28,83.23,83.25,83.27,83.25,83.18,83.14,83.20,83.25,83.25,83.24,83.23,83.22,83.22,83.23,83.20,83.17,83.17,83.21,83.23,83.26,83.28,83.29,83.29,83.32,83.32,83.30,83.28,83.28,83.27,83.26,83.23,83.21,83.20,83.21,83.24,83.27,83.29,83.31,83.34,83.39,83.42,83.44,83.47,83.49,83.50,83.46,83.38,83.27,83.17,83.18,83.24,83.26,83.22,83.15,83.17,83.18,83.15,83.07,83.04,83.04,83.05,83.07,83.10,83.10,83.10,83.10,83.10,83.10,83.09,83.07,83.05,83.05,83.05,83.11,83.24,83.36,83.36,83.34,83.30,83.24,83.28,83.39,83.44,83.34,83.07,82.84,82.67,82.55,82.45,82.30,82.14,82.02,81.99,82.03,82.08,82.08,82.01,81.92,81.95,81.98,82.01,82.06,82.13,82.14,82.13,82.11,82.10,82.10,82.10,82.10,82.10,82.06,81.99,81.92,81.89,81.94,82.01,82.05,82.03,81.96,81.94,81.92,81.90,81.85,81.88,81.89,81.91,81.94,81.89,81.79,81.73,81.71,81.67
82.98,83.00,83.01,83.03,83.03,83.01,83.07,83.12,83.13,83.11,83.09,83.11,83.13,83.15,83.12,83.12,83.15,83.18,83.22,83.23,83.26,83.28,83.30,83.22,83.12,83.06,83.11,83.10,82.88,82.67,82.58,82.57,82.52,82.60,82.80,83.05,83.09,83.12,83.15,83.19,83.22,83.24,83.29,83.34,83.37,83.38,83.41,83.46,83.49,83.53,83.55,83.52,83.41,83.31,83.21,83.13,83.11,83.16,83.18,83.24,83.33,83.42,83.40,83.41,83.34,83.25,83.28,83.33,83.38,83.42,83.45,83.47,83.39,83.25,83.03,82.57,82.42,82.44,82.53,82.56,82.66,82.71,82.73,82.76,82.82,82.86,82.87,82.87,82.87,82.84,82.82,82.82,82.87,82.87,82.86,82.85,82.85,82.84,82.86,82.90,82.95,83.05,83.14,83.22,83.25,83.23,83.23,83.24,83.24,83.23,83.19,83.18,83.17,83.17,83.16,83.17,83.19,83.22,83.25,83.27,83.27,83.26,83.25,83.21,83.22,83.20,83.15,83.08,83.12,83.24,83.31,83.30,83.30,83.28,83.27,83.26,83.25,83.21,83.17,83.14,83.16,83.15,83.16,83.18,83.21,83.22,83.26,83.27,83.28,83.29,83.30,83.30,83.28,83.25,83.22,83.21,83.20,83.20,83.20,83.24,83.28,83.32,83.36,83.38,83.42,83.46,83.49,83.48,83.41,83.29,83.18,83.13,83.18,83.22,83.23,83.19,83.13,83.14,83.14,83.13,83.08,83.07,83.07,83.07,83.08,83.11,83.11,83.11,83.10,83.11,83.12,83.13,83.12,83.10,83.10,83.12,83.20,83.32,83.42,83.42,83.38,83.33,83.28,83.32,83.42,83.47,83.39,83.12,82.85,82.65,82.53,82.45,82.33,82.19,82.07,82.02,81.99,82.01,82.00,81.95,81.93,82.05,82.10,82.09,82.08,82.13,82.13,82.11,82.10,82.10,82.10,82.10,82.10,82.08,82.05,81.99,81.95,81.92,81.96,82.01,82.02,81.98,81.91,81.89,81.90,81.88,81.82,81.86,81.88,81.91,81.94,81.88,81.77,81.70,81.68,81.70
82.87,82.88,82.91,82.94,82.96,82.99,83.12,83.20,83.18,83.12,83.08,83.08,83.10,83.10,83.10,83.10,83.10,83.11,83.11,83.16,83.19,83.22,83.28,83.22,83.09,83.00,83.03,83.08,82.91,82.68,82.50,82.52,82.46,82.47,82.63,83.01,83.08,83.12,83.15,83.20,83.25,83.28,83.30,83.31,83.33,83.31,83.32,83.35,83.37,83.47,83.55,83.54,83.41,83.16,83.08,83.06,83.10,83.19,83.25,83.28,83.30,83.31,83.38,83.42,83.31,83.14,83.16,83.23,83.30,83.34,83.36,83.41,83.28,83.04,82.71,82.32,82.25,82.34,82.51,82.67,82.80,82.84,82.85,82.85,82.86,82.84,82.82,82.82,82.82,82.81,82.80,82.81,82.82,82.82,82.82,82.82,82.82,82.80,82.80,82.82,82.88,83.03,83.11,83.17,83.21,83.20,83.19,83.16,83.13,83.13,83.12,83.11,83.07,83.01,82.97,83.03,83.10,83.16,83.20,83.19,83.16,83.18,83.21,83.18,83.13,83.06,83.00,82.98,83.13,83.29,83.35,83.33,83.36,83.32,83.30,83.30,83.30,83.29,83.27,83.22,83.16,83.09,83.06,83.07,83.11,83.14,83.17,83.18,83.21,83.30,83.30,83.30,83.30,83.30,83.29,83.27,83.22,83.16,83.11,83.14,83.20,83.25,83.30,83.33,83.40,83.46,83.48,83.45,83.32,83.19,83.12,83.14,83.19,83.18,83.16,83.15,83.15,83.12,83.10,83.10,83.10,83.10,83.10,83.10,83.10,83.13,83.14,83.12,83.10,83.14,83.17,83.19,83.20,83.20,83.21,83.27,83.34,83.40,83.44,83.44,83.39,83.34,83.34,83.38,83.42,83.44,83.38,83.13,82.85,82.66,82.56,82.47,82.34,82.22,82.12,82.04,81.98,81.94,81.92,81.95,82.09,82.25,82.27,82.18,82.09,82.09,82.10,82.10,82.10,82.10,82.10,82.10,82.09,82.06,82.04,82.02,81.99,81.95,81.96,81.97,81.96,81.92,81.86,81.87,81.89,81.88,81.82,81.84,81.87,81.89,81.88,81.81,81.71,81.66,81.69,81.81
82.84,82.83,82.84,82.87,82.88,82.90,83.04,83.16,83.21,83.17,83.09,83.07,83.09,83.10,83.10,83.10,83.11,83.14,83.14,83.17,83.21,83.24,83.29,83.23,83.09,82.98,83.00,83.07,82.96,82.71,82.44,82.41,82.35,82.35,82.52,82.99,83.07,83.13,83.17,83.20,83.27,83.29,83.30,83.30,83.31,83.30,83.31,83.30,83.28,83.33,83.42,83.44,83.35,83.15,83.05,83.05,83.10,83.19,83.22,83.24,83.26,83.29,83.25,83.21,83.03,82.81,82.89,83.04,83.18,83.27,83.32,83.34,83.19,82.95,82.68,82.42,82.35,82.42,82.59,82.75,82.85,82.88,82.88,82.88,82.88,82.84,82.81,82.80,82.76,82.79,82.80,82.80,82.81,82.81,82.84,82.87,82.87,82.86,82.86,82.86,82.87,82.91,83.02,83.10,83.13,83.13,83.12,83.08,83.05,83.04,83.04,83.01,82.99,82.97,82.92,82.96,83.01,83.08,83.14,83.16,83.13,83.13,83.13,83.11,83.02,82.96,82.95,83.04,83.18,83.28,83.32,83.31,83.33,83.29,83.27,83.26,83.29,83.30,83.28,83.24,83.18,83.16,83.16,83.14,83.12,83.11,83.09,83.08,83.09,83.13,83.17,83.18,83.20,83.24,83.27,83.26,83.25,83.22,83.19,83.17,83.17,83.18,83.19,83.21,83.24,83.29,83.32,83.32,83.22,83.14,83.12,83.15,83.19,83.19,83.18,83.18,83.16,83.12,83.10,83.10,83.10,83.10,83.10,83.10,83.10,83.11,83.10,83.08,83.08,83.11,83.16,83.22,83.26,83.29,83.30,83.34,83.38,83.41,83.43,83.44,83.41,83.36,83.33,83.35,83.32,83.21,83.03,82.82,82.66,82.57,82.52,82.46,82.36,82.25,82.15,82.07,82.00,81.96,81.97,82.03,82.15,82.29,82.31,82.24,82.13,82.12,82.11,82.11,82.10,82.09,82.09,82.09,82.10,82.08,82.06,82.04,82.02,81.98,81.95,81.92,81.90,81.88,81.87,81.89,81.89,81.86,81.82,81.82,81.84,81.84,81.81,81.74,81.74,81.78,81.85,81.94
82.87,82.84,82.84,82.85,82.84,82.84,82.94,83.06,83.15,83.12,83.05,83.05,83.10,83.12,83.12,83.11,83.12,83.16,83.18,83.20,83.24,83.27,83.30,83.24,83.11,82.98,82.96,83.02,82.93,82.70,82.38,82.31,82.25,82.24,82.40,82.91,83.05,83.14,83.18,83.21,83.26,83.28,83.29,83.29,83.28,83.29,83.30,83.28,83.22,83.22,83.30,83.33,83.25,83.10,83.03,83.06,83.15,83.23,83.24,83.25,83.26,83.28,83.13,83.01,82.77,82.52,82.64,82.85,83.03,83.18,83.27,83.26,83.08,82.86,82.66,82.53,82.48,82.55,82.68,82.80,82.87,82.89,82.89,82.90,82.89,82.83,82.80,82.78,82.72,82.76,82.79,82.80,82.82,82.83,82.87,82.90,82.90,82.90,82.90,82.89,82.87,82.84,82.93,83.00,83.04,83.04,83.04,83.00,82.97,82.97,82.98,82.93,82.93,82.94,82.90,82.90,82.93,82.98,83.05,83.11,83.09,83.07,83.05,83.00,82.92,82.90,82.96,83.11,83.22,83.27,83.29,83.29,83.29,83.26,83.23,83.23,83.28,83.29,83.28,83.24,83.20,83.21,83.23,83.20,83.14,83.10,83.04,83.02,83.01,83.01,83.05,83.07,83.10,83.15,83.20,83.22,83.23,83.24,83.23,83.19,83.17,83.15,83.13,83.12,83.13,83.14,83.17,83.19,83.12,83.10,83.12,83.16,83.19,83.20,83.20,83.19,83.16,83.12,83.10,83.10,83.10,83.10,83.10,83.10,83.11,83.11,83.07,83.06,83.07,83.11,83.17,83.25,83.32,83.35,83.37,83.38,83.39,83.39,83.42,83.44,83.42,83.38,83.33,83.28,83.15,82.95,82.71,82.57,82.51,82.50,82.49,82.44,82.36,82.26,82.16,82.07,82.00,82.00,82.03,82.11,82.20,82.31,82.33,82.28,82.19,82.18,82.17,82.14,82.11,82.08,82.08,82.09,82.10,82.10,82.07,82.06,82.04,82.01,81.95,81.89,81.86,81.86,81.89,81.90,81.88,81.84,81.81,81.80,81.81,81.80,81.77,81.72,81.79,81.89,81.98,82.04
83.00,82.97,82.97,82.95,82.91,82.85,82.84,82.86,82.87,82.87,82.89,83.00,83.13,83.17,83.17,83.14,83.13,83.17,83.19,83.23,83.27,83.29,83.29,83.24,83.16,83.03,82.87,82.90,82.78,82.57,82.33,82.23,82.16,82.13,82.25,82.69,82.97,83.13,83.19,83.20,83.21,83.22,83.24,83.27,83.24,83.28,83.29,83.27,83.21,83.21,83.22,83.19,83.10,82.96,82.98,83.10,83.26,83.35,83.36,83.36,83.33,83.27,83.08,82.87,82.60,82.37,82.45,82.64,82.85,83.04,83.20,83.12,82.94,82.75,82.61,82.56,82.63,82.71,82.77,82.80,82.86,82.86,82.86,82.90,82.88,82.83,82.80,82.79,82.72,82.72,82.75,82.81,82.88,82.88,82.89,82.90,82.90,82.90,82.89,82.87,82.85,82.88,82.85,82.87,82.91,82.91,82.92,82.92,82.92,82.93,82.96,82.92,82.91,82.91,82.90,82.89,82.86,82.86,82.90,82.97,83.00,83.01,82.97,82.85,82.82,82.91,83.04,83.17,83.23,83.24,83.25,83.26,83.25,83.22,83.21,83.21,83.24,83.28,83.27,83.23,83.20,83.20,83.22,83.22,83.19,83.11,83.04,83.02,83.02,82.99,83.00,82.98,82.99,83.01,83.05,83.10,83.14,83.17,83.17,83.18,83.20,83.20,83.17,83.13,83.10,83.08,83.07,83.06,83.04,83.07,83.11,83.17,83.19,83.20,83.20,83.19,83.16,83.12,83.10,83.10,83.10,83.10,83.10,83.11,83.12,83.12,83.09,83.07,83.09,83.15,83.22,83.29,83.35,83.39,83.39,83.37,83.35,83.36,83.40,83.42,83.42,83.40,83.37,83.13,82.86,82.65,82.54,82.51,82.50,82.50,82.49,82.44,82.34,82.23,82.11,82.04,81.99,82.03,82.11,82.19,82.24,82.32,82.34,82.33,82.30,82.34,82.31,82.23,82.14,82.09,82.08,82.09,82.10,82.10,82.08,82.06,82.03,82.01,81.95,81.90,81.88,81.88,81.89,81.90,81.87,81.83,81.80,81.80,81.78,81.77,81.81,81.81,81.89,81.96,82.02,82.07
83.07,83.06,83.05,83.03,82.97,82.87,82.85,82.84,82.81,82.77,82.79,82.86,82.94,82.97,83.00,82.99,82.98,83.01,83.05,83.09,83.13,83.16,83.21,83.23,83.19,83.05,82.82,82.80,82.64,82.43,82.22,82.12,82.08,82.05,82.10,82.38,82.85,83.09,83.18,83.20,83.20,83.20,83.22,83.24,83.24,83.27,83.26,83.24,83.20,83.19,83.16,83.09,82.99,82.94,82.99,83.10,83.23,83.32,83.39,83.37,83.29,83.20,83.05,82.78,82.51,82.34,82.41,82.55,82.69,82.87,83.10,82.99,82.85,82.73,82.67,82.70,82.75,82.79,82.80,82.80,82.83,82.84,82.85,82.87,82.84,82.81,82.80,82.80,82.78,82.74,82.74,82.78,82.86,82.89,82.90,82.90,82.90,82.90,82.90,82.88,82.87,82.88,82.81,82.81,82.84,82.84,82.87,82.89,82.90,82.91,82.93,82.91,82.90,82.90,82.90,82.89,82.85,82.82,82.80,82.82,82.85,82.87,82.86,82.79,82.86,82.96,83.07,83.15,83.19,83.18,83.19,83.20,83.20,83.19,83.19,83.20,83.24,83.25,83.23,83.20,83.17,83.17,83.18,83.19,83.18,83.09,83.02,83.00,83.00,82.99,82.96,82.94,82.93,82.94,82.97,83.00,83.02,83.04,83.06,83.09,83.13,83.16,83.15,83.13,83.12,83.10,83.07,83.04,83.04,83.06,83.08,83.09,83.11,83.13,83.15,83.16,83.16,83.14,83.13,83.11,83.10,83.10,83.10,83.11,83.12,83.12,83.10,83.10,83.14,83.21,83.27,83.33,83.38,83.40,83.38,83.35,83.32,83.33,83.38,83.40,83.41,83.36,83.19,82.89,82.66,82.53,82.50,82.50,82.50,82.49,82.46,82.38,82.27,82.17,82.11,82.08,82.07,82.10,82.14,82.20,82.23,82.27,82.27,82.27,82.34,82.42,82.38,82.29,82.18,82.14,82.12,82.12,82.13,82.11,82.10,82.08,82.05,82.02,81.97,81.91,81.87,81.88,81.89,81.90,81.87,81.82,81.80,81.78,81.76,81.78,81.84,81.86,81.90,81.95,82.01,82.07
83.13,83.12,83.11,83.08,83.03,82.90,82.90,82.88,82.81,82.73,82.73,82.73,82.72,82.71,82.78,82.79,82.79,82.80,82.87,82.89,82.92,82.99,83.08,83.20,83.20,83.05,82.78,82.71,82.52,82.30,82.09,81.99,82.00,81.98,81.96,82.05,82.73,83.05,83.17,83.20,83.20,83.20,83.20,83.21,83.25,83.25,83.23,83.21,83.20,83.17,83.10,83.00,82.92,82.96,83.01,83.08,83.16,83.24,83.38,83.34,83.22,83.10,83.01,82.71,82.47,82.37,82.45,82.52,82.58,82.71,82.99,82.88,82.80,82.75,82.77,82.84,82.85,82.83,82.80,82.80,82.80,82.83,82.85,82.84,82.81,82.80,82.80,82.81,82.84,82.78,82.73,82.74,82.80,82.87,82.89,82.90,82.90,82.90,82.90,82.90,82.90,82.88,82.78,82.77,82.81,82.82,82.85,82.87,82.88,82.88,82.89,82.89,82.89,82.89,82.89,82.88,82.86,82.81,82.73,82.68,82.69,82.72,82.77,82.79,82.95,83.03,83.06,83.10,83.12,83.12,83.12,83.14,83.14,83.17,83.17,83.18,83.25,83.22,83.19,83.16,83.13,83.13,83.14,83.15,83.14,83.06,82.98,82.96,82.97,82.99,82.93,82.91,82.90,82.90,82.91,82.91,82.91,82.92,82.95,82.97,83.02,83.08,83.11,83.11,83.12,83.12,83.10,83.05,83.07,83.07,83.05,83.01,83.01,83.04,83.08,83.11,83.13,83.16,83.16,83.13,83.10,83.10,83.10,83.10,83.11,83.11,83.11,83.14,83.20,83.28,83.33,83.37,83.39,83.40,83.37,83.33,83.31,83.31,83.35,83.38,83.38,83.26,82.93,82.63,82.51,82.49,82.50,82.50,82.49,82.46,82.40,82.29,82.19,82.13,82.12,82.16,82.18,82.16,82.15,82.17,82.20,82.20,82.17,82.19,82.34,82.45,82.41,82.32,82.22,82.20,82.15,82.15,82.16,82.13,82.11,82.10,82.08,82.04,82.01,81.93,81.87,81.88,81.89,81.89,81.86,81.82,81.80,81.76,81.77,81.81,81.87,81.89,81.88,81.91,81.98,82.07
83.18,83.14,83.11,83.09,83.05,82.94,82.89,82.84,82.78,82.77,82.79,82.79,82.78,82.75,82.76,82.76,82.75,82.71,82.72,82.72,82.75,82.79,82.87,83.01,83.09,83.01,82.75,82.68,82.47,82.22,82.01,81.91,81.88,81.84,81.81,81.84,82.65,83.02,83.14,83.19,83.20,83.20,83.20,83.20,83.22,83.22,83.21,83.20,83.20,83.14,83.02,82.93,82.91,82.96,83.04,83.07,83.10,83.21,83.34,83.30,83.16,82.98,82.80,82.55,82.43,82.44,82.52,82.60,82.63,82.69,82.88,82.83,82.83,82.84,82.86,82.88,82.89,82.87,82.84,82.80,82.84,82.83,82.81,82.81,82.80,82.80,82.82,82.85,82.87,82.78,82.74,82.75,82.73,82.79,82.86,82.90,82.90,82.90,82.90,82.90,82.90,82.88,82.76,82.77,82.82,82.86,82.86,82.81,82.76,82.76,82.84,82.84,82.84,82.82,82.79,82.80,82.84,82.81,82.70,82.63,82.64,82.70,82.83,83.01,83.05,83.04,83.03,83.06,83.10,83.11,83.11,83.11,83.11,83.13,83.13,83.13,83.16,83.15,83.13,83.12,83.11,83.11,83.11,83.12,83.11,83.05,82.96,82.92,82.92,82.93,82.91,82.90,82.90,82.90,82.90,82.90,82.90,82.90,82.90,82.87,82.89,82.93,82.97,82.99,83.02,83.05,83.07,83.08,83.11,83.14,83.15,83.11,83.06,83.01,82.99,83.00,83.04,83.07,83.11,83.14,83.14,83.11,83.10,83.10,83.10,83.10,83.12,83.17,83.25,83.33,83.37,83.39,83.40,83.40,83.39,83.38,83.36,83.34,83.35,83.35,83.21,82.96,82.67,82.55,82.50,82.50,82.50,82.47,82.39,82.32,82.26,82.20,82.17,82.17,82.19,82.24,82.26,82.22,82.17,82.13,82.13,82.12,82.10,82.11,82.24,82.32,82.30,82.23,82.16,82.14,82.14,82.16,82.17,82.13,82.11,82.10,82.09,82.08,82.06,81.99,81.92,81.89,81.86,81.84,81.82,81.81,81.81,81.83,81.85,81.86,81.84,81.83,81.80,81.82,81.90,82.03
83.20,83.15,83.11,83.09,83.07,82.96,82.89,82.85,82.81,82.82,82.84,82.84,82.83,82.80,82.79,82.78,82.75,82.70,82.67,82.66,82.67,82.69,82.70,82.82,82.90,82.87,82.68,82.62,82.43,82.19,81.96,81.84,81.77,81.72,81.68,81.64,82.47,82.91,83.10,83.17,83.19,83.20,83.20,83.20,83.18,83.17,83.17,83.17,83.17,83.08,82.95,82.88,82.90,82.94,83.04,83.09,83.11,83.22,83.27,83.21,83.06,82.83,82.60,82.45,82.42,82.50,82.59,82.65,82.66,82.70,82.82,82.83,82.86,82.89,82.90,82.90,82.90,82.89,82.87,82.83,82.87,82.85,82.83,82.83,82.80,82.80,82.82,82.85,82.86,82.78,82.77,82.77,82.73,82.74,82.80,82.86,82.89,82.87,82.89,82.88,82.85,82.82,82.74,82.76,82.83,82.89,82.87,82.77,82.69,82.67,82.74,82.75,82.76,82.76,82.73,82.77,82.81,82.79,82.68,82.61,82.62,82.72,82.90,83.11,83.11,83.07,83.03,83.02,83.06,83.06,83.06,83.06,83.06,83.07,83.07,83.08,83.10,83.08,83.09,83.10,83.10,83.10,83.10,83.10,83.08,83.01,82.93,82.90,82.90,82.90,82.90,82.89,82.88,82.88,82.89,82.89,82.89,82.89,82.88,82.85,82.85,82.86,82.88,82.90,82.93,82.96,82.99,83.03,83.07,83.11,83.13,83.12,83.08,83.03,83.00,82.99,83.00,83.00,83.04,83.08,83.11,83.08,83.07,83.07,83.08,83.09,83.12,83.18,83.26,83.34,83.38,83.40,83.41,83.41,83.40,83.40,83.38,83.33,83.30,83.22,83.02,82.77,82.57,82.52,82.50,82.50,82.50,82.45,82.35,82.25,82.20,82.18,82.19,82.21,82.24,82.28,82.30,82.27,82.22,82.15,82.10,82.07,82.06,82.09,82.19,82.23,82.21,82.17,82.14,82.11,82.12,82.14,82.15,82.12,82.11,82.10,82.10,82.09,82.06,82.00,81.94,81.89,81.83,81.81,81.80,81.81,81.84,81.87,81.89,81.89,81.85,81.81,81.77,81.78,81.85,81.99
