85.73,85.72,85.74,85.79,85.80,85.83,85.85,85.83,85.77,85.77,85.77,85.73,85.62,85.54,85.56,85.60,85.59,85.52,85.51,85.52,85.52,85.52,85.50,85.50,85.50,85.51,85.55,85.54,85.51,85.49,85.47,85.42,85.41,85.43,85.35,85.44,85.48,85.46,85.44,85.45,85.44,85.42,85.41,85.41,85.45,85.47,85.46,85.41,85.41,85.46,85.50,85.51,85.57,85.54,85.51,85.47,85.39,85.41,85.51,85.59,85.59,85.57,85.49,85.48,85.54,85.43,85.34,85.31,85.33,85.39,85.38,85.43,85.43,85.35,85.29,85.28,85.29,85.30,85.31,85.20,85.11,85.01,84.83,84.65,84.45,84.33,84.30,84.28,84.22,84.19,84.17,84.14,84.21,84.37,84.55,84.69,84.70,84.70,84.69,84.65,84.50,84.15,83.86,83.64,83.49,83.50,83.52,83.53,83.50,83.40,83.23,83.14,83.12,83.10,83.13,83.18,83.22,83.24,83.21,83.23,83.28,83.34,83.40,83.47,83.51,83.54,83.58,83.55,83.57,83.59,83.62,83.67,83.71,83.76,83.81,83.84,83.89,83.90,83.89,83.87,83.83,83.80,83.77,83.74,83.70,83.64,83.57,83.52,83.49,83.48,83.50,83.56,83.63,83.63,83.57,83.50,83.46,83.46,83.56,83.61,83.61,83.57,83.56,83.45,83.35,83.30,83.28,83.24,83.20,83.16,83.13,83.11,83.10,83.09,83.09,83.13,83.19,83.21,83.20,83.17,83.19,83.22,83.24,83.26,83.31,83.37,83.53,83.80,84.14,84.35,84.50,84.58,84.63,84.65,84.70,84.91,85.33,86.02,87.04,88.13,89.14,89.98,90.66,91.16,91.47,91.58,91.56,91.56,91.57,91.59,91.60,91.59,91.57,91.55,91.54,91.52,91.53,91.53,91.52,91.50,91.60,91.69,91.76,91.78,91.76,91.76,91.75,91.73,91.61,91.60,91.66,91.76,91.75,91.69,91.63,91.61,91.65,91.73,91.73,91.55,91.23,91.08,91.02,90.99,90.96,90.85,90.85,90.84,90.82,90.80,90.76,90.76,90.76,90.74,90.77,90.73
85.71,85.74,85.78,85.80,85.80,85.81,85.83,85.86,85.82,85.76,85.72,85.69,85.62,85.54,85.56,85.59,85.59,85.52,85.51,85.50,85.50,85.50,85.50,85.50,85.50,85.49,85.44,85.46,85.46,85.41,85.35,85.32,85.32,85.34,85.38,85.41,85.41,85.43,85.48,85.49,85.48,85.45,85.40,85.40,85.40,85.41,85.41,85.40,85.40,85.46,85.50,85.51,85.58,85.59,85.55,85.46,85.32,85.42,85.49,85.53,85.58,85.51,85.48,85.49,85.51,85.48,85.37,85.31,85.33,85.37,85.32,85.35,85.35,85.28,85.22,85.19,85.11,84.99,84.89,84.82,84.83,84.84,84.80,84.75,84.58,84.42,84.31,84.27,84.22,84.20,84.20,84.19,84.20,84.29,84.46,84.68,84.71,84.71,84.69,84.66,84.58,84.41,84.07,83.71,83.47,83.46,83.42,83.40,83.39,83.36,83.29,83.21,83.15,83.11,83.14,83.18,83.20,83.21,83.22,83.25,83.29,83.32,83.36,83.46,83.51,83.55,83.60,83.58,83.56,83.56,83.58,83.62,83.69,83.76,83.81,83.83,83.88,83.90,83.87,83.82,83.74,83.71,83.69,83.68,83.63,83.57,83.52,83.48,83.46,83.44,83.44,83.45,83.47,83.45,83.40,83.33,83.27,83.29,83.33,83.34,83.33,83.31,83.32,83.32,83.31,83.29,83.26,83.22,83.20,83.19,83.17,83.13,83.10,83.07,83.06,83.10,83.14,83.16,83.15,83.13,83.15,83.18,83.20,83.21,83.28,83.34,83.48,83.72,84.02,84.22,84.37,84.48,84.54,84.58,84.73,85.03,85.47,86.00,86.89,87.88,88.86,89.69,90.43,91.01,91.38,91.53,91.52,91.55,91.58,91.60,91.60,91.58,91.54,91.52,91.51,91.50,91.52,91.53,91.52,91.49,91.58,91.67,91.73,91.74,91.72,91.70,91.68,91.67,91.57,91.54,91.59,91.67,91.66,91.63,91.59,91.56,91.55,91.66,91.73,91.62,91.30,91.08,90.98,90.94,90.93,90.88,90.87,90.87,90.85,90.80,90.74,90.73,90.72,90.71,90.73,90.71
85.70,85.73,85.77,85.75,85.75,85.75,85.77,85.82,85.79,85.74,85.71,85.70,85.66,85.59,85.58,85.59,85.58,85.49,85.46,85.46,85.47,85.44,85.46,85.45,85.42,85.39,85.34,85.36,85.38,85.37,85.36,85.34,85.33,85.36,85.39,85.38,85.39,85.43,85.49,85.49,85.46,85.42,85.39,85.40,85.36,85.36,85.38,85.39,85.38,85.44,85.49,85.50,85.54,85.55,85.52,85.44,85.31,85.36,85.44,85.51,85.53,85.46,85.44,85.46,85.50,85.47,85.38,85.33,85.33,85.33,85.28,85.31,85.31,85.25,85.20,85.13,85.03,84.90,84.78,84.77,84.78,84.80,84.79,84.75,84.61,84.44,84.30,84.22,84.19,84.19,84.20,84.19,84.17,84.27,84.47,84.71,84.73,84.71,84.68,84.65,84.61,84.57,84.28,83.87,83.47,83.41,83.37,83.35,83.34,83.34,83.30,83.25,83.19,83.14,83.17,83.19,83.19,83.18,83.21,83.23,83.26,83.29,83.34,83.42,83.47,83.51,83.55,83.55,83.53,83.51,83.51,83.54,83.63,83.72,83.79,83.85,83.89,83.89,83.85,83.79,83.71,83.67,83.67,83.68,83.63,83.57,83.53,83.49,83.46,83.43,83.40,83.39,83.39,83.36,83.33,83.28,83.23,83.23,83.25,83.25,83.23,83.21,83.22,83.25,83.26,83.24,83.20,83.17,83.17,83.16,83.15,83.13,83.09,83.05,83.03,83.07,83.11,83.13,83.12,83.11,83.13,83.14,83.16,83.18,83.24,83.26,83.36,83.55,83.86,84.09,84.25,84.36,84.45,84.51,84.71,85.04,85.51,86.02,86.86,87.82,88.79,89.60,90.28,90.84,91.24,91.44,91.48,91.54,91.58,91.60,91.57,91.54,91.52,91.50,91.50,91.50,91.51,91.52,91.50,91.47,91.53,91.61,91.69,91.69,91.67,91.67,91.65,91.60,91.48,91.47,91.53,91.61,91.62,91.61,91.57,91.52,91.48,91.62,91.70,91.64,91.40,91.12,90.96,90.91,90.94,90.90,90.89,90.87,90.84,90.80,90.73,90.71,90.71,90.70,90.71,90.70
85.69,85.72,85.74,85.69,85.69,85.70,85.71,85.74,85.74,85.71,85.71,85.71,85.69,85.63,85.60,85.59,85.56,85.45,85.41,85.41,85.41,85.37,85.40,85.39,85.34,85.30,85.26,85.27,85.31,85.35,85.42,85.38,85.36,85.39,85.39,85.35,85.36,85.42,85.48,85.47,85.42,85.39,85.37,85.40,85.33,85.32,85.34,85.35,85.35,85.40,85.46,85.49,85.49,85.48,85.46,85.42,85.30,85.30,85.40,85.49,85.49,85.42,85.40,85.43,85.48,85.44,85.38,85.35,85.33,85.30,85.26,85.27,85.27,85.23,85.19,85.09,84.97,84.87,84.77,84.79,84.79,84.79,84.77,84.72,84.59,84.44,84.29,84.17,84.15,84.17,84.19,84.17,84.14,84.27,84.50,84.73,84.73,84.70,84.66,84.63,84.63,84.67,84.47,84.06,83.54,83.40,83.35,83.33,83.32,83.34,83.31,83.27,83.22,83.17,83.19,83.19,83.18,83.16,83.20,83.21,83.24,83.27,83.31,83.37,83.42,83.46,83.49,83.51,83.49,83.46,83.44,83.47,83.57,83.67,83.77,83.87,83.89,83.88,83.83,83.76,83.69,83.65,83.66,83.68,83.65,83.58,83.54,83.50,83.46,83.41,83.37,83.34,83.33,83.29,83.28,83.25,83.21,83.18,83.20,83.20,83.18,83.17,83.17,83.20,83.20,83.18,83.14,83.13,83.13,83.13,83.13,83.11,83.07,83.03,83.01,83.04,83.08,83.10,83.10,83.10,83.11,83.11,83.13,83.16,83.19,83.19,83.24,83.39,83.71,83.96,84.14,84.26,84.37,84.44,84.64,84.99,85.48,86.01,86.81,87.75,88.71,89.52,90.13,90.66,91.07,91.34,91.45,91.52,91.56,91.58,91.54,91.50,91.49,91.49,91.50,91.50,91.50,91.49,91.48,91.44,91.47,91.55,91.64,91.64,91.62,91.64,91.63,91.55,91.41,91.41,91.48,91.57,91.60,91.60,91.56,91.49,91.43,91.58,91.66,91.64,91.49,91.18,90.96,90.91,90.95,90.92,90.90,90.86,90.82,90.79,90.74,90.71,90.70,90.70,90.70,90.70
85.67,85.70,85.70,85.64,85.65,85.68,85.68,85.66,85.64,85.65,85.67,85.67,85.66,85.60,85.57,85.54,85.49,85.45,85.42,85.38,85.33,85.29,85.32,85.32,85.31,85.30,85.24,85.28,85.35,85.39,85.46,85.42,85.38,85.36,85.36,85.30,85.32,85.38,85.45,85.42,85.41,85.39,85.37,85.40,85.33,85.27,85.24,85.27,85.31,85.35,85.40,85.45,85.45,85.41,85.40,85.38,85.26,85.29,85.36,85.42,85.45,85.41,85.40,85.42,85.43,85.37,85.33,85.32,85.32,85.30,85.25,85.24,85.24,85.22,85.15,85.05,84.96,84.87,84.77,84.79,84.77,84.72,84.68,84.60,84.47,84.36,84.27,84.17,84.13,84.13,84.14,84.14,84.14,84.30,84.48,84.62,84.65,84.64,84.63,84.62,84.64,84.71,84.59,84.30,83.90,83.54,83.41,83.35,83.33,83.37,83.35,83.31,83.25,83.18,83.16,83.17,83.16,83.14,83.20,83.25,83.27,83.29,83.30,83.34,83.38,83.42,83.43,83.47,83.49,83.47,83.42,83.46,83.57,83.67,83.76,83.85,83.89,83.87,83.80,83.70,83.64,83.62,83.63,83.65,83.64,83.54,83.48,83.44,83.42,83.36,83.29,83.25,83.25,83.23,83.23,83.20,83.14,83.09,83.13,83.13,83.14,83.15,83.15,83.14,83.14,83.16,83.15,83.12,83.11,83.11,83.11,83.10,83.07,83.03,83.00,83.01,83.05,83.08,83.10,83.10,83.10,83.10,83.11,83.12,83.13,83.18,83.26,83.39,83.60,83.83,84.03,84.18,84.28,84.33,84.48,84.79,85.26,85.81,86.51,87.39,88.36,89.25,89.89,90.43,90.89,91.25,91.42,91.46,91.48,91.50,91.50,91.46,91.44,91.44,91.47,91.49,91.46,91.43,91.42,91.41,91.45,91.52,91.59,91.62,91.62,91.62,91.61,91.58,91.46,91.39,91.42,91.53,91.59,91.59,91.53,91.45,91.40,91.52,91.59,91.58,91.49,91.27,91.11,91.00,90.94,90.91,90.89,90.87,90.84,90.76,90.77,90.74,90.71,90.70,90.69,90.68
85.65,85.67,85.66,85.62,85.62,85.66,85.66,85.61,85.58,85.58,85.58,85.58,85.57,85.52,85.49,85.47,85.44,85.44,85.43,85.40,85.33,85.30,85.31,85.33,85.33,85.30,85.24,85.28,85.34,85.38,85.45,85.41,85.36,85.33,85.33,85.27,85.27,85.32,85.36,85.37,85.39,85.39,85.38,85.40,85.31,85.22,85.17,85.20,85.25,85.28,85.33,85.40,85.42,85.39,85.37,85.34,85.20,85.25,85.31,85.36,85.40,85.42,85.39,85.37,85.37,85.29,85.27,85.29,85.31,85.27,85.23,85.22,85.20,85.17,85.09,85.00,84.90,84.81,84.75,84.73,84.68,84.61,84.55,84.47,84.36,84.28,84.24,84.18,84.12,84.11,84.12,84.11,84.13,84.26,84.39,84.48,84.56,84.64,84.66,84.64,84.66,84.72,84.68,84.53,84.25,83.75,83.47,83.35,83.34,83.35,83.34,83.31,83.26,83.19,83.16,83.15,83.16,83.16,83.21,83.26,83.29,83.30,83.30,83.32,83.37,83.42,83.45,83.48,83.52,83.50,83.44,83.49,83.58,83.66,83.72,83.76,83.81,83.79,83.72,83.63,83.58,83.56,83.57,83.60,83.60,83.52,83.48,83.45,83.42,83.37,83.30,83.25,83.24,83.24,83.25,83.24,83.20,83.14,83.15,83.14,83.13,83.15,83.14,83.13,83.12,83.13,83.13,83.12,83.12,83.11,83.10,83.10,83.07,83.03,83.00,83.00,83.02,83.05,83.07,83.08,83.09,83.10,83.11,83.13,83.15,83.18,83.24,83.34,83.53,83.76,83.96,84.10,84.19,84.19,84.30,84.55,84.99,85.57,86.25,87.07,87.98,88.87,89.55,90.15,90.67,91.11,91.35,91.43,91.46,91.48,91.47,91.43,91.41,91.41,91.45,91.46,91.42,91.39,91.38,91.39,91.41,91.46,91.53,91.60,91.65,91.65,91.62,91.59,91.48,91.38,91.38,91.47,91.57,91.57,91.50,91.41,91.38,91.47,91.53,91.54,91.49,91.28,91.12,91.00,90.92,90.89,90.86,90.85,90.83,90.77,90.79,90.76,90.72,90.70,90.66,90.65
85.65,85.64,85.62,85.61,85.60,85.65,85.65,85.58,85.54,85.49,85.46,85.44,85.45,85.40,85.37,85.37,85.39,85.42,85.45,85.44,85.38,85.35,85.36,85.38,85.38,85.31,85.25,85.28,85.31,85.33,85.40,85.36,85.32,85.30,85.30,85.25,85.22,85.23,85.24,85.31,85.37,85.40,85.40,85.40,85.28,85.17,85.11,85.12,85.20,85.22,85.25,85.33,85.39,85.40,85.37,85.28,85.13,85.19,85.26,85.31,85.33,85.45,85.38,85.31,85.29,85.22,85.22,85.26,85.28,85.21,85.20,85.19,85.16,85.09,85.01,84.93,84.82,84.72,84.70,84.63,84.55,84.47,84.39,84.32,84.25,84.21,84.21,84.19,84.13,84.10,84.10,84.10,84.12,84.17,84.25,84.33,84.45,84.67,84.75,84.70,84.70,84.71,84.76,84.75,84.59,83.99,83.54,83.34,83.37,83.31,83.30,83.29,83.25,83.20,83.18,83.15,83.15,83.20,83.23,83.27,83.30,83.30,83.31,83.32,83.38,83.45,83.50,83.52,83.55,83.54,83.51,83.54,83.60,83.65,83.66,83.64,83.69,83.68,83.63,83.55,83.51,83.49,83.50,83.52,83.55,83.53,83.53,83.52,83.45,83.40,83.37,83.33,83.29,83.28,83.31,83.34,83.34,83.29,83.23,83.18,83.15,83.14,83.13,83.14,83.12,83.10,83.10,83.13,83.14,83.13,83.10,83.10,83.07,83.03,83.00,83.00,83.00,83.00,83.02,83.06,83.08,83.10,83.12,83.17,83.24,83.21,83.20,83.26,83.50,83.73,83.91,84.03,84.08,84.05,84.09,84.28,84.67,85.30,86.00,86.77,87.58,88.40,89.15,89.82,90.42,90.95,91.25,91.40,91.48,91.49,91.44,91.41,91.40,91.40,91.42,91.41,91.38,91.36,91.36,91.39,91.36,91.38,91.46,91.59,91.70,91.70,91.65,91.60,91.50,91.40,91.35,91.40,91.54,91.53,91.46,91.38,91.35,91.41,91.48,91.52,91.48,91.24,91.04,90.93,90.89,90.87,90.83,90.80,90.80,90.80,90.80,90.78,90.74,90.70,90.63,90.61
85.64,85.62,85.61,85.60,85.57,85.57,85.57,85.53,85.48,85.44,85.40,85.36,85.36,85.30,85.32,85.37,85.40,85.45,85.48,85.48,85.46,85.45,85.45,85.43,85.40,85.36,85.25,85.23,85.26,85.31,85.34,85.32,85.31,85.30,85.30,85.24,85.21,85.19,85.16,85.22,85.29,85.33,85.33,85.33,85.25,85.19,85.15,85.11,85.18,85.20,85.22,85.26,85.37,85.39,85.33,85.22,85.11,85.13,85.19,85.25,85.30,85.35,85.32,85.28,85.23,85.20,85.16,85.21,85.26,85.20,85.16,85.14,85.12,85.08,85.01,84.89,84.77,84.67,84.58,84.54,84.48,84.43,84.39,84.31,84.25,84.24,84.25,84.20,84.17,84.14,84.11,84.10,84.10,84.12,84.17,84.24,84.33,84.53,84.68,84.75,84.74,84.72,84.72,84.70,84.55,84.03,83.55,83.31,83.30,83.24,83.23,83.22,83.21,83.20,83.15,83.15,83.18,83.23,83.28,83.30,83.33,83.34,83.35,83.37,83.42,83.47,83.50,83.51,83.51,83.51,83.51,83.55,83.59,83.64,83.68,83.70,83.74,83.69,83.60,83.52,83.48,83.45,83.45,83.47,83.49,83.46,83.44,83.43,83.40,83.38,83.34,83.30,83.27,83.23,83.26,83.29,83.29,83.25,83.21,83.16,83.12,83.10,83.10,83.13,83.13,83.11,83.10,83.12,83.13,83.12,83.10,83.10,83.07,83.03,83.00,83.00,83.01,83.04,83.07,83.10,83.08,83.10,83.14,83.19,83.23,83.21,83.21,83.27,83.47,83.68,83.84,83.92,83.93,83.94,83.96,84.08,84.32,84.73,85.42,86.28,87.19,88.01,88.76,89.49,90.19,90.81,91.18,91.36,91.45,91.48,91.44,91.41,91.40,91.41,91.43,91.47,91.49,91.49,91.48,91.43,91.36,91.35,91.41,91.53,91.62,91.65,91.63,91.58,91.54,91.43,91.34,91.33,91.40,91.40,91.37,91.33,91.34,91.37,91.44,91.51,91.50,91.23,91.00,90.88,90.85,90.83,90.81,90.80,90.79,90.77,90.76,90.77,90.76,90.70,90.59,90.59
85.63,85.60,85.57,85.55,85.51,85.49,85.48,85.46,85.41,85.41,85.39,85.35,85.33,85.28,85.32,85.37,85.40,85.46,85.50,85.52,85.52,85.50,85.50,85.46,85.41,85.39,85.27,85.22,85.23,85.29,85.29,85.29,85.29,85.28,85.27,85.22,85.19,85.16,85.11,85.17,85.23,85.26,85.25,85.24,85.19,85.17,85.16,85.10,85.15,85.17,85.18,85.21,85.31,85.35,85.29,85.18,85.11,85.10,85.13,85.18,85.23,85.25,85.25,85.23,85.19,85.17,85.10,85.14,85.21,85.19,85.15,85.13,85.11,85.08,85.02,84.88,84.75,84.65,84.51,84.47,84.44,84.42,84.38,84.31,84.27,84.26,84.28,84.21,84.20,84.17,84.12,84.09,84.06,84.06,84.07,84.12,84.18,84.37,84.60,84.77,84.76,84.71,84.70,84.66,84.54,84.11,83.60,83.31,83.27,83.21,83.19,83.18,83.19,83.21,83.14,83.15,83.19,83.24,83.30,83.31,83.32,83.35,83.34,83.37,83.42,83.46,83.49,83.49,83.48,83.48,83.49,83.54,83.57,83.62,83.67,83.72,83.75,83.68,83.58,83.49,83.46,83.42,83.41,83.44,83.45,83.41,83.39,83.39,83.38,83.36,83.32,83.28,83.24,83.20,83.21,83.23,83.24,83.21,83.18,83.15,83.11,83.08,83.09,83.13,83.14,83.13,83.11,83.13,83.13,83.12,83.10,83.09,83.06,83.03,83.00,82.99,83.00,83.04,83.09,83.09,83.07,83.10,83.14,83.18,83.21,83.21,83.21,83.26,83.43,83.64,83.78,83.84,83.84,83.87,83.89,83.94,84.06,84.29,84.91,85.80,86.79,87.64,88.42,89.20,89.97,90.69,91.12,91.33,91.43,91.47,91.44,91.41,91.41,91.42,91.44,91.50,91.53,91.54,91.52,91.44,91.34,91.30,91.36,91.48,91.56,91.59,91.58,91.53,91.51,91.41,91.32,91.29,91.33,91.33,91.33,91.33,91.35,91.32,91.41,91.50,91.53,91.28,90.96,90.80,90.79,90.80,90.80,90.80,90.78,90.74,90.73,90.75,90.75,90.69,90.58,90.59
85.63,85.57,85.50,85.44,85.42,85.41,85.39,85.35,85.33,85.41,85.44,85.41,85.39,85.38,85.37,85.37,85.39,85.46,85.53,85.57,85.56,85.51,85.50,85.46,85.40,85.38,85.30,85.24,85.23,85.27,85.28,85.28,85.26,85.22,85.21,85.20,85.17,85.12,85.09,85.16,85.20,85.19,85.14,85.12,85.11,85.11,85.11,85.10,85.11,85.11,85.13,85.18,85.19,85.25,85.25,85.19,85.13,85.09,85.08,85.09,85.10,85.17,85.16,85.15,85.16,85.11,85.04,85.05,85.11,85.17,85.19,85.17,85.14,85.09,85.05,84.90,84.78,84.68,84.52,84.42,84.43,84.46,84.39,84.31,84.29,84.29,84.28,84.22,84.23,84.21,84.15,84.06,84.01,83.99,83.97,83.98,83.99,84.18,84.47,84.74,84.74,84.71,84.69,84.65,84.55,84.26,83.70,83.34,83.28,83.24,83.20,83.18,83.18,83.22,83.14,83.14,83.18,83.23,83.28,83.28,83.28,83.29,83.27,83.31,83.36,83.41,83.46,83.46,83.44,83.43,83.43,83.47,83.52,83.57,83.63,83.69,83.71,83.66,83.57,83.48,83.44,83.41,83.41,83.42,83.43,83.41,83.39,83.38,83.38,83.36,83.31,83.26,83.22,83.19,83.17,83.17,83.17,83.17,83.16,83.13,83.10,83.10,83.11,83.14,83.16,83.15,83.13,83.16,83.16,83.13,83.10,83.08,83.04,83.02,83.00,82.98,82.98,83.02,83.05,83.02,83.03,83.08,83.13,83.14,83.17,83.19,83.20,83.24,83.38,83.59,83.73,83.81,83.81,83.85,83.88,83.91,83.93,84.01,84.52,85.36,86.38,87.30,88.15,88.98,89.80,90.57,91.07,91.29,91.40,91.46,91.44,91.41,91.42,91.45,91.47,91.47,91.47,91.47,91.44,91.38,91.30,91.25,91.28,91.42,91.50,91.50,91.47,91.43,91.39,91.31,91.27,91.28,91.34,91.36,91.37,91.37,91.38,91.29,91.36,91.48,91.56,91.42,90.93,90.67,90.69,90.78,90.80,90.80,90.78,90.72,90.71,90.71,90.71,90.69,90.61,90.60
85.55,85.50,85.45,85.43,85.42,85.42,85.40,85.37,85.36,85.43,85.46,85.44,85.41,85.37,85.31,85.28,85.32,85.41,85.50,85.55,85.54,85.51,85.49,85.46,85.42,85.37,85.26,85.20,85.19,85.21,85.21,85.23,85.22,85.20,85.20,85.18,85.16,85.11,85.05,85.10,85.15,85.16,85.13,85.10,85.10,85.10,85.10,85.10,85.08,85.09,85.10,85.11,85.13,85.18,85.20,85.19,85.17,85.09,85.04,85.02,85.04,85.07,85.05,85.06,85.10,85.10,85.03,85.02,85.04,85.08,85.13,85.13,85.11,85.05,84.98,84.88,84.79,84.69,84.55,84.37,84.37,84.42,84.39,84.32,84.30,84.30,84.28,84.21,84.20,84.19,84.15,84.04,83.95,83.91,83.89,83.88,83.84,83.95,84.22,84.56,84.75,84.74,84.73,84.69,84.62,84.47,83.93,83.48,83.30,83.29,83.23,83.18,83.16,83.18,83.15,83.16,83.17,83.18,83.23,83.24,83.24,83.25,83.24,83.26,83.28,83.31,83.35,83.36,83.38,83.39,83.41,83.44,83.50,83.54,83.57,83.60,83.61,83.56,83.49,83.44,83.42,83.42,83.43,83.45,83.46,83.43,83.41,83.39,83.39,83.37,83.31,83.25,83.20,83.17,83.14,83.13,83.15,83.18,83.16,83.13,83.10,83.10,83.11,83.13,83.13,83.13,83.12,83.15,83.14,83.09,83.03,83.03,83.02,83.01,83.00,82.96,82.95,82.97,83.00,83.00,83.01,83.05,83.09,83.09,83.11,83.15,83.19,83.23,83.34,83.54,83.69,83.78,83.80,83.82,83.84,83.86,83.89,83.93,84.27,85.02,86.04,87.05,87.87,88.72,89.58,90.40,90.92,91.18,91.33,91.41,91.47,91.42,91.37,91.32,91.29,91.27,91.27,91.27,91.25,91.20,91.17,91.17,91.23,91.37,91.43,91.42,91.39,91.39,91.36,91.28,91.25,91.28,91.35,91.43,91.48,91.48,91.42,91.29,91.28,91.36,91.46,91.42,91.14,90.91,90.80,90.80,90.80,90.80,90.77,90.71,90.69,90.67,90.65,90.65,90.60,90.58
85.47,85.43,85.41,85.43,85.45,85.46,85.45,85.42,85.41,85.46,85.48,85.46,85.41,85.34,85.24,85.18,85.23,85.35,85.46,85.52,85.51,85.50,85.46,85.44,85.42,85.35,85.22,85.17,85.15,85.14,85.14,85.17,85.19,85.19,85.19,85.16,85.15,85.11,85.01,85.03,85.09,85.13,85.13,85.10,85.10,85.10,85.10,85.09,85.05,85.07,85.07,85.05,85.09,85.12,85.16,85.19,85.20,85.10,85.01,84.96,84.99,84.98,84.96,84.97,85.03,85.07,85.02,85.00,85.00,84.99,85.05,85.08,85.06,85.00,84.89,84.84,84.78,84.70,84.58,84.34,84.30,84.35,84.37,84.31,84.30,84.30,84.28,84.22,84.18,84.16,84.14,84.04,83.89,83.84,83.83,83.81,83.76,83.75,83.95,84.32,84.76,84.77,84.75,84.73,84.69,84.62,84.13,83.62,83.30,83.32,83.25,83.18,83.14,83.15,83.16,83.17,83.16,83.14,83.18,83.19,83.20,83.21,83.20,83.21,83.22,83.24,83.27,83.28,83.32,83.36,83.38,83.40,83.47,83.50,83.51,83.51,83.50,83.46,83.41,83.39,83.39,83.41,83.44,83.48,83.49,83.47,83.44,83.41,83.40,83.37,83.30,83.24,83.20,83.17,83.13,83.12,83.14,83.18,83.16,83.12,83.10,83.10,83.10,83.11,83.11,83.11,83.10,83.13,83.11,83.05,82.97,83.00,83.00,82.99,82.98,82.95,82.92,82.92,82.95,82.99,83.00,83.02,83.04,83.04,83.05,83.11,83.16,83.21,83.29,83.48,83.64,83.75,83.79,83.79,83.80,83.81,83.85,83.87,84.04,84.67,85.65,86.74,87.59,88.48,89.39,90.23,90.74,91.02,91.18,91.30,91.42,91.37,91.26,91.14,91.07,91.05,91.05,91.06,91.06,91.03,91.05,91.10,91.18,91.30,91.35,91.35,91.34,91.37,91.35,91.28,91.25,91.29,91.37,91.49,91.58,91.57,91.45,91.28,91.21,91.25,91.36,91.40,91.35,91.17,90.95,90.83,90.81,90.79,90.76,90.70,90.67,90.62,90.59,90.60,90.58,90.55
85.43,85.39,85.38,85.42,85.49,85.54,85.54,85.48,85.45,85.47,85.48,85.46,85.41,85.34,85.21,85.12,85.16,85.29,85.42,85.49,85.50,85.50,85.42,85.38,85.37,85.34,85.26,85.20,85.14,85.08,85.10,85.13,85.14,85.15,85.15,85.12,85.14,85.12,85.01,84.97,85.01,85.05,85.06,85.10,85.10,85.10,85.09,85.05,85.02,85.03,85.03,85.02,85.09,85.07,85.09,85.15,85.20,85.12,85.03,84.96,84.94,84.92,84.92,84.93,84.95,84.97,84.99,85.00,85.00,84.98,85.01,85.03,85.00,84.93,84.83,84.81,84.76,84.68,84.58,84.35,84.23,84.22,84.28,84.30,84.30,84.30,84.29,84.26,84.16,84.12,84.11,84.05,83.83,83.82,83.85,83.81,83.81,83.71,83.76,84.06,84.69,84.73,84.73,84.73,84.72,84.52,84.09,83.62,83.24,83.25,83.26,83.22,83.18,83.17,83.13,83.12,83.12,83.11,83.12,83.12,83.14,83.16,83.18,83.16,83.20,83.27,83.34,83.32,83.35,83.34,83.30,83.30,83.40,83.46,83.46,83.43,83.43,83.40,83.37,83.33,83.34,83.38,83.42,83.45,83.51,83.53,83.49,83.44,83.42,83.40,83.32,83.24,83.20,83.18,83.16,83.13,83.11,83.12,83.12,83.11,83.11,83.11,83.10,83.10,83.10,83.10,83.10,83.13,83.12,83.08,83.03,83.04,83.01,82.96,82.93,82.95,82.94,82.93,82.93,82.96,82.99,82.99,82.99,83.01,83.04,83.04,83.08,83.15,83.26,83.42,83.56,83.67,83.72,83.76,83.78,83.79,83.80,83.77,83.83,84.22,85.00,86.21,87.34,88.34,89.26,90.11,90.54,90.71,90.82,90.95,91.10,91.08,91.00,90.91,90.85,90.84,90.88,90.93,90.97,90.98,91.03,91.08,91.13,91.19,91.26,91.32,91.36,91.39,91.39,91.31,91.27,91.30,91.38,91.49,91.57,91.56,91.42,91.23,91.17,91.23,91.37,91.40,91.34,91.22,91.05,90.89,90.83,90.77,90.71,90.64,90.60,90.56,90.55,90.57,90.54,90.56
85.38,85.33,85.29,85.32,85.39,85.52,85.60,85.59,85.56,85.51,85.47,85.44,85.41,85.34,85.19,85.09,85.11,85.23,85.37,85.46,85.49,85.50,85.42,85.38,85.36,85.33,85.26,85.21,85.14,85.04,85.06,85.10,85.12,85.12,85.12,85.13,85.17,85.15,85.02,84.94,84.95,85.02,85.09,85.10,85.10,85.08,85.05,85.02,84.98,84.97,84.98,85.01,85.05,85.03,85.06,85.13,85.20,85.13,85.04,84.98,84.95,84.91,84.90,84.88,84.84,84.85,84.90,84.96,84.99,84.98,84.97,84.96,84.94,84.89,84.84,84.80,84.75,84.68,84.63,84.43,84.26,84.18,84.23,84.28,84.27,84.26,84.26,84.24,84.14,84.08,84.06,84.03,83.85,83.85,83.86,83.80,83.79,83.72,83.72,83.90,84.43,84.64,84.68,84.65,84.63,84.29,83.92,83.54,83.24,83.22,83.24,83.23,83.21,83.18,83.13,83.12,83.12,83.10,83.08,83.08,83.11,83.13,83.17,83.16,83.21,83.28,83.32,83.28,83.29,83.27,83.23,83.23,83.30,83.35,83.36,83.33,83.35,83.35,83.33,83.30,83.32,83.37,83.40,83.42,83.48,83.51,83.48,83.43,83.39,83.36,83.28,83.22,83.18,83.16,83.14,83.12,83.10,83.10,83.11,83.13,83.14,83.12,83.10,83.09,83.08,83.08,83.09,83.10,83.09,83.07,83.04,83.05,83.01,82.96,82.93,82.94,82.94,82.93,82.92,82.95,82.99,82.98,82.98,83.00,83.03,83.03,83.06,83.14,83.23,83.36,83.49,83.58,83.62,83.67,83.71,83.74,83.74,83.72,83.76,84.01,84.62,85.86,87.14,88.21,89.15,90.01,90.43,90.54,90.58,90.64,90.77,90.79,90.77,90.74,90.73,90.77,90.84,90.93,91.01,91.03,91.07,91.09,91.10,91.12,91.21,91.28,91.34,91.38,91.40,91.34,91.30,91.31,91.39,91.45,91.51,91.49,91.35,91.19,91.14,91.19,91.31,91.34,91.27,91.18,91.07,90.92,90.84,90.75,90.66,90.60,90.56,90.52,90.52,90.53,90.51,90.53
85.32,85.25,85.17,85.15,85.22,85.45,85.65,85.73,85.69,85.54,85.44,85.40,85.40,85.34,85.18,85.07,85.09,85.17,85.30,85.42,85.48,85.50,85.44,85.40,85.37,85.31,85.24,85.21,85.14,85.03,85.01,85.06,85.09,85.10,85.10,85.16,85.23,85.20,85.02,84.93,84.90,85.00,85.16,85.11,85.10,85.06,85.01,85.00,84.93,84.90,84.93,85.00,85.00,85.00,85.04,85.12,85.19,85.12,85.05,85.00,84.99,84.92,84.90,84.83,84.71,84.71,84.77,84.89,84.99,84.98,84.92,84.89,84.89,84.88,84.88,84.82,84.75,84.70,84.69,84.54,84.35,84.21,84.20,84.26,84.23,84.20,84.20,84.18,84.12,84.05,84.00,84.00,83.92,83.89,83.86,83.79,83.73,83.75,83.76,83.80,84.06,84.53,84.62,84.53,84.47,84.00,83.66,83.42,83.27,83.21,83.21,83.23,83.23,83.18,83.14,83.15,83.15,83.10,83.04,83.06,83.10,83.13,83.18,83.19,83.24,83.27,83.25,83.20,83.18,83.18,83.18,83.18,83.19,83.21,83.23,83.22,83.26,83.29,83.30,83.30,83.32,83.35,83.37,83.37,83.40,83.44,83.44,83.40,83.34,83.28,83.23,83.19,83.15,83.11,83.10,83.10,83.10,83.10,83.13,83.16,83.17,83.14,83.11,83.08,83.07,83.06,83.08,83.06,83.05,83.04,83.03,83.04,83.02,82.98,82.95,82.93,82.93,82.93,82.93,82.95,82.99,82.99,82.98,83.00,83.02,83.04,83.08,83.14,83.20,83.31,83.42,83.48,83.50,83.55,83.61,83.67,83.70,83.70,83.77,83.94,84.42,85.61,86.98,88.08,89.04,89.92,90.37,90.44,90.40,90.36,90.44,90.50,90.55,90.60,90.67,90.78,90.89,91.00,91.11,91.15,91.15,91.12,91.08,91.08,91.17,91.24,91.31,91.37,91.39,91.36,91.32,91.31,91.39,91.40,91.41,91.39,91.26,91.16,91.11,91.14,91.22,91.23,91.16,91.09,91.02,90.93,90.85,90.72,90.62,90.58,90.53,90.51,90.49,90.48,90.49,90.48
85.27,85.23,85.18,85.13,85.22,85.42,85.59,85.68,85.60,85.46,85.36,85.32,85.32,85.26,85.16,85.07,85.04,85.13,85.25,85.35,85.42,85.48,85.43,85.40,85.37,85.31,85.24,85.22,85.17,85.08,85.01,85.02,85.03,85.04,85.08,85.12,85.15,85.14,85.07,84.95,84.90,84.94,85.04,85.08,85.09,85.03,84.95,84.92,84.91,84.88,84.88,84.93,84.93,84.98,85.01,85.03,85.07,85.07,85.03,84.99,84.98,84.91,84.89,84.86,84.82,84.77,84.76,84.80,84.85,84.87,84.90,84.84,84.78,84.77,84.77,84.78,84.75,84.69,84.67,84.59,84.46,84.30,84.15,84.20,84.19,84.18,84.17,84.13,84.10,84.06,84.03,84.03,83.91,83.87,83.85,83.81,83.77,83.72,83.71,83.73,83.84,84.16,84.24,84.19,84.13,83.82,83.54,83.34,83.25,83.21,83.20,83.19,83.19,83.19,83.17,83.15,83.14,83.14,83.06,83.06,83.08,83.11,83.13,83.14,83.17,83.19,83.19,83.16,83.12,83.09,83.09,83.08,83.10,83.13,83.16,83.17,83.19,83.23,83.27,83.27,83.27,83.29,83.29,83.30,83.31,83.33,83.33,83.32,83.31,83.27,83.23,83.19,83.15,83.11,83.10,83.10,83.10,83.09,83.10,83.12,83.12,83.09,83.09,83.06,83.05,83.05,83.04,83.03,83.02,83.01,82.99,82.97,82.95,82.93,82.92,82.89,82.89,82.89,82.89,82.89,82.91,82.92,82.94,82.98,83.03,83.07,83.11,83.14,83.17,83.26,83.36,83.44,83.48,83.49,83.54,83.62,83.69,83.72,83.78,83.93,84.40,85.58,86.91,88.02,88.93,89.69,90.13,90.27,90.29,90.29,90.37,90.47,90.57,90.68,90.80,90.92,91.02,91.10,91.16,91.18,91.16,91.11,91.06,91.07,91.15,91.23,91.30,91.37,91.37,91.34,91.31,91.30,91.31,91.30,91.28,91.25,91.18,91.13,91.09,91.08,91.13,91.14,91.09,91.02,90.97,90.96,90.87,90.73,90.61,90.55,90.51,90.53,90.56,90.58,90.56,90.49
85.23,85.20,85.17,85.12,85.21,85.35,85.49,85.58,85.53,85.39,85.29,85.24,85.23,85.17,85.10,85.04,84.99,85.05,85.19,85.30,85.37,85.43,85.39,85.36,85.35,85.31,85.26,85.24,85.20,85.12,85.01,84.99,84.99,85.00,85.05,85.08,85.09,85.09,85.08,84.96,84.89,84.87,84.92,85.01,85.03,84.98,84.91,84.85,84.87,84.85,84.85,84.89,84.89,84.95,84.97,84.96,84.99,84.99,84.97,84.95,84.95,84.91,84.88,84.88,84.90,84.81,84.76,84.75,84.76,84.79,84.90,84.84,84.75,84.71,84.71,84.75,84.74,84.69,84.65,84.60,84.53,84.38,84.12,84.13,84.15,84.15,84.14,84.10,84.08,84.07,84.05,84.02,83.88,83.83,83.81,83.79,83.78,83.71,83.68,83.69,83.70,83.86,83.91,83.90,83.85,83.66,83.44,83.30,83.24,83.19,83.19,83.17,83.16,83.20,83.19,83.16,83.15,83.16,83.07,83.05,83.06,83.08,83.09,83.10,83.12,83.14,83.14,83.12,83.08,83.04,83.02,83.01,83.04,83.07,83.10,83.11,83.13,83.18,83.22,83.23,83.25,83.24,83.24,83.24,83.24,83.24,83.25,83.27,83.29,83.25,83.22,83.19,83.15,83.11,83.10,83.10,83.08,83.06,83.06,83.06,83.06,83.04,83.06,83.06,83.05,83.05,83.03,83.01,83.00,82.99,82.97,82.92,82.91,82.90,82.90,82.88,82.87,82.86,82.85,82.84,82.86,82.89,82.94,83.00,83.05,83.09,83.11,83.12,83.14,83.21,83.30,83.39,83.45,83.45,83.49,83.56,83.65,83.71,83.76,83.90,84.38,85.55,86.88,87.96,88.80,89.44,89.87,90.09,90.20,90.25,90.34,90.48,90.63,90.78,90.93,91.04,91.13,91.18,91.20,91.19,91.14,91.08,91.04,91.07,91.12,91.17,91.24,91.29,91.28,91.26,91.25,91.24,91.22,91.20,91.18,91.15,91.12,91.11,91.06,91.02,91.03,91.06,91.03,90.99,90.96,90.98,90.88,90.73,90.60,90.54,90.51,90.54,90.58,90.62,90.56,90.47
85.17,85.17,85.16,85.12,85.17,85.24,85.33,85.43,85.46,85.34,85.22,85.15,85.13,85.06,85.01,84.96,84.92,84.92,85.11,85.27,85.34,85.37,85.31,85.30,85.30,85.30,85.29,85.29,85.25,85.14,84.99,84.97,84.96,84.97,85.01,85.04,85.06,85.06,85.06,84.95,84.86,84.80,84.80,84.91,84.92,84.92,84.88,84.78,84.81,84.84,84.85,84.85,84.85,84.92,84.93,84.92,84.95,84.89,84.87,84.88,84.91,84.90,84.87,84.89,84.92,84.81,84.80,84.75,84.72,84.76,84.91,84.89,84.81,84.74,84.71,84.73,84.72,84.67,84.61,84.57,84.56,84.44,84.14,84.08,84.09,84.11,84.10,84.09,84.07,84.07,84.06,83.98,83.84,83.77,83.74,83.73,83.77,83.71,83.68,83.68,83.66,83.63,83.65,83.67,83.64,83.52,83.39,83.29,83.23,83.16,83.18,83.17,83.16,83.20,83.19,83.18,83.17,83.16,83.07,83.04,83.03,83.04,83.05,83.09,83.10,83.10,83.10,83.10,83.07,83.03,82.99,82.98,83.01,83.03,83.04,83.05,83.08,83.12,83.15,83.18,83.24,83.22,83.20,83.20,83.18,83.17,83.20,83.24,83.27,83.23,83.21,83.19,83.15,83.11,83.10,83.09,83.06,83.02,83.02,83.00,82.99,82.98,83.03,83.06,83.08,83.07,83.05,83.01,83.00,82.99,82.96,82.91,82.90,82.90,82.90,82.89,82.86,82.84,82.81,82.81,82.83,82.91,83.00,83.07,83.08,83.07,83.07,83.07,83.11,83.15,83.24,83.34,83.42,83.41,83.44,83.50,83.58,83.66,83.70,83.86,84.36,85.53,86.91,87.92,88.64,89.15,89.58,89.91,90.12,90.23,90.36,90.54,90.73,90.91,91.04,91.13,91.20,91.24,91.23,91.16,91.08,91.03,91.02,91.07,91.05,91.07,91.10,91.13,91.12,91.12,91.12,91.12,91.12,91.11,91.11,91.11,91.10,91.10,91.03,90.95,90.92,90.97,91.00,91.00,90.99,91.00,90.89,90.71,90.58,90.57,90.54,90.52,90.54,90.57,90.47,90.42
85.16,85.15,85.13,85.11,85.14,85.19,85.25,85.32,85.38,85.31,85.22,85.15,85.11,85.08,85.08,85.05,84.96,84.89,85.08,85.26,85.35,85.34,85.29,85.26,85.24,85.26,85.27,85.28,85.26,85.17,85.02,84.96,84.93,84.94,84.96,84.98,84.99,85.00,84.99,84.91,84.84,84.78,84.74,84.77,84.80,84.81,84.79,84.73,84.75,84.77,84.80,84.82,84.82,84.91,84.93,84.90,84.92,84.85,84.84,84.86,84.86,84.89,84.91,84.94,84.96,84.89,84.82,84.75,84.71,84.73,84.85,84.85,84.82,84.77,84.71,84.69,84.69,84.67,84.60,84.57,84.57,84.47,84.20,84.06,84.05,84.08,84.10,84.09,84.04,84.04,84.04,83.98,83.87,83.79,83.74,83.71,83.74,83.70,83.67,83.65,83.63,83.59,83.58,83.57,83.55,83.45,83.33,83.24,83.20,83.14,83.18,83.18,83.16,83.16,83.20,83.21,83.19,83.13,83.09,83.06,83.04,83.02,83.02,83.04,83.05,83.05,83.05,83.06,83.06,83.04,82.99,82.99,83.00,83.01,83.02,83.02,83.05,83.10,83.15,83.19,83.22,83.22,83.23,83.25,83.22,83.19,83.19,83.20,83.20,83.20,83.19,83.15,83.10,83.05,83.03,83.01,83.00,82.98,82.96,82.94,82.94,82.95,83.01,83.04,83.07,83.08,83.05,83.01,82.99,82.97,82.93,82.91,82.90,82.90,82.90,82.90,82.85,82.80,82.78,82.80,82.83,82.89,82.96,83.03,83.04,83.04,83.03,83.03,83.05,83.13,83.24,83.37,83.47,83.46,83.47,83.51,83.58,83.65,83.73,83.90,84.40,85.57,86.95,87.92,88.58,89.03,89.46,89.82,90.07,90.23,90.41,90.59,90.79,90.98,91.16,91.20,91.22,91.21,91.15,91.07,91.00,90.96,90.95,91.00,91.00,91.01,91.03,91.04,91.07,91.08,91.08,91.08,91.08,91.07,91.06,91.08,91.08,91.08,91.03,90.97,90.92,90.95,90.98,90.98,90.98,90.98,90.89,90.73,90.60,90.57,90.56,90.56,90.57,90.58,90.50,90.43
85.14,85.12,85.11,85.10,85.11,85.15,85.19,85.22,85.29,85.28,85.23,85.16,85.12,85.13,85.18,85.16,85.03,84.91,85.04,85.22,85.33,85.30,85.27,85.23,85.20,85.21,85.23,85.26,85.27,85.20,85.06,84.96,84.91,84.90,84.91,84.94,84.95,84.94,84.93,84.87,84.83,84.77,84.70,84.68,84.70,84.71,84.71,84.70,84.71,84.72,84.75,84.80,84.79,84.89,84.93,84.90,84.89,84.83,84.85,84.87,84.84,84.88,84.92,84.96,84.98,84.93,84.82,84.74,84.71,84.70,84.78,84.81,84.81,84.78,84.71,84.65,84.64,84.65,84.59,84.57,84.57,84.50,84.28,84.09,84.01,84.03,84.08,84.08,84.02,84.01,84.01,83.99,83.88,83.80,83.73,83.69,83.69,83.70,83.68,83.64,83.61,83.59,83.55,83.51,83.49,83.40,83.30,83.23,83.20,83.15,83.18,83.18,83.15,83.13,83.19,83.22,83.20,83.12,83.11,83.08,83.03,82.99,82.98,82.99,82.99,83.00,83.00,83.02,83.04,83.03,82.98,82.98,82.99,83.00,83.01,83.02,83.04,83.09,83.15,83.19,83.19,83.21,83.25,83.28,83.26,83.21,83.18,83.16,83.14,83.17,83.15,83.10,83.03,82.99,82.97,82.95,82.94,82.95,82.91,82.90,82.91,82.94,82.98,83.02,83.05,83.07,83.04,83.01,82.98,82.94,82.91,82.90,82.90,82.90,82.90,82.89,82.83,82.78,82.75,82.80,82.82,82.86,82.91,82.98,82.99,83.01,83.01,83.00,83.01,83.12,83.25,83.37,83.48,83.49,83.50,83.53,83.60,83.67,83.78,84.01,84.56,85.71,87.04,87.96,88.57,88.99,89.42,89.76,90.02,90.21,90.42,90.61,90.80,91.00,91.19,91.21,91.20,91.13,91.04,90.97,90.91,90.88,90.89,90.94,90.96,90.97,90.97,90.99,91.03,91.05,91.06,91.06,91.06,91.03,91.03,91.05,91.06,91.05,91.03,90.98,90.92,90.94,90.95,90.96,90.96,90.95,90.88,90.74,90.62,90.57,90.58,90.60,90.60,90.58,90.52,90.45
85.10,85.09,85.10,85.10,85.07,85.09,85.13,85.15,85.22,85.23,85.21,85.18,85.17,85.21,85.28,85.28,85.15,85.00,85.02,85.10,85.19,85.23,85.23,85.21,85.18,85.15,85.19,85.25,85.28,85.25,85.11,85.02,84.95,84.89,84.85,84.93,84.97,84.96,84.91,84.84,84.81,84.77,84.71,84.69,84.66,84.64,84.65,84.69,84.75,84.74,84.74,84.79,84.74,84.85,84.91,84.89,84.83,84.86,84.88,84.89,84.88,84.84,84.84,84.87,84.91,84.85,84.71,84.71,84.76,84.70,84.72,84.77,84.78,84.72,84.70,84.64,84.58,84.54,84.52,84.52,84.55,84.54,84.42,84.24,84.00,83.92,84.02,84.02,84.01,84.00,84.00,83.97,83.84,83.74,83.68,83.63,83.64,83.72,83.75,83.70,83.60,83.59,83.57,83.54,83.48,83.42,83.37,83.32,83.27,83.25,83.21,83.16,83.11,83.11,83.17,83.16,83.16,83.17,83.15,83.09,83.00,82.93,82.91,82.90,82.94,82.96,82.94,82.97,82.98,82.96,82.90,82.90,82.93,82.98,83.04,83.08,83.08,83.11,83.13,83.15,83.14,83.17,83.20,83.20,83.20,83.19,83.17,83.14,83.11,83.10,83.06,83.00,82.95,82.95,82.97,82.96,82.94,82.91,82.90,82.89,82.89,82.91,82.95,82.98,83.00,83.00,82.99,82.97,82.96,82.95,82.93,82.91,82.90,82.90,82.89,82.86,82.82,82.78,82.76,82.78,82.80,82.83,82.88,82.95,82.98,83.02,83.03,83.01,83.00,83.12,83.22,83.29,83.32,83.37,83.45,83.56,83.66,83.74,83.89,84.31,85.05,86.11,87.22,88.07,88.68,89.09,89.51,89.78,89.96,90.12,90.32,90.52,90.71,90.88,91.01,91.05,91.05,91.00,90.90,90.87,90.85,90.84,90.85,90.89,90.91,90.92,90.93,90.95,90.99,91.01,91.01,91.01,91.01,91.01,91.01,91.01,91.01,90.99,90.97,90.94,90.89,90.90,90.91,90.91,90.91,90.88,90.86,90.75,90.63,90.54,90.57,90.59,90.59,90.56,90.52,90.45
85.03,85.01,85.01,85.02,84.99,85.04,85.09,85.12,85.15,85.17,85.16,85.16,85.18,85.22,85.28,85.29,85.20,85.10,85.09,85.12,85.17,85.20,85.21,85.19,85.15,85.12,85.17,85.22,85.25,85.23,85.13,85.04,84.95,84.87,84.81,84.90,84.94,84.94,84.90,84.86,84.85,84.81,84.74,84.64,84.59,84.59,84.63,84.69,84.73,84.70,84.70,84.74,84.71,84.79,84.86,84.87,84.80,84.84,84.86,84.86,84.86,84.84,84.79,84.81,84.87,84.78,84.69,84.70,84.74,84.70,84.70,84.73,84.75,84.73,84.70,84.64,84.58,84.54,84.51,84.48,84.49,84.49,84.44,84.31,84.03,83.91,83.98,83.96,83.95,83.94,83.92,83.88,83.75,83.69,83.66,83.66,83.63,83.71,83.73,83.66,83.56,83.54,83.52,83.49,83.46,83.44,83.40,83.34,83.27,83.28,83.23,83.16,83.10,83.09,83.13,83.14,83.14,83.16,83.14,83.07,83.00,82.94,82.92,82.91,82.92,82.92,82.89,82.90,82.91,82.88,82.83,82.83,82.90,82.98,83.05,83.10,83.09,83.09,83.09,83.09,83.10,83.13,83.15,83.15,83.15,83.16,83.15,83.13,83.10,83.09,83.05,83.00,82.94,82.93,82.94,82.94,82.92,82.90,82.88,82.87,82.87,82.90,82.93,82.95,82.96,82.94,82.94,82.94,82.93,82.93,82.92,82.90,82.90,82.90,82.89,82.87,82.85,82.83,82.80,82.79,82.80,82.83,82.88,82.92,82.96,83.00,83.00,82.97,82.97,83.08,83.17,83.23,83.24,83.32,83.44,83.58,83.70,83.78,83.99,84.53,85.36,86.31,87.28,88.04,88.61,89.00,89.42,89.70,89.90,90.06,90.26,90.44,90.61,90.74,90.82,90.87,90.89,90.87,90.83,90.83,90.82,90.82,90.83,90.87,90.89,90.90,90.91,90.93,90.97,90.99,91.00,91.00,91.00,90.99,90.98,90.97,90.97,90.95,90.92,90.89,90.85,90.86,90.86,90.87,90.86,90.84,90.83,90.77,90.67,90.55,90.59,90.61,90.59,90.56,90.54,90.48
84.96,84.92,84.90,84.90,84.90,84.98,85.06,85.10,85.10,85.10,85.10,85.12,85.18,85.19,85.23,85.25,85.21,85.20,85.20,85.20,85.20,85.20,85.20,85.16,85.12,85.12,85.16,85.19,85.19,85.18,85.12,85.04,84.94,84.83,84.79,84.85,84.88,84.89,84.90,84.90,84.90,84.87,84.78,84.58,84.53,84.55,84.62,84.69,84.69,84.65,84.64,84.68,84.70,84.74,84.80,84.83,84.77,84.79,84.80,84.80,84.80,84.86,84.77,84.76,84.83,84.73,84.72,84.71,84.70,84.70,84.70,84.70,84.73,84.77,84.71,84.63,84.60,84.58,84.52,84.45,84.41,84.40,84.39,84.32,84.09,83.95,83.96,83.91,83.88,83.85,83.81,83.76,83.66,83.64,83.68,83.74,83.66,83.69,83.66,83.57,83.51,83.47,83.43,83.41,83.44,83.45,83.41,83.32,83.24,83.26,83.24,83.18,83.10,83.05,83.10,83.13,83.14,83.13,83.09,83.05,83.01,82.98,82.96,82.95,82.92,82.88,82.85,82.83,82.83,82.80,82.76,82.78,82.88,82.98,83.05,83.08,83.06,83.04,83.03,83.02,83.06,83.09,83.10,83.11,83.11,83.14,83.14,83.12,83.10,83.10,83.08,83.04,82.97,82.94,82.91,82.90,82.90,82.90,82.87,82.85,82.86,82.90,82.91,82.92,82.92,82.90,82.90,82.90,82.90,82.90,82.90,82.90,82.91,82.92,82.91,82.88,82.89,82.89,82.86,82.81,82.80,82.84,82.89,82.90,82.94,82.97,82.96,82.92,82.93,83.03,83.11,83.17,83.20,83.31,83.45,83.59,83.72,83.82,84.11,84.72,85.56,86.41,87.25,87.93,88.43,88.79,89.24,89.58,89.83,90.03,90.21,90.37,90.50,90.59,90.64,90.68,90.72,90.76,90.79,90.82,90.81,90.81,90.81,90.86,90.89,90.90,90.90,90.90,90.96,90.98,91.00,91.00,91.00,90.96,90.94,90.93,90.93,90.91,90.88,90.84,90.81,90.82,90.82,90.82,90.82,90.81,90.80,90.79,90.72,90.57,90.63,90.63,90.60,90.58,90.58,90.53
84.94,84.91,84.90,84.89,84.89,84.95,85.01,85.06,85.15,85.14,85.12,85.11,85.17,85.18,85.17,85.16,85.14,85.17,85.15,85.15,85.17,85.18,85.18,85.18,85.18,85.18,85.15,85.16,85.16,85.13,85.06,84.99,84.93,84.86,84.77,84.81,84.83,84.84,84.87,84.88,84.89,84.89,84.85,84.72,84.60,84.58,84.64,84.72,84.67,84.65,84.63,84.61,84.66,84.68,84.70,84.72,84.68,84.75,84.77,84.77,84.75,84.77,84.73,84.72,84.75,84.75,84.77,84.77,84.75,84.73,84.71,84.70,84.71,84.72,84.67,84.60,84.57,84.56,84.54,84.49,84.44,84.40,84.40,84.34,84.23,84.10,83.97,83.90,83.84,83.77,83.71,83.72,83.68,83.66,83.67,83.71,83.69,83.71,83.67,83.58,83.53,83.47,83.44,83.44,83.44,83.42,83.39,83.32,83.23,83.19,83.17,83.14,83.09,83.08,83.08,83.13,83.16,83.12,83.07,83.04,83.00,82.96,82.95,82.93,82.93,82.92,82.89,82.85,82.84,82.83,82.80,82.80,82.85,82.91,82.97,83.00,82.98,82.98,82.99,83.02,83.07,83.10,83.13,83.16,83.18,83.18,83.17,83.14,83.10,83.10,83.08,83.04,82.99,82.95,82.92,82.91,82.92,82.93,82.89,82.87,82.85,82.86,82.88,82.90,82.91,82.90,82.90,82.90,82.91,82.90,82.90,82.88,82.88,82.89,82.91,82.90,82.90,82.90,82.90,82.87,82.86,82.87,82.90,82.90,82.92,82.95,82.94,82.90,82.89,82.97,83.05,83.12,83.18,83.27,83.41,83.57,83.74,83.91,84.33,84.98,85.74,86.42,87.09,87.67,88.15,88.58,89.05,89.43,89.76,90.04,90.26,90.37,90.49,90.59,90.63,90.66,90.72,90.77,90.80,90.81,90.80,90.82,90.85,90.89,90.90,90.90,90.90,90.90,90.92,90.93,90.93,90.93,90.93,90.92,90.91,90.91,90.91,90.90,90.89,90.86,90.83,90.85,90.84,90.82,90.81,90.80,90.84,90.85,90.78,90.59,90.59,90.60,90.60,90.59,90.59,90.57
84.95,84.92,84.90,84.87,84.89,84.93,84.98,85.04,85.15,85.14,85.12,85.11,85.15,85.15,85.13,85.11,85.10,85.14,85.11,85.11,85.13,85.13,85.13,85.17,85.22,85.22,85.15,85.14,85.13,85.10,85.04,84.99,84.94,84.88,84.78,84.78,84.80,84.83,84.86,84.85,84.87,84.88,84.87,84.82,84.65,84.59,84.62,84.73,84.68,84.64,84.61,84.57,84.61,84.63,84.64,84.64,84.64,84.71,84.72,84.70,84.68,84.67,84.66,84.66,84.68,84.75,84.79,84.79,84.77,84.74,84.69,84.67,84.67,84.69,84.64,84.57,84.54,84.53,84.52,84.49,84.45,84.41,84.40,84.36,84.32,84.20,84.01,83.88,83.79,83.70,83.65,83.68,83.67,83.65,83.64,83.66,83.68,83.69,83.65,83.58,83.53,83.47,83.44,83.44,83.43,83.40,83.36,83.29,83.21,83.16,83.13,83.09,83.06,83.06,83.04,83.09,83.13,83.08,83.04,83.02,82.97,82.92,82.92,82.89,82.90,82.92,82.91,82.88,82.87,82.85,82.83,82.82,82.85,82.90,82.95,82.97,82.97,82.98,83.00,83.05,83.09,83.12,83.16,83.20,83.22,83.20,83.19,83.15,83.10,83.09,83.07,83.03,83.00,82.97,82.92,82.91,82.92,82.94,82.89,82.86,82.83,82.81,82.83,82.88,82.91,82.92,82.91,82.92,82.92,82.91,82.91,82.90,82.89,82.89,82.91,82.90,82.90,82.90,82.90,82.89,82.89,82.89,82.90,82.90,82.91,82.92,82.92,82.88,82.87,82.92,82.99,83.06,83.13,83.21,83.37,83.58,83.83,84.11,84.60,85.23,85.90,86.49,87.10,87.63,88.11,88.57,89.12,89.53,89.87,90.15,90.38,90.46,90.57,90.67,90.70,90.69,90.73,90.78,90.80,90.82,90.83,90.85,90.88,90.90,90.90,90.90,90.90,90.90,90.90,90.90,90.90,90.90,90.90,90.90,90.89,90.88,90.89,90.90,90.90,90.88,90.83,90.85,90.83,90.81,90.80,90.81,90.85,90.87,90.80,90.61,90.56,90.56,90.58,90.59,90.58,90.57
84.98,84.94,84.90,84.86,84.88,84.92,84.97,85.04,85.09,85.10,85.10,85.11,85.14,85.12,85.11,85.10,85.10,85.10,85.08,85.06,85.06,85.06,85.06,85.13,85.22,85.25,85.18,85.14,85.11,85.10,85.06,85.02,84.97,84.90,84.81,84.77,84.80,84.84,84.86,84.82,84.83,84.84,84.85,84.88,84.68,84.56,84.57,84.72,84.70,84.62,84.56,84.56,84.55,84.60,84.62,84.61,84.63,84.68,84.65,84.60,84.61,84.56,84.57,84.58,84.61,84.75,84.79,84.79,84.76,84.73,84.66,84.60,84.61,84.69,84.62,84.54,84.50,84.49,84.44,84.44,84.45,84.45,84.40,84.37,84.36,84.27,84.09,83.84,83.71,83.63,83.61,83.64,83.63,83.61,83.59,83.58,83.62,83.63,83.61,83.58,83.52,83.45,83.42,83.42,83.40,83.39,83.30,83.23,83.20,83.17,83.11,83.05,83.01,83.01,82.96,83.00,83.03,83.02,83.01,82.99,82.95,82.88,82.84,82.83,82.84,82.87,82.91,82.90,82.90,82.89,82.86,82.82,82.88,82.94,82.99,83.01,83.05,83.07,83.07,83.09,83.12,83.16,83.19,83.20,83.21,83.20,83.19,83.15,83.10,83.08,83.03,83.00,83.00,82.97,82.92,82.90,82.90,82.90,82.87,82.83,82.79,82.77,82.78,82.88,82.94,82.95,82.94,82.95,82.93,82.91,82.94,82.95,82.92,82.90,82.90,82.90,82.90,82.88,82.86,82.85,82.89,82.90,82.90,82.90,82.90,82.90,82.88,82.85,82.85,82.89,82.93,82.98,83.06,83.14,83.33,83.63,84.01,84.43,84.93,85.47,86.04,86.64,87.30,87.85,88.33,88.80,89.45,89.89,90.19,90.40,90.57,90.66,90.76,90.84,90.85,90.78,90.77,90.79,90.81,90.85,90.88,90.89,90.90,90.90,90.90,90.90,90.90,90.90,90.90,90.90,90.90,90.90,90.90,90.90,90.87,90.84,90.87,90.89,90.90,90.88,90.83,90.81,90.80,90.80,90.80,90.82,90.85,90.83,90.76,90.63,90.54,90.51,90.53,90.56,90.53,90.51
85.00,84.93,84.88,84.87,84.89,84.88,84.89,84.96,85.03,85.07,85.09,85.11,85.13,85.11,85.10,85.09,85.07,85.06,85.04,85.02,84.98,84.95,84.94,85.03,85.16,85.22,85.19,85.12,85.08,85.09,85.08,85.04,84.94,84.83,84.76,84.73,84.75,84.78,84.79,84.73,84.77,84.81,84.83,84.88,84.70,84.55,84.51,84.61,84.64,84.58,84.53,84.53,84.52,84.55,84.58,84.60,84.61,84.61,84.59,84.59,84.60,84.53,84.47,84.47,84.55,84.67,84.76,84.77,84.73,84.71,84.64,84.54,84.52,84.60,84.60,84.54,84.50,84.48,84.42,84.41,84.42,84.41,84.34,84.33,84.33,84.29,84.16,83.88,83.69,83.58,83.55,83.56,83.56,83.55,83.53,83.52,83.51,83.53,83.52,83.49,83.50,83.47,83.43,83.39,83.34,83.33,83.26,83.18,83.14,83.13,83.10,83.07,83.03,83.00,82.98,83.00,83.03,83.05,83.05,83.04,83.00,82.94,82.91,82.88,82.87,82.88,82.90,82.91,82.93,82.95,82.95,82.97,83.01,83.05,83.05,83.01,83.04,83.07,83.09,83.10,83.13,83.17,83.19,83.19,83.19,83.20,83.20,83.17,83.08,83.03,83.00,82.97,82.94,82.93,82.92,82.91,82.89,82.84,82.81,82.78,82.77,82.78,82.78,82.85,82.92,82.95,82.93,82.95,82.95,82.95,82.97,82.98,82.96,82.93,82.90,82.90,82.87,82.84,82.82,82.85,82.89,82.90,82.90,82.90,82.90,82.90,82.88,82.85,82.85,82.88,82.93,82.99,83.09,83.17,83.36,83.66,84.07,84.53,85.04,85.60,86.22,86.91,87.61,88.22,88.77,89.29,89.86,90.25,90.53,90.71,90.85,90.92,90.99,91.02,91.00,90.92,90.90,90.88,90.87,90.88,90.89,90.90,90.90,90.90,90.90,90.90,90.90,90.90,90.90,90.90,90.89,90.88,90.88,90.88,90.85,90.83,90.85,90.89,90.90,90.87,90.81,90.76,90.77,90.79,90.81,90.83,90.83,90.80,90.73,90.63,90.54,90.52,90.53,90.53,90.53,90.51
85.00,84.91,84.85,84.86,84.89,84.84,84.82,84.89,84.97,85.04,85.08,85.10,85.12,85.11,85.10,85.08,85.04,85.03,85.01,84.98,84.92,84.85,84.83,84.92,85.05,85.16,85.17,85.10,85.05,85.08,85.09,85.04,84.90,84.76,84.72,84.70,84.71,84.72,84.71,84.67,84.73,84.78,84.80,84.86,84.72,84.56,84.47,84.52,84.56,84.54,84.51,84.51,84.50,84.50,84.54,84.59,84.60,84.57,84.57,84.58,84.58,84.50,84.40,84.40,84.51,84.59,84.71,84.73,84.70,84.70,84.62,84.51,84.47,84.54,84.59,84.55,84.52,84.50,84.42,84.40,84.40,84.38,84.32,84.31,84.31,84.29,84.20,83.90,83.69,83.57,83.52,83.52,83.52,83.50,83.49,83.48,83.43,83.48,83.48,83.46,83.51,83.49,83.44,83.36,83.30,83.29,83.23,83.16,83.11,83.11,83.10,83.09,83.07,83.02,83.01,83.01,83.03,83.07,83.08,83.08,83.05,83.00,82.98,82.92,82.90,82.90,82.90,82.91,82.95,82.99,83.02,83.07,83.11,83.12,83.09,83.02,83.03,83.07,83.10,83.11,83.12,83.15,83.16,83.15,83.14,83.17,83.18,83.15,83.05,82.98,82.95,82.92,82.89,82.88,82.90,82.90,82.87,82.79,82.77,82.75,82.75,82.79,82.77,82.81,82.87,82.93,82.91,82.94,82.96,82.98,82.98,82.99,82.98,82.95,82.91,82.89,82.85,82.81,82.81,82.85,82.89,82.90,82.90,82.90,82.90,82.90,82.88,82.85,82.85,82.90,82.96,83.04,83.14,83.24,83.44,83.75,84.18,84.66,85.16,85.74,86.41,87.21,88.00,88.67,89.27,89.82,90.27,90.60,90.83,90.99,91.09,91.15,91.17,91.16,91.12,91.04,91.00,90.97,90.92,90.90,90.90,90.90,90.90,90.90,90.90,90.90,90.90,90.89,90.90,90.89,90.87,90.85,90.85,90.85,90.84,90.83,90.85,90.87,90.88,90.85,90.78,90.71,90.74,90.77,90.80,90.83,90.81,90.77,90.70,90.61,90.55,90.54,90.53,90.51,90.53,90.52
84.97,84.86,84.78,84.80,84.86,84.81,84.79,84.86,84.91,84.97,85.04,85.09,85.10,85.10,85.10,85.08,85.02,85.01,85.00,84.97,84.90,84.77,84.74,84.78,84.88,85.01,85.08,85.06,85.02,85.03,85.08,84.99,84.86,84.73,84.70,84.70,84.70,84.69,84.64,84.67,84.74,84.76,84.74,84.79,84.76,84.63,84.50,84.50,84.47,84.48,84.50,84.50,84.50,84.50,84.53,84.58,84.60,84.63,84.61,84.57,84.51,84.44,84.40,84.42,84.49,84.52,84.59,84.66,84.70,84.69,84.61,84.58,84.57,84.58,84.58,84.58,84.57,84.55,84.48,84.42,84.40,84.39,84.38,84.37,84.36,84.29,84.13,83.87,83.72,83.64,83.61,83.58,83.58,83.51,83.46,83.48,83.44,83.53,83.57,83.56,83.56,83.50,83.43,83.35,83.30,83.29,83.24,83.18,83.15,83.13,83.12,83.11,83.10,83.10,83.06,83.02,83.01,83.02,83.03,83.07,83.06,83.01,82.97,82.91,82.89,82.90,82.90,82.90,82.92,82.95,82.99,83.03,83.09,83.09,83.04,83.04,83.03,83.07,83.11,83.11,83.08,83.08,83.07,83.05,83.03,83.07,83.07,83.05,83.02,82.93,82.89,82.88,82.87,82.85,82.84,82.84,82.82,82.77,82.76,82.75,82.75,82.78,82.73,82.74,82.80,82.88,82.92,82.94,82.95,82.94,82.93,82.95,82.96,82.94,82.92,82.89,82.85,82.82,82.83,82.87,82.89,82.90,82.90,82.90,82.90,82.90,82.88,82.85,82.87,82.97,83.08,83.16,83.23,83.38,83.64,84.01,84.48,84.94,85.37,85.92,86.64,87.59,88.56,89.30,89.87,90.33,90.66,90.88,91.04,91.16,91.23,91.24,91.23,91.19,91.15,91.08,91.04,91.01,90.96,90.91,90.90,90.90,90.90,90.90,90.90,90.90,90.89,90.87,90.88,90.85,90.81,90.78,90.79,90.83,90.85,90.86,90.86,90.85,90.85,90.81,90.74,90.66,90.69,90.74,90.79,90.81,90.80,90.77,90.69,90.58,90.56,90.55,90.53,90.51,90.52,90.51
84.89,84.80,84.74,84.78,84.83,84.80,84.79,84.83,84.88,84.92,84.98,85.03,85.05,85.05,85.05,85.03,85.00,84.96,84.95,84.93,84.88,84.75,84.68,84.67,84.74,84.87,84.97,84.97,84.96,84.95,84.98,84.89,84.78,84.70,84.69,84.70,84.70,84.66,84.60,84.66,84.71,84.70,84.65,84.63,84.64,84.56,84.47,84.47,84.45,84.47,84.50,84.50,84.49,84.47,84.48,84.52,84.58,84.61,84.58,84.54,84.49,84.42,84.40,84.42,84.45,84.50,84.53,84.60,84.66,84.63,84.58,84.59,84.59,84.58,84.55,84.58,84.58,84.53,84.49,84.42,84.40,84.40,84.40,84.35,84.33,84.26,84.12,83.93,83.75,83.65,83.62,83.60,83.64,83.55,83.47,83.49,83.47,83.54,83.57,83.56,83.54,83.48,83.41,83.34,83.30,83.29,83.25,83.20,83.16,83.16,83.14,83.12,83.11,83.12,83.07,83.02,83.00,83.00,83.02,83.06,83.06,83.01,82.96,82.89,82.89,82.90,82.90,82.90,82.91,82.92,82.95,82.98,83.05,83.05,83.01,83.01,83.02,83.05,83.07,83.05,83.01,83.01,83.00,82.98,82.95,82.96,82.96,82.95,82.94,82.87,82.83,82.82,82.83,82.82,82.82,82.81,82.80,82.78,82.76,82.75,82.75,82.78,82.73,82.69,82.71,82.79,82.86,82.89,82.90,82.90,82.91,82.93,82.93,82.92,82.91,82.89,82.87,82.86,82.86,82.90,82.92,82.93,82.93,82.92,82.90,82.90,82.88,82.84,82.86,83.00,83.11,83.20,83.29,83.57,83.99,84.47,84.97,85.43,85.82,86.36,87.14,88.25,89.17,89.79,90.23,90.62,90.90,91.05,91.15,91.23,91.26,91.24,91.19,91.13,91.08,91.02,91.00,90.98,90.94,90.91,90.90,90.90,90.90,90.90,90.90,90.90,90.89,90.85,90.81,90.76,90.72,90.72,90.75,90.78,90.80,90.81,90.80,90.79,90.78,90.76,90.71,90.64,90.66,90.71,90.76,90.79,90.80,90.75,90.67,90.58,90.55,90.51,90.49,90.50,90.51,90.49
84.80,84.73,84.72,84.77,84.79,84.80,84.79,84.79,84.84,84.88,84.92,84.96,84.97,84.97,84.98,84.97,84.97,84.91,84.88,84.87,84.85,84.75,84.63,84.59,84.62,84.74,84.85,84.87,84.88,84.87,84.87,84.76,84.69,84.67,84.67,84.69,84.69,84.65,84.58,84.64,84.65,84.62,84.56,84.46,84.46,84.44,84.41,84.42,84.46,84.48,84.50,84.50,84.47,84.43,84.42,84.46,84.55,84.54,84.52,84.50,84.49,84.42,84.40,84.40,84.42,84.49,84.50,84.55,84.60,84.56,84.55,84.57,84.59,84.55,84.51,84.57,84.56,84.49,84.46,84.41,84.40,84.40,84.39,84.32,84.27,84.21,84.12,84.03,83.79,83.64,83.60,83.61,83.70,83.60,83.50,83.50,83.51,83.53,83.53,83.50,83.49,83.45,83.39,83.33,83.30,83.29,83.26,83.21,83.17,83.18,83.15,83.12,83.11,83.12,83.06,83.02,83.00,83.00,83.01,83.06,83.06,83.01,82.94,82.88,82.88,82.90,82.90,82.90,82.90,82.90,82.90,82.92,82.99,83.01,82.98,82.96,82.99,83.01,83.01,82.97,82.94,82.94,82.93,82.92,82.89,82.87,82.86,82.85,82.86,82.82,82.78,82.78,82.80,82.80,82.80,82.80,82.80,82.80,82.77,82.75,82.76,82.79,82.74,82.66,82.64,82.70,82.78,82.81,82.84,82.87,82.89,82.90,82.90,82.90,82.90,82.90,82.90,82.90,82.91,82.93,82.96,82.97,82.96,82.93,82.90,82.90,82.86,82.83,82.86,83.00,83.11,83.21,83.36,83.80,84.38,84.99,85.53,85.99,86.36,86.93,87.80,89.03,89.76,90.16,90.45,90.79,91.05,91.16,91.22,91.25,91.24,91.18,91.11,91.03,90.96,90.93,90.92,90.92,90.91,90.90,90.90,90.90,90.90,90.90,90.90,90.90,90.88,90.83,90.72,90.65,90.64,90.68,90.71,90.71,90.72,90.72,90.72,90.72,90.71,90.71,90.69,90.64,90.66,90.68,90.72,90.76,90.79,90.72,90.64,90.59,90.54,90.47,90.45,90.49,90.50,90.46
84.78,84.73,84.71,84.75,84.75,84.75,84.73,84.72,84.76,84.84,84.89,84.92,84.90,84.91,84.92,84.92,84.90,84.85,84.82,84.81,84.81,84.76,84.67,84.61,84.60,84.67,84.78,84.82,84.83,84.82,84.82,84.75,84.69,84.66,84.63,84.65,84.64,84.63,84.62,84.62,84.58,84.54,84.52,84.49,84.45,84.40,84.36,84.35,84.43,84.46,84.47,84.49,84.47,84.40,84.40,84.45,84.52,84.53,84.54,84.53,84.49,84.42,84.43,84.44,84.45,84.50,84.50,84.52,84.55,84.60,84.59,84.59,84.59,84.56,84.54,84.58,84.56,84.48,84.42,84.40,84.40,84.40,84.40,84.35,84.27,84.19,84.12,84.03,83.84,83.69,83.61,83.60,83.63,83.56,83.52,83.54,83.51,83.51,83.48,83.45,83.49,83.44,83.42,83.38,83.30,83.30,83.28,83.24,83.17,83.14,83.09,83.06,83.06,83.06,83.03,83.01,82.98,82.94,82.92,82.97,83.00,83.00,82.95,82.90,82.89,82.88,82.85,82.85,82.85,82.85,82.85,82.87,82.93,82.95,82.93,82.92,82.94,82.94,82.93,82.89,82.91,82.91,82.91,82.89,82.86,82.87,82.88,82.87,82.86,82.81,82.79,82.79,82.80,82.80,82.80,82.80,82.80,82.80,82.79,82.78,82.78,82.77,82.72,82.68,82.67,82.69,82.73,82.76,82.79,82.82,82.84,82.85,82.88,82.91,82.93,82.93,82.93,82.95,82.97,82.98,82.99,82.98,82.95,82.91,82.88,82.85,82.82,82.81,82.85,82.95,83.08,83.27,83.53,84.01,84.60,85.19,85.73,86.28,86.75,87.54,88.61,89.66,89.92,90.15,90.43,90.80,91.08,91.19,91.22,91.21,91.18,91.11,91.03,90.97,90.92,90.91,90.91,90.91,90.90,90.90,90.90,90.91,90.91,90.91,90.90,90.88,90.85,90.81,90.78,90.73,90.70,90.69,90.70,90.69,90.70,90.71,90.74,90.75,90.74,90.72,90.70,90.67,90.65,90.66,90.68,90.70,90.71,90.67,90.61,90.58,90.55,90.50,90.50,90.55,90.57,90.55
84.77,84.72,84.70,84.71,84.71,84.70,84.69,84.68,84.71,84.79,84.85,84.87,84.85,84.88,84.89,84.88,84.83,84.79,84.76,84.75,84.75,84.73,84.69,84.62,84.57,84.62,84.71,84.75,84.78,84.80,84.80,84.76,84.72,84.67,84.63,84.64,84.64,84.63,84.63,84.61,84.55,84.51,84.50,84.48,84.42,84.36,84.33,84.33,84.43,84.43,84.44,84.49,84.47,84.40,84.39,84.44,84.47,84.51,84.54,84.53,84.49,84.40,84.45,84.48,84.46,84.50,84.50,84.50,84.53,84.62,84.60,84.60,84.59,84.57,84.55,84.56,84.54,84.49,84.43,84.41,84.40,84.40,84.39,84.31,84.24,84.18,84.13,84.05,83.92,83.78,83.66,83.60,83.59,83.54,83.53,83.56,83.49,83.48,83.45,83.41,83.43,83.39,83.39,83.38,83.30,83.27,83.25,83.22,83.17,83.09,83.06,83.03,83.01,82.99,82.96,82.94,82.93,82.90,82.86,82.90,82.95,82.99,82.97,82.92,82.89,82.86,82.81,82.81,82.81,82.81,82.82,82.83,82.86,82.88,82.88,82.87,82.90,82.91,82.89,82.87,82.90,82.90,82.89,82.87,82.84,82.88,82.89,82.88,82.86,82.81,82.79,82.78,82.78,82.79,82.79,82.79,82.80,82.79,82.78,82.78,82.77,82.76,82.71,82.68,82.66,82.65,82.68,82.71,82.74,82.78,82.81,82.83,82.87,82.90,82.92,82.92,82.92,82.94,82.97,82.98,82.98,82.96,82.92,82.89,82.86,82.82,82.79,82.79,82.82,82.91,83.08,83.31,83.62,84.11,84.69,85.25,85.79,86.37,86.90,87.81,88.94,89.90,89.99,90.14,90.40,90.77,91.07,91.19,91.20,91.15,91.10,91.05,91.00,90.95,90.91,90.90,90.90,90.90,90.90,90.90,90.91,90.92,90.93,90.93,90.91,90.88,90.85,90.81,90.81,90.79,90.75,90.71,90.69,90.67,90.67,90.69,90.72,90.74,90.73,90.71,90.70,90.67,90.64,90.64,90.64,90.64,90.65,90.62,90.58,90.56,90.55,90.53,90.53,90.57,90.60,90.60
84.75,84.72,84.69,84.66,84.66,84.66,84.66,84.66,84.69,84.73,84.79,84.82,84.81,84.86,84.89,84.86,84.77,84.74,84.72,84.70,84.68,84.67,84.67,84.61,84.55,84.58,84.62,84.68,84.74,84.79,84.80,84.80,84.76,84.71,84.68,84.67,84.67,84.65,84.61,84.60,84.55,84.51,84.49,84.44,84.37,84.32,84.32,84.37,84.46,84.41,84.39,84.48,84.50,84.43,84.39,84.41,84.42,84.48,84.51,84.52,84.49,84.36,84.47,84.51,84.44,84.49,84.50,84.50,84.53,84.61,84.60,84.60,84.60,84.59,84.52,84.51,84.51,84.50,84.49,84.42,84.40,84.40,84.38,84.19,84.18,84.19,84.17,84.09,84.05,83.91,83.72,83.60,83.58,83.54,83.53,83.56,83.45,83.47,83.45,83.38,83.32,83.32,83.32,83.31,83.29,83.21,83.16,83.15,83.15,83.04,83.06,83.04,82.97,82.90,82.83,82.82,82.85,82.87,82.81,82.83,82.91,83.00,82.98,82.92,82.89,82.86,82.80,82.80,82.80,82.80,82.80,82.80,82.81,82.81,82.81,82.82,82.88,82.90,82.90,82.90,82.90,82.90,82.89,82.86,82.83,82.88,82.89,82.88,82.86,82.81,82.79,82.77,82.75,82.78,82.76,82.77,82.79,82.77,82.74,82.74,82.75,82.76,82.71,82.66,82.60,82.56,82.63,82.66,82.69,82.72,82.80,82.82,82.86,82.88,82.87,82.87,82.89,82.90,82.91,82.94,82.94,82.91,82.88,82.88,82.85,82.81,82.77,82.75,82.76,82.90,83.10,83.35,83.63,84.11,84.64,85.18,85.68,86.25,86.83,87.71,88.79,89.77,89.97,90.13,90.35,90.70,91.01,91.14,91.15,91.07,91.01,91.00,91.00,90.98,90.94,90.91,90.90,90.90,90.90,90.90,90.93,90.95,90.97,90.97,90.94,90.91,90.88,90.84,90.82,90.81,90.79,90.75,90.69,90.65,90.65,90.67,90.67,90.66,90.68,90.69,90.69,90.64,90.63,90.62,90.60,90.57,90.58,90.56,90.53,90.54,90.57,90.55,90.54,90.57,90.60,90.60
84.77,84.74,84.71,84.68,84.68,84.66,84.64,84.63,84.64,84.69,84.75,84.79,84.80,84.83,84.82,84.79,84.73,84.72,84.68,84.64,84.59,84.58,84.55,84.50,84.48,84.53,84.55,84.63,84.72,84.78,84.76,84.78,84.76,84.71,84.65,84.63,84.65,84.67,84.65,84.58,84.53,84.49,84.43,84.33,84.28,84.28,84.33,84.43,84.48,84.40,84.36,84.43,84.44,84.41,84.40,84.39,84.36,84.41,84.47,84.50,84.50,84.44,84.49,84.50,84.47,84.49,84.49,84.50,84.52,84.59,84.59,84.59,84.58,84.53,84.46,84.45,84.45,84.44,84.44,84.41,84.40,84.38,84.33,84.20,84.16,84.16,84.19,84.15,84.09,83.98,83.81,83.57,83.63,83.59,83.56,83.57,83.51,83.45,83.39,83.33,83.30,83.27,83.25,83.23,83.18,83.15,83.12,83.12,83.12,83.04,83.03,83.01,82.95,82.88,82.81,82.78,82.79,82.83,82.79,82.80,82.86,82.94,82.96,82.91,82.86,82.83,82.80,82.80,82.80,82.79,82.77,82.75,82.75,82.77,82.80,82.82,82.88,82.90,82.90,82.90,82.90,82.89,82.87,82.85,82.82,82.86,82.86,82.84,82.83,82.81,82.82,82.82,82.81,82.84,82.83,82.81,82.80,82.80,82.80,82.80,82.79,82.76,82.71,82.67,82.61,82.55,82.57,82.63,82.67,82.72,82.79,82.81,82.81,82.80,82.79,82.81,82.85,82.87,82.89,82.89,82.87,82.84,82.81,82.81,82.79,82.76,82.74,82.74,82.80,82.97,83.17,83.41,83.69,84.15,84.65,85.14,85.62,86.22,86.86,87.60,88.45,89.41,89.90,90.12,90.28,90.55,90.89,91.08,91.14,91.09,91.02,91.00,90.99,90.97,90.91,90.89,90.90,90.90,90.90,90.90,90.91,90.92,90.93,90.93,90.90,90.88,90.86,90.83,90.78,90.77,90.76,90.75,90.76,90.75,90.72,90.70,90.68,90.67,90.68,90.69,90.70,90.68,90.69,90.69,90.68,90.66,90.64,90.60,90.56,90.54,90.55,90.53,90.53,90.55,90.59,90.60
84.78,84.75,84.71,84.68,84.68,84.66,84.63,84.61,84.61,84.65,84.71,84.76,84.78,84.79,84.76,84.72,84.70,84.69,84.65,84.59,84.52,84.51,84.46,84.42,84.43,84.47,84.51,84.60,84.70,84.76,84.73,84.76,84.75,84.70,84.63,84.61,84.62,84.65,84.64,84.52,84.47,84.42,84.37,84.25,84.21,84.24,84.32,84.47,84.50,84.41,84.36,84.39,84.41,84.41,84.40,84.37,84.31,84.37,84.42,84.46,84.48,84.49,84.47,84.46,84.47,84.48,84.47,84.48,84.51,84.55,84.56,84.57,84.54,84.47,84.41,84.40,84.40,84.40,84.40,84.42,84.40,84.36,84.30,84.22,84.14,84.14,84.19,84.18,84.11,84.02,83.88,83.58,83.66,83.62,83.57,83.57,83.53,83.44,83.36,83.30,83.29,83.24,83.21,83.17,83.10,83.11,83.10,83.11,83.11,83.05,83.01,82.97,82.93,82.86,82.81,82.76,82.75,82.79,82.78,82.78,82.82,82.88,82.91,82.89,82.84,82.80,82.80,82.81,82.79,82.77,82.74,82.70,82.71,82.73,82.77,82.81,82.87,82.90,82.90,82.90,82.89,82.87,82.84,82.82,82.78,82.82,82.81,82.78,82.78,82.79,82.82,82.84,82.85,82.86,82.85,82.80,82.77,82.78,82.81,82.82,82.79,82.73,82.69,82.66,82.61,82.55,82.52,82.59,82.64,82.70,82.76,82.78,82.77,82.74,82.72,82.76,82.80,82.84,82.85,82.84,82.80,82.76,82.74,82.75,82.73,82.71,82.71,82.75,82.84,83.02,83.24,83.50,83.81,84.28,84.73,85.16,85.60,86.22,86.92,87.52,88.15,89.03,89.76,90.07,90.20,90.41,90.76,91.01,91.13,91.11,91.05,91.02,90.99,90.95,90.90,90.88,90.89,90.90,90.90,90.90,90.90,90.90,90.89,90.88,90.86,90.84,90.83,90.81,90.76,90.74,90.73,90.74,90.80,90.80,90.77,90.72,90.70,90.69,90.71,90.72,90.74,90.75,90.77,90.77,90.77,90.76,90.72,90.65,90.57,90.53,90.54,90.53,90.53,90.55,90.58,90.60
84.76,84.72,84.68,84.64,84.62,84.64,84.65,84.62,84.60,84.65,84.69,84.71,84.72,84.72,84.71,84.70,84.69,84.65,84.62,84.57,84.52,84.50,84.45,84.42,84.41,84.42,84.50,84.60,84.68,84.72,84.76,84.74,84.72,84.69,84.66,84.62,84.57,84.52,84.48,84.41,84.32,84.27,84.29,84.29,84.23,84.21,84.27,84.43,84.50,84.46,84.41,84.40,84.45,84.44,84.39,84.34,84.30,84.36,84.37,84.37,84.41,84.44,84.39,84.38,84.42,84.44,84.42,84.44,84.46,84.43,84.48,84.49,84.47,84.41,84.40,84.40,84.39,84.38,84.40,84.44,84.40,84.34,84.32,84.22,84.16,84.14,84.15,84.16,84.08,84.00,83.89,83.70,83.67,83.60,83.54,83.53,83.44,83.41,83.37,83.31,83.27,83.25,83.22,83.17,83.10,83.13,83.12,83.12,83.14,83.09,83.02,82.95,82.89,82.85,82.83,82.78,82.75,82.76,82.76,82.76,82.79,82.82,82.84,82.87,82.84,82.80,82.81,82.82,82.78,82.74,82.71,82.70,82.70,82.69,82.71,82.78,82.85,82.88,82.90,82.90,82.88,82.84,82.80,82.77,82.73,82.76,82.76,82.73,82.71,82.72,82.76,82.80,82.81,82.77,82.73,82.69,82.66,82.65,82.66,82.70,82.72,82.66,82.61,82.60,82.59,82.56,82.51,82.53,82.57,82.63,82.70,82.74,82.74,82.72,82.72,82.74,82.76,82.77,82.78,82.75,82.72,82.69,82.69,82.71,82.68,82.66,82.69,82.76,82.85,83.03,83.30,83.64,84.03,84.54,84.97,85.32,85.64,86.26,87.00,87.54,87.99,88.65,89.47,89.90,90.12,90.30,90.62,90.92,91.10,91.15,91.11,91.07,91.02,90.97,90.91,90.89,90.89,90.90,90.90,90.90,90.90,90.88,90.85,90.83,90.82,90.81,90.81,90.80,90.78,90.75,90.72,90.71,90.74,90.74,90.73,90.71,90.70,90.73,90.78,90.82,90.84,90.85,90.86,90.86,90.86,90.86,90.81,90.69,90.57,90.51,90.55,90.57,90.58,90.58,90.60,90.60
84.75,84.71,84.67,84.63,84.61,84.62,84.64,84.64,84.61,84.65,84.68,84.70,84.69,84.69,84.68,84.67,84.67,84.65,84.63,84.59,84.53,84.52,84.47,84.46,84.45,84.42,84.47,84.54,84.61,84.66,84.71,84.70,84.69,84.67,84.62,84.59,84.52,84.43,84.34,84.30,84.23,84.20,84.24,84.27,84.23,84.20,84.22,84.34,84.50,84.50,84.44,84.37,84.41,84.43,84.41,84.36,84.31,84.35,84.36,84.37,84.40,84.43,84.41,84.39,84.41,84.43,84.41,84.42,84.43,84.40,84.43,84.44,84.43,84.40,84.40,84.38,84.36,84.35,84.37,84.42,84.40,84.34,84.27,84.19,84.15,84.12,84.10,84.11,84.06,84.00,83.91,83.78,83.66,83.59,83.54,83.49,83.41,83.40,83.37,83.32,83.26,83.24,83.21,83.18,83.14,83.18,83.12,83.08,83.08,83.03,82.98,82.93,82.89,82.86,82.83,82.77,82.73,82.73,82.74,82.76,82.76,82.75,82.79,82.84,82.83,82.80,82.81,82.82,82.78,82.74,82.72,82.70,82.69,82.68,82.69,82.75,82.82,82.85,82.87,82.87,82.86,82.78,82.74,82.73,82.68,82.71,82.70,82.69,82.68,82.65,82.66,82.68,82.70,82.67,82.63,82.59,82.57,82.56,82.57,82.63,82.66,82.62,82.60,82.61,82.60,82.57,82.52,82.48,82.50,82.56,82.63,82.66,82.69,82.71,82.71,82.74,82.75,82.74,82.73,82.72,82.69,82.66,82.67,82.70,82.67,82.65,82.68,82.76,82.85,83.05,83.34,83.70,84.14,84.72,85.16,85.46,85.71,86.31,87.08,87.59,87.93,88.46,89.31,89.83,90.09,90.25,90.53,90.84,91.05,91.13,91.12,91.08,91.03,90.98,90.93,90.90,90.90,90.90,90.90,90.90,90.90,90.88,90.84,90.81,90.79,90.77,90.76,90.76,90.77,90.77,90.76,90.74,90.73,90.72,90.71,90.71,90.71,90.75,90.81,90.86,90.88,90.89,90.89,90.89,90.89,90.89,90.84,90.70,90.56,90.50,90.53,90.54,90.55,90.55,90.58,90.60
84.76,84.72,84.68,84.64,84.61,84.60,84.62,84.65,84.63,84.66,84.68,84.69,84.67,84.68,84.67,84.65,84.64,84.67,84.66,84.62,84.56,84.55,84.51,84.51,84.50,84.43,84.43,84.46,84.52,84.60,84.63,84.65,84.65,84.64,84.56,84.55,84.49,84.37,84.23,84.21,84.17,84.17,84.20,84.24,84.22,84.18,84.17,84.24,84.49,84.53,84.45,84.33,84.35,84.40,84.42,84.39,84.31,84.34,84.37,84.40,84.40,84.44,84.45,84.43,84.41,84.43,84.41,84.40,84.40,84.40,84.40,84.40,84.40,84.40,84.39,84.36,84.32,84.31,84.33,84.38,84.40,84.35,84.21,84.15,84.13,84.10,84.05,84.04,84.04,84.00,83.94,83.85,83.67,83.60,83.55,83.47,83.42,83.41,83.37,83.31,83.26,83.21,83.20,83.19,83.19,83.23,83.12,83.03,83.01,82.94,82.92,82.91,82.90,82.88,82.83,82.75,82.70,82.70,82.73,82.76,82.73,82.68,82.74,82.79,82.81,82.80,82.80,82.81,82.79,82.76,82.75,82.71,82.70,82.69,82.69,82.71,82.78,82.81,82.83,82.84,82.83,82.73,82.68,82.68,82.64,82.66,82.66,82.64,82.65,82.59,82.56,82.55,82.57,82.57,82.53,82.50,82.50,82.49,82.52,82.57,82.60,82.59,82.60,82.62,82.62,82.58,82.54,82.45,82.45,82.50,82.57,82.59,82.66,82.70,82.70,82.73,82.75,82.73,82.70,82.70,82.67,82.65,82.66,82.70,82.67,82.65,82.68,82.76,82.84,83.07,83.35,83.69,84.12,84.77,85.26,85.57,85.78,86.34,87.16,87.65,87.91,88.31,89.18,89.77,90.09,90.22,90.45,90.74,90.97,91.08,91.09,91.06,91.02,90.98,90.93,90.91,90.90,90.90,90.90,90.90,90.90,90.87,90.83,90.80,90.76,90.72,90.71,90.71,90.75,90.78,90.79,90.79,90.74,90.71,90.70,90.71,90.72,90.76,90.83,90.88,90.90,90.90,90.90,90.90,90.90,90.90,90.85,90.71,90.57,90.50,90.50,90.50,90.49,90.50,90.55,90.60
84.84,84.80,84.74,84.63,84.60,84.60,84.63,84.68,84.66,84.68,84.68,84.66,84.63,84.66,84.68,84.68,84.65,84.62,84.62,84.62,84.59,84.58,84.57,84.54,84.49,84.42,84.43,84.41,84.44,84.51,84.56,84.60,84.61,84.60,84.55,84.53,84.47,84.37,84.23,84.21,84.19,84.19,84.20,84.21,84.18,84.14,84.13,84.17,84.47,84.53,84.46,84.35,84.33,84.34,84.37,84.38,84.31,84.32,84.36,84.38,84.35,84.40,84.42,84.42,84.40,84.41,84.40,84.38,84.36,84.40,84.40,84.40,84.40,84.39,84.35,84.32,84.31,84.29,84.26,84.36,84.40,84.34,84.18,84.08,84.06,84.05,84.03,84.01,84.01,84.00,83.96,83.88,83.79,83.67,83.58,83.53,83.47,83.45,83.39,83.29,83.23,83.20,83.17,83.18,83.25,83.22,83.12,83.04,82.99,82.91,82.87,82.87,82.88,82.83,82.80,82.74,82.70,82.70,82.71,82.71,82.68,82.65,82.71,82.74,82.77,82.78,82.75,82.78,82.75,82.72,82.74,82.77,82.76,82.72,82.67,82.65,82.72,82.79,82.84,82.86,82.79,82.68,82.62,82.63,82.61,82.62,82.62,82.61,82.62,82.58,82.54,82.52,82.52,82.52,82.51,82.49,82.48,82.47,82.53,82.55,82.56,82.59,82.58,82.55,82.55,82.55,82.55,82.48,82.46,82.50,82.59,82.62,82.67,82.70,82.70,82.71,82.73,82.74,82.73,82.70,82.70,82.70,82.71,82.72,82.66,82.62,82.65,82.73,82.83,82.98,83.14,83.31,83.51,84.13,84.88,85.48,85.84,86.31,87.09,87.61,87.87,88.02,88.84,89.57,90.02,90.14,90.32,90.56,90.77,90.92,90.98,90.99,90.96,90.93,90.90,90.89,90.89,90.90,90.90,90.89,90.89,90.87,90.83,90.80,90.77,90.76,90.76,90.77,90.75,90.74,90.75,90.77,90.74,90.71,90.72,90.75,90.77,90.79,90.84,90.88,90.90,90.90,90.90,90.90,90.90,90.90,90.85,90.71,90.58,90.51,90.50,90.50,90.48,90.45,90.49,90.60
84.87,84.86,84.80,84.69,84.65,84.64,84.66,84.70,84.69,84.67,84.65,84.63,84.63,84.65,84.67,84.66,84.64,84.61,84.63,84.63,84.61,84.60,84.60,84.55,84.48,84.42,84.44,84.41,84.40,84.45,84.48,84.55,84.59,84.59,84.56,84.53,84.46,84.37,84.24,84.21,84.18,84.17,84.17,84.19,84.15,84.12,84.10,84.13,84.41,84.48,84.44,84.37,84.32,84.29,84.32,84.35,84.31,84.31,84.34,84.35,84.32,84.35,84.37,84.38,84.37,84.37,84.35,84.33,84.33,84.37,84.37,84.37,84.37,84.36,84.32,84.30,84.30,84.29,84.25,84.34,84.37,84.31,84.15,84.07,84.01,83.98,83.98,83.97,83.99,84.00,83.98,83.90,83.88,83.69,83.54,83.54,83.47,83.45,83.38,83.28,83.21,83.17,83.14,83.15,83.21,83.15,83.08,83.02,82.95,82.90,82.86,82.87,82.88,82.83,82.78,82.73,82.70,82.70,82.69,82.67,82.65,82.65,82.69,82.71,82.75,82.76,82.72,82.75,82.72,82.71,82.74,82.81,82.79,82.73,82.67,82.62,82.67,82.74,82.80,82.83,82.74,82.64,82.58,82.56,82.56,82.57,82.57,82.57,82.57,82.55,82.51,82.49,82.50,82.50,82.50,82.49,82.46,82.45,82.51,82.50,82.50,82.53,82.51,82.49,82.50,82.52,82.54,82.49,82.45,82.45,82.55,82.61,82.67,82.70,82.70,82.70,82.72,82.72,82.72,82.71,82.71,82.70,82.69,82.67,82.61,82.59,82.63,82.73,82.83,82.93,83.04,83.14,83.24,83.80,84.65,85.40,85.86,86.24,86.95,87.50,87.78,87.84,88.58,89.37,89.92,90.07,90.17,90.34,90.52,90.69,90.81,90.85,90.86,90.85,90.84,90.84,90.86,90.88,90.89,90.88,90.88,90.86,90.83,90.80,90.80,90.80,90.80,90.80,90.76,90.73,90.74,90.76,90.74,90.72,90.74,90.77,90.80,90.81,90.85,90.88,90.90,90.90,90.90,90.90,90.90,90.90,90.85,90.73,90.60,90.52,90.51,90.53,90.51,90.47,90.48,90.61
84.88,84.89,84.86,84.79,84.76,84.73,84.70,84.69,84.70,84.63,84.59,84.60,84.66,84.65,84.63,84.62,84.61,84.64,84.67,84.66,84.62,84.60,84.60,84.56,84.49,84.42,84.46,84.43,84.41,84.41,84.41,84.51,84.58,84.60,84.59,84.54,84.47,84.37,84.24,84.21,84.15,84.12,84.13,84.18,84.14,84.11,84.10,84.11,84.32,84.40,84.41,84.39,84.32,84.25,84.25,84.30,84.30,84.30,84.30,84.30,84.30,84.30,84.30,84.30,84.30,84.30,84.24,84.25,84.29,84.30,84.30,84.30,84.30,84.30,84.30,84.30,84.30,84.30,84.30,84.30,84.30,84.25,84.10,84.10,83.99,83.91,83.90,83.90,83.96,83.99,83.98,83.90,83.94,83.67,83.46,83.49,83.42,83.41,83.36,83.28,83.20,83.13,83.10,83.10,83.09,83.02,82.99,82.95,82.90,82.90,82.90,82.90,82.89,82.86,82.74,82.70,82.69,82.70,82.68,82.63,82.64,82.68,82.69,82.70,82.74,82.76,82.72,82.72,82.71,82.71,82.75,82.85,82.79,82.72,82.66,82.61,82.61,82.67,82.73,82.75,82.68,82.62,82.55,82.49,82.49,82.51,82.52,82.52,82.51,82.50,82.47,82.47,82.50,82.50,82.50,82.49,82.46,82.42,82.45,82.43,82.41,82.41,82.41,82.44,82.46,82.49,82.52,82.48,82.41,82.37,82.46,82.57,82.66,82.70,82.70,82.70,82.69,82.69,82.69,82.73,82.72,82.67,82.60,82.55,82.51,82.53,82.62,82.74,82.81,82.91,83.03,83.16,83.29,83.75,84.56,85.33,85.84,86.12,86.76,87.31,87.66,87.76,88.40,89.17,89.77,89.99,90.00,90.09,90.24,90.42,90.57,90.67,90.72,90.74,90.76,90.78,90.81,90.85,90.88,90.87,90.86,90.84,90.82,90.80,90.84,90.85,90.83,90.80,90.77,90.76,90.76,90.77,90.74,90.73,90.75,90.78,90.80,90.82,90.86,90.89,90.90,90.90,90.90,90.90,90.90,90.90,90.85,90.74,90.62,90.53,90.54,90.57,90.58,90.54,90.50,90.62
84.77,84.80,84.80,84.76,84.76,84.74,84.72,84.73,84.72,84.68,84.65,84.66,84.68,84.65,84.64,84.65,84.66,84.64,84.64,84.63,84.61,84.60,84.57,84.53,84.48,84.42,84.43,84.41,84.40,84.40,84.40,84.47,84.52,84.55,84.54,84.52,84.51,84.45,84.30,84.19,84.13,84.12,84.14,84.11,84.10,84.10,84.10,84.10,84.19,84.25,84.32,84.38,84.33,84.25,84.26,84.33,84.35,84.35,84.33,84.30,84.30,84.30,84.32,84.34,84.34,84.29,84.26,84.27,84.30,84.30,84.30,84.30,84.31,84.34,84.31,84.30,84.29,84.28,84.28,84.28,84.28,84.25,84.17,84.10,84.00,83.93,83.90,83.88,83.92,83.96,83.96,83.88,83.87,83.71,83.55,83.49,83.45,83.43,83.38,83.31,83.20,83.12,83.11,83.10,83.06,82.96,82.95,82.93,82.88,82.90,82.90,82.90,82.88,82.82,82.74,82.67,82.65,82.67,82.63,82.61,82.62,82.64,82.66,82.68,82.70,82.73,82.75,82.76,82.74,82.72,82.73,82.79,82.77,82.74,82.71,82.64,82.58,82.62,82.68,82.71,82.67,82.64,82.58,82.49,82.45,82.49,82.51,82.51,82.51,82.51,82.48,82.46,82.48,82.49,82.48,82.46,82.44,82.42,82.44,82.41,82.38,82.38,82.39,82.38,82.39,82.43,82.48,82.44,82.38,82.35,82.40,82.51,82.61,82.67,82.68,82.70,82.68,82.66,82.65,82.68,82.67,82.62,82.56,82.49,82.46,82.50,82.59,82.70,82.79,82.90,83.03,83.16,83.29,83.71,84.47,85.22,85.74,85.96,86.44,86.93,87.33,87.60,88.16,88.83,89.38,89.65,89.67,89.78,89.96,90.17,90.34,90.46,90.56,90.62,90.66,90.71,90.77,90.82,90.87,90.89,90.87,90.85,90.83,90.82,90.86,90.86,90.84,90.82,90.81,90.79,90.78,90.79,90.77,90.76,90.78,90.80,90.83,90.86,90.88,90.89,90.90,90.90,90.90,90.90,90.90,90.90,90.85,90.76,90.64,90.51,90.54,90.56,90.56,90.52,90.44,90.52
84.68,84.72,84.74,84.73,84.76,84.75,84.73,84.73,84.72,84.70,84.69,84.69,84.69,84.66,84.66,84.68,84.70,84.65,84.63,84.62,84.61,84.60,84.56,84.53,84.49,84.43,84.41,84.41,84.40,84.38,84.37,84.43,84.49,84.52,84.51,84.52,84.55,84.50,84.34,84.20,84.13,84.13,84.14,84.06,84.08,84.10,84.10,84.10,84.10,84.16,84.26,84.38,84.35,84.26,84.27,84.35,84.36,84.36,84.33,84.30,84.30,84.30,84.33,84.35,84.35,84.28,84.27,84.29,84.30,84.29,84.30,84.29,84.31,84.35,84.31,84.29,84.28,84.26,84.26,84.26,84.27,84.25,84.21,84.08,84.00,83.94,83.89,83.86,83.88,83.91,83.92,83.85,83.80,83.73,83.63,83.50,83.46,83.42,83.37,83.31,83.20,83.12,83.12,83.10,83.03,82.93,82.93,82.92,82.87,82.90,82.90,82.90,82.87,82.79,82.73,82.66,82.63,82.64,82.61,82.60,82.60,82.62,82.65,82.65,82.66,82.70,82.77,82.80,82.77,82.74,82.74,82.76,82.76,82.77,82.76,82.68,82.58,82.58,82.63,82.69,82.67,82.67,82.61,82.50,82.43,82.48,82.50,82.50,82.51,82.51,82.48,82.45,82.46,82.48,82.45,82.43,82.42,82.42,82.44,82.41,82.37,82.35,82.37,82.34,82.34,82.37,82.42,82.39,82.35,82.33,82.36,82.45,82.54,82.61,82.64,82.68,82.66,82.63,82.61,82.63,82.62,82.59,82.54,82.49,82.48,82.52,82.60,82.68,82.76,82.88,83.02,83.15,83.28,83.64,84.30,84.99,85.51,85.77,86.16,86.59,87.02,87.42,87.89,88.43,88.91,89.21,89.30,89.49,89.75,90.04,90.24,90.38,90.48,90.55,90.59,90.66,90.73,90.79,90.85,90.89,90.89,90.86,90.83,90.83,90.87,90.87,90.85,90.85,90.85,90.82,90.81,90.80,90.77,90.78,90.80,90.82,90.86,90.89,90.90,90.90,90.90,90.89,90.88,90.89,90.89,90.89,90.83,90.75,90.65,90.52,90.53,90.53,90.51,90.48,90.40,90.44
84.65,84.68,84.69,84.72,84.76,84.74,84.70,84.67,84.69,84.68,84.68,84.67,84.67,84.68,84.69,84.70,84.71,84.66,84.66,84.65,84.62,84.60,84.59,84.57,84.52,84.45,84.43,84.44,84.42,84.36,84.33,84.39,84.48,84.56,84.54,84.57,84.56,84.50,84.37,84.24,84.17,84.13,84.12,84.09,84.10,84.10,84.10,84.10,84.10,84.16,84.27,84.40,84.40,84.29,84.26,84.30,84.31,84.29,84.27,84.28,84.30,84.30,84.29,84.29,84.30,84.26,84.25,84.28,84.29,84.27,84.29,84.28,84.28,84.31,84.30,84.27,84.24,84.21,84.21,84.24,84.25,84.24,84.19,84.04,83.98,83.93,83.89,83.82,83.84,83.86,83.86,83.81,83.76,83.72,83.63,83.49,83.42,83.35,83.30,83.25,83.19,83.12,83.12,83.09,83.00,82.92,82.95,82.94,82.87,82.90,82.90,82.90,82.87,82.79,82.71,82.66,82.63,82.61,82.60,82.60,82.61,82.63,82.67,82.63,82.65,82.71,82.78,82.83,82.82,82.80,82.81,82.82,82.81,82.81,82.80,82.74,82.65,82.57,82.57,82.70,82.69,82.68,82.62,82.52,82.44,82.47,82.49,82.49,82.50,82.50,82.47,82.44,82.44,82.47,82.43,82.41,82.41,82.43,82.46,82.42,82.36,82.34,82.36,82.33,82.31,82.32,82.34,82.33,82.31,82.31,82.35,82.39,82.43,82.50,82.58,82.63,82.61,82.58,82.57,82.61,82.60,82.59,82.59,82.59,82.62,82.64,82.66,82.70,82.74,82.85,83.00,83.13,83.23,83.49,83.97,84.53,85.06,85.54,85.97,86.38,86.79,87.21,87.57,87.95,88.31,88.65,88.90,89.26,89.69,90.13,90.40,90.54,90.58,90.57,90.56,90.64,90.72,90.78,90.82,90.86,90.89,90.87,90.83,90.81,90.85,90.88,90.89,90.89,90.89,90.86,90.82,90.79,90.75,90.76,90.81,90.86,90.89,90.90,90.90,90.90,90.89,90.86,90.83,90.84,90.87,90.84,90.77,90.69,90.63,90.58,90.49,90.44,90.42,90.42,90.40,90.41
84.67,84.66,84.65,84.67,84.71,84.72,84.70,84.67,84.68,84.66,84.64,84.61,84.60,84.62,84.65,84.68,84.70,84.67,84.65,84.64,84.61,84.60,84.60,84.59,84.55,84.49,84.47,84.48,84.46,84.39,84.34,84.39,84.47,84.55,84.55,84.58,84.57,84.51,84.42,84.29,84.24,84.19,84.12,84.10,84.10,84.10,84.10,84.10,84.10,84.13,84.23,84.38,84.40,84.29,84.24,84.27,84.29,84.25,84.25,84.27,84.30,84.28,84.25,84.25,84.26,84.24,84.26,84.27,84.26,84.23,84.26,84.24,84.24,84.27,84.30,84.27,84.23,84.20,84.20,84.28,84.33,84.31,84.22,84.10,84.01,83.93,83.85,83.81,83.82,83.83,83.82,83.80,83.77,83.74,83.68,83.55,83.38,83.34,83.30,83.25,83.23,83.16,83.14,83.11,82.99,82.95,82.98,82.98,82.94,82.91,82.92,82.90,82.83,82.75,82.67,82.64,82.62,82.59,82.57,82.59,82.60,82.61,82.62,82.64,82.67,82.70,82.75,82.78,82.78,82.79,82.82,82.82,82.81,82.81,82.80,82.77,82.70,82.56,82.51,82.63,82.67,82.71,82.68,82.59,82.50,82.49,82.49,82.49,82.50,82.50,82.47,82.44,82.42,82.44,82.41,82.39,82.39,82.38,82.42,82.41,82.37,82.35,82.33,82.28,82.26,82.28,82.31,82.32,82.32,82.33,82.32,82.33,82.34,82.40,82.51,82.56,82.55,82.54,82.54,82.57,82.59,82.60,82.60,82.63,82.65,82.65,82.65,82.68,82.74,82.84,82.98,83.10,83.19,83.40,83.82,84.38,84.99,85.54,85.95,86.32,86.68,87.09,87.43,87.78,88.17,88.61,89.03,89.51,90.01,90.46,90.71,90.78,90.74,90.65,90.58,90.64,90.70,90.75,90.79,90.83,90.86,90.86,90.81,90.75,90.80,90.86,90.90,90.89,90.87,90.83,90.81,90.80,90.79,90.79,90.81,90.84,90.86,90.86,90.87,90.88,90.89,90.87,90.85,90.84,90.84,90.79,90.71,90.65,90.60,90.56,90.46,90.43,90.44,90.44,90.42,90.40
84.70,84.65,84.62,84.60,84.65,84.68,84.70,84.70,84.67,84.63,84.59,84.55,84.51,84.55,84.59,84.63,84.66,84.65,84.61,84.59,84.59,84.59,84.60,84.60,84.57,84.51,84.50,84.51,84.49,84.42,84.38,84.40,84.46,84.52,84.53,84.57,84.56,84.53,84.47,84.34,84.31,84.24,84.14,84.11,84.11,84.10,84.10,84.11,84.10,84.10,84.18,84.33,84.38,84.29,84.23,84.24,84.29,84.24,84.25,84.27,84.30,84.25,84.21,84.21,84.23,84.23,84.27,84.26,84.22,84.20,84.21,84.21,84.21,84.23,84.28,84.28,84.25,84.23,84.23,84.34,84.41,84.39,84.25,84.16,84.06,83.94,83.82,83.80,83.80,83.80,83.80,83.81,83.79,83.78,83.73,83.62,83.38,83.36,83.33,83.28,83.27,83.21,83.18,83.12,83.01,82.99,83.01,83.03,83.03,82.92,82.94,82.89,82.78,82.70,82.62,82.61,82.61,82.59,82.54,82.57,82.59,82.58,82.56,82.65,82.69,82.71,82.72,82.72,82.72,82.76,82.81,82.81,82.80,82.80,82.80,82.80,82.73,82.56,82.47,82.54,82.62,82.72,82.73,82.65,82.58,82.52,82.50,82.50,82.49,82.50,82.48,82.44,82.40,82.40,82.40,82.39,82.37,82.34,82.38,82.40,82.38,82.36,82.29,82.23,82.22,82.25,82.30,82.32,82.34,82.34,82.30,82.27,82.27,82.32,82.43,82.48,82.49,82.50,82.51,82.54,82.58,82.60,82.61,82.64,82.66,82.62,82.61,82.65,82.73,82.84,82.96,83.07,83.16,83.34,83.77,84.37,85.06,85.60,85.98,86.31,86.63,86.99,87.32,87.69,88.14,88.69,89.27,89.84,90.37,90.81,91.04,91.02,90.90,90.75,90.62,90.65,90.68,90.72,90.76,90.79,90.83,90.83,90.79,90.69,90.75,90.82,90.88,90.88,90.82,90.79,90.79,90.81,90.84,90.83,90.82,90.82,90.83,90.83,90.85,90.87,90.88,90.88,90.88,90.85,90.81,90.73,90.66,90.61,90.58,90.52,90.43,90.44,90.47,90.49,90.43,90.41
84.75,84.68,84.63,84.60,84.63,84.66,84.69,84.69,84.65,84.59,84.55,84.52,84.49,84.48,84.50,84.54,84.56,84.53,84.50,84.50,84.52,84.54,84.57,84.57,84.53,84.47,84.48,84.47,84.45,84.41,84.39,84.40,84.44,84.49,84.47,84.51,84.52,84.51,84.49,84.40,84.32,84.24,84.17,84.17,84.16,84.14,84.12,84.15,84.12,84.13,84.20,84.30,84.33,84.26,84.22,84.22,84.29,84.32,84.31,84.30,84.30,84.23,84.21,84.20,84.21,84.21,84.22,84.19,84.16,84.19,84.15,84.17,84.20,84.21,84.23,84.27,84.34,84.40,84.41,84.45,84.44,84.38,84.28,84.14,84.05,83.95,83.87,83.81,83.80,83.80,83.82,83.87,83.81,83.79,83.75,83.65,83.48,83.41,83.35,83.28,83.23,83.25,83.19,83.10,83.06,83.02,83.08,83.08,82.99,82.91,82.87,82.83,82.77,82.69,82.63,82.64,82.67,82.65,82.59,82.55,82.55,82.58,82.59,82.65,82.69,82.73,82.77,82.72,82.72,82.75,82.80,82.80,82.79,82.79,82.79,82.80,82.74,82.59,82.47,82.46,82.56,82.67,82.70,82.66,82.58,82.52,82.49,82.47,82.44,82.48,82.47,82.44,82.40,82.39,82.39,82.39,82.39,82.39,82.39,82.37,82.34,82.32,82.30,82.29,82.29,82.30,82.30,82.29,82.28,82.28,82.28,82.26,82.28,82.31,82.36,82.41,82.44,82.48,82.51,82.53,82.57,82.59,82.61,82.64,82.66,82.62,82.59,82.62,82.70,82.83,82.96,83.08,83.20,83.38,83.88,84.54,85.21,85.61,85.95,86.27,86.59,86.87,87.13,87.49,87.94,88.49,89.09,89.68,90.27,90.81,91.15,91.15,91.03,90.86,90.71,90.67,90.68,90.70,90.74,90.77,90.78,90.77,90.74,90.70,90.72,90.77,90.81,90.81,90.76,90.75,90.76,90.79,90.81,90.81,90.82,90.83,90.86,90.87,90.87,90.86,90.84,90.85,90.84,90.82,90.79,90.73,90.66,90.60,90.56,90.51,90.40,90.42,90.46,90.46,90.42,90.38
84.73,84.66,84.59,84.57,84.60,84.64,84.68,84.67,84.63,84.57,84.53,84.50,84.46,84.44,84.46,84.49,84.51,84.47,84.45,84.45,84.47,84.50,84.54,84.53,84.48,84.43,84.47,84.45,84.42,84.40,84.42,84.43,84.46,84.48,84.44,84.48,84.48,84.47,84.46,84.41,84.33,84.25,84.20,84.17,84.16,84.15,84.15,84.18,84.15,84.16,84.20,84.25,84.27,84.23,84.22,84.24,84.29,84.34,84.35,84.34,84.33,84.24,84.19,84.17,84.17,84.17,84.19,84.17,84.15,84.19,84.15,84.17,84.19,84.19,84.20,84.28,84.39,84.48,84.49,84.47,84.39,84.29,84.20,84.12,84.06,84.00,83.94,83.84,83.80,83.78,83.79,83.86,83.79,83.78,83.77,83.69,83.59,83.43,83.34,83.30,83.21,83.23,83.18,83.11,83.09,83.02,83.06,83.06,82.98,82.89,82.85,82.81,82.77,82.69,82.62,82.64,82.68,82.67,82.58,82.53,82.51,82.53,82.55,82.58,82.64,82.71,82.77,82.73,82.71,82.72,82.75,82.76,82.76,82.75,82.76,82.79,82.74,82.63,82.51,82.44,82.52,82.62,82.68,82.66,82.59,82.52,82.50,82.47,82.43,82.47,82.46,82.44,82.41,82.39,82.39,82.41,82.43,82.44,82.43,82.38,82.33,82.30,82.31,82.33,82.34,82.33,82.30,82.29,82.27,82.27,82.27,82.25,82.27,82.30,82.33,82.36,82.41,82.46,82.50,82.52,82.55,82.58,82.60,82.64,82.66,82.61,82.58,82.60,82.70,82.85,82.99,83.13,83.27,83.48,84.01,84.65,85.27,85.61,85.93,86.25,86.53,86.74,86.94,87.29,87.75,88.31,88.91,89.50,90.12,90.70,91.12,91.17,91.08,90.92,90.77,90.70,90.68,90.69,90.72,90.74,90.74,90.73,90.71,90.69,90.68,90.70,90.74,90.76,90.73,90.72,90.74,90.78,90.80,90.79,90.80,90.82,90.87,90.89,90.89,90.87,90.84,90.83,90.82,90.81,90.79,90.73,90.66,90.59,90.54,90.51,90.40,90.41,90.43,90.44,90.41,90.38
84.66,84.59,84.53,84.50,84.56,84.63,84.66,84.64,84.61,84.55,84.52,84.49,84.43,84.41,84.44,84.48,84.50,84.44,84.45,84.45,84.44,84.47,84.49,84.46,84.42,84.40,84.46,84.44,84.41,84.41,84.46,84.49,84.50,84.49,84.43,84.46,84.44,84.41,84.39,84.39,84.35,84.28,84.20,84.13,84.11,84.14,84.18,84.20,84.20,84.20,84.20,84.20,84.20,84.20,84.24,84.29,84.31,84.31,84.36,84.40,84.39,84.26,84.17,84.12,84.10,84.11,84.17,84.19,84.20,84.20,84.20,84.19,84.18,84.18,84.20,84.30,84.40,84.48,84.50,84.43,84.30,84.15,84.03,84.09,84.09,84.08,84.05,83.89,83.81,83.74,83.72,83.78,83.72,83.76,83.77,83.72,83.71,83.42,83.31,83.34,83.21,83.18,83.17,83.15,83.08,82.99,82.97,82.98,82.97,82.88,82.86,82.83,82.77,82.69,82.61,82.61,82.64,82.64,82.55,82.51,82.46,82.42,82.46,82.44,82.53,82.65,82.74,82.75,82.70,82.67,82.68,82.70,82.70,82.69,82.70,82.76,82.74,82.68,82.58,82.44,82.49,82.59,82.66,82.66,82.59,82.53,82.51,82.50,82.45,82.47,82.45,82.44,82.42,82.39,82.38,82.43,82.49,82.51,82.50,82.43,82.35,82.30,82.32,82.35,82.37,82.36,82.30,82.30,82.30,82.29,82.28,82.26,82.26,82.29,82.32,82.35,82.39,82.45,82.50,82.50,82.52,82.55,82.59,82.64,82.66,82.61,82.58,82.60,82.72,82.90,83.05,83.19,83.36,83.65,84.16,84.73,85.25,85.58,85.93,86.24,86.47,86.58,86.76,87.09,87.56,88.13,88.73,89.32,89.92,90.51,90.97,91.10,91.07,90.95,90.81,90.72,90.69,90.69,90.70,90.70,90.70,90.70,90.69,90.66,90.62,90.64,90.69,90.74,90.73,90.71,90.72,90.77,90.80,90.77,90.77,90.79,90.86,90.89,90.90,90.89,90.87,90.84,90.81,90.80,90.79,90.73,90.66,90.58,90.52,90.50,90.42,90.41,90.41,90.41,90.40,90.39
84.69,84.65,84.59,84.53,84.52,84.59,84.63,84.63,84.60,84.53,84.49,84.47,84.43,84.35,84.36,84.41,84.45,84.43,84.43,84.41,84.36,84.33,84.37,84.37,84.34,84.30,84.33,84.34,84.34,84.33,84.38,84.40,84.44,84.48,84.46,84.44,84.40,84.35,84.34,84.34,84.32,84.27,84.21,84.14,84.11,84.14,84.18,84.20,84.20,84.20,84.20,84.20,84.20,84.20,84.24,84.30,84.36,84.38,84.41,84.43,84.40,84.30,84.22,84.16,84.13,84.16,84.20,84.21,84.19,84.18,84.19,84.18,84.16,84.16,84.17,84.21,84.29,84.40,84.47,84.38,84.24,84.12,84.07,84.09,84.08,84.05,84.01,83.88,83.77,83.72,83.71,83.73,83.71,83.74,83.77,83.76,83.71,83.49,83.34,83.28,83.20,83.17,83.14,83.12,83.08,82.98,82.94,82.95,82.96,82.84,82.83,82.79,82.74,82.68,82.56,82.53,82.55,82.57,82.49,82.47,82.44,82.42,82.45,82.42,82.46,82.54,82.64,82.69,82.66,82.63,82.65,82.69,82.69,82.68,82.69,82.74,82.75,82.71,82.60,82.47,82.40,82.50,82.58,82.60,82.55,82.52,82.52,82.53,82.52,82.54,82.52,82.49,82.46,82.44,82.45,82.52,82.58,82.55,82.50,82.41,82.33,82.30,82.30,82.30,82.31,82.32,82.27,82.28,82.27,82.26,82.26,82.26,82.26,82.27,82.29,82.33,82.37,82.44,82.50,82.50,82.51,82.52,82.55,82.59,82.62,82.61,82.58,82.59,82.67,82.89,83.08,83.26,83.45,83.81,84.29,84.79,85.24,85.58,85.93,86.21,86.39,86.43,86.59,86.92,87.39,87.95,88.54,89.14,89.83,90.55,91.06,91.04,90.91,90.75,90.65,90.65,90.67,90.69,90.70,90.73,90.75,90.75,90.74,90.70,90.65,90.63,90.65,90.70,90.74,90.75,90.77,90.79,90.80,90.79,90.79,90.81,90.86,90.89,90.90,90.90,90.89,90.87,90.84,90.81,90.79,90.77,90.71,90.60,90.50,90.48,90.40,90.34,90.31,90.33,90.34,90.33
84.72,84.69,84.63,84.55,84.50,84.54,84.59,84.61,84.59,84.52,84.48,84.47,84.42,84.32,84.32,84.37,84.42,84.43,84.42,84.38,84.32,84.24,84.28,84.30,84.29,84.23,84.23,84.25,84.27,84.27,84.29,84.29,84.34,84.41,84.42,84.40,84.35,84.30,84.29,84.30,84.31,84.28,84.22,84.17,84.14,84.15,84.19,84.20,84.20,84.19,84.19,84.20,84.20,84.19,84.23,84.30,84.37,84.41,84.44,84.44,84.40,84.33,84.25,84.19,84.16,84.19,84.22,84.21,84.18,84.15,84.18,84.17,84.15,84.14,84.15,84.15,84.20,84.31,84.42,84.32,84.19,84.11,84.10,84.11,84.08,84.03,83.97,83.87,83.76,83.71,83.70,83.68,83.71,83.74,83.77,83.79,83.70,83.55,83.38,83.24,83.20,83.17,83.13,83.09,83.07,82.98,82.93,82.92,82.92,82.80,82.78,82.76,82.72,82.68,82.52,82.46,82.46,82.49,82.46,82.44,82.42,82.41,82.44,82.41,82.41,82.46,82.57,82.68,82.65,82.62,82.62,82.68,82.69,82.69,82.69,82.72,82.75,82.72,82.64,82.52,82.35,82.42,82.52,82.56,82.53,82.51,82.51,82.53,82.57,82.57,82.54,82.50,82.47,82.47,82.48,82.53,82.59,82.54,82.46,82.37,82.31,82.30,82.29,82.29,82.30,82.31,82.28,82.28,82.26,82.25,82.27,82.30,82.29,82.27,82.25,82.30,82.34,82.41,82.48,82.48,82.48,82.48,82.49,82.51,82.55,82.54,82.53,82.53,82.60,82.84,83.08,83.32,83.56,83.96,84.40,84.84,85.23,85.58,85.92,86.16,86.28,86.28,86.42,86.74,87.20,87.76,88.34,89.00,89.81,90.67,91.16,91.00,90.78,90.60,90.53,90.59,90.65,90.70,90.72,90.77,90.80,90.81,90.79,90.73,90.66,90.62,90.61,90.65,90.72,90.77,90.80,90.82,90.82,90.82,90.81,90.80,90.84,90.86,90.87,90.88,90.88,90.88,90.84,90.81,90.80,90.80,90.75,90.62,90.50,90.45,90.37,90.30,90.27,90.30,90.32,90.32
84.75,84.72,84.64,84.55,84.49,84.49,84.53,84.58,84.57,84.54,84.52,84.48,84.41,84.34,84.33,84.36,84.42,84.44,84.43,84.38,84.32,84.26,84.26,84.27,84.28,84.23,84.18,84.21,84.23,84.22,84.19,84.16,84.19,84.25,84.27,84.29,84.28,84.27,84.26,84.31,84.34,84.31,84.26,84.24,84.19,84.17,84.19,84.20,84.20,84.18,84.17,84.19,84.20,84.17,84.19,84.26,84.34,84.37,84.42,84.44,84.40,84.33,84.25,84.20,84.19,84.20,84.19,84.17,84.14,84.11,84.13,84.17,84.18,84.14,84.11,84.11,84.15,84.23,84.34,84.21,84.13,84.10,84.10,84.15,84.12,84.04,83.93,83.90,83.80,83.73,83.69,83.64,83.73,83.76,83.78,83.79,83.69,83.59,83.43,83.25,83.20,83.19,83.15,83.08,83.03,82.99,82.94,82.89,82.84,82.74,82.73,82.72,82.70,82.67,82.48,82.41,82.39,82.39,82.47,82.43,82.40,82.41,82.42,82.41,82.41,82.45,82.55,82.72,82.70,82.64,82.61,82.64,82.68,82.70,82.70,82.70,82.72,82.71,82.69,82.62,82.34,82.36,82.47,82.56,82.51,82.49,82.48,82.50,82.58,82.52,82.47,82.44,82.44,82.45,82.40,82.41,82.45,82.42,82.35,82.32,82.30,82.30,82.32,82.35,82.37,82.37,82.35,82.31,82.29,82.30,82.35,82.42,82.37,82.28,82.21,82.25,82.31,82.37,82.41,82.41,82.41,82.40,82.38,82.37,82.39,82.36,82.35,82.39,82.50,82.74,83.04,83.37,83.69,84.09,84.49,84.87,85.23,85.58,85.88,86.06,86.12,86.13,86.24,86.53,86.99,87.57,88.16,88.95,89.92,90.89,91.29,91.00,90.72,90.55,90.51,90.55,90.61,90.69,90.75,90.82,90.86,90.86,90.81,90.74,90.67,90.59,90.55,90.57,90.66,90.75,90.83,90.88,90.88,90.88,90.84,90.78,90.77,90.79,90.80,90.81,90.81,90.81,90.81,90.80,90.80,90.80,90.75,90.65,90.52,90.40,90.33,90.31,90.32,90.36,90.38,90.36
84.68,84.64,84.55,84.47,84.47,84.47,84.50,84.55,84.58,84.56,84.53,84.49,84.41,84.34,84.32,84.34,84.37,84.39,84.40,84.37,84.32,84.28,84.28,84.27,84.26,84.22,84.16,84.17,84.19,84.18,84.14,84.11,84.12,84.16,84.18,84.20,84.21,84.22,84.23,84.30,84.31,84.30,84.28,84.28,84.22,84.18,84.17,84.19,84.17,84.14,84.14,84.16,84.16,84.16,84.17,84.20,84.26,84.32,84.38,84.43,84.43,84.37,84.29,84.24,84.20,84.16,84.15,84.13,84.12,84.14,84.12,84.14,84.14,84.12,84.10,84.10,84.12,84.17,84.27,84.16,84.11,84.12,84.18,84.22,84.15,84.03,83.91,83.86,83.81,83.79,83.75,83.62,83.71,83.71,83.73,83.79,83.70,83.59,83.45,83.31,83.25,83.24,83.17,83.08,83.01,82.99,82.91,82.84,82.81,82.76,82.75,82.71,82.66,82.67,82.50,82.42,82.39,82.39,82.47,82.40,82.37,82.39,82.37,82.39,82.40,82.42,82.48,82.62,82.69,82.67,82.59,82.57,82.62,82.65,82.65,82.65,82.66,82.66,82.65,82.60,82.37,82.33,82.39,82.49,82.49,82.49,82.48,82.48,82.51,82.49,82.44,82.41,82.42,82.43,82.41,82.41,82.43,82.45,82.44,82.41,82.40,82.39,82.38,82.39,82.40,82.40,82.38,82.37,82.38,82.41,82.44,82.46,82.40,82.30,82.20,82.21,82.26,82.30,82.33,82.32,82.34,82.34,82.33,82.32,82.34,82.34,82.34,82.36,82.41,82.65,83.01,83.41,83.78,84.14,84.50,84.86,85.22,85.59,85.83,85.96,86.00,86.02,86.10,86.37,86.81,87.41,88.15,89.13,90.16,91.06,91.37,91.08,90.77,90.56,90.50,90.54,90.61,90.68,90.75,90.81,90.83,90.82,90.79,90.73,90.67,90.59,90.54,90.54,90.62,90.71,90.78,90.83,90.85,90.87,90.84,90.77,90.74,90.75,90.77,90.79,90.80,90.80,90.80,90.80,90.80,90.80,90.76,90.69,90.58,90.46,90.37,90.35,90.36,90.39,90.40,90.39
84.56,84.51,84.42,84.38,84.44,84.44,84.46,84.52,84.57,84.56,84.53,84.48,84.41,84.35,84.31,84.30,84.31,84.32,84.36,84.36,84.33,84.30,84.30,84.27,84.23,84.20,84.15,84.14,84.14,84.13,84.10,84.09,84.09,84.11,84.11,84.12,84.15,84.18,84.20,84.27,84.27,84.27,84.29,84.29,84.23,84.17,84.15,84.19,84.16,84.13,84.13,84.14,84.13,84.16,84.15,84.14,84.19,84.25,84.33,84.41,84.46,84.41,84.34,84.27,84.20,84.13,84.11,84.10,84.12,84.18,84.15,84.12,84.11,84.11,84.10,84.10,84.10,84.13,84.20,84.13,84.10,84.13,84.24,84.26,84.17,84.03,83.89,83.82,83.80,83.84,83.82,83.62,83.68,83.65,83.67,83.77,83.70,83.57,83.46,83.38,83.30,83.28,83.18,83.06,82.99,82.98,82.88,82.80,82.80,82.79,82.77,82.69,82.62,82.67,82.54,82.45,82.41,82.41,82.45,82.37,82.35,82.37,82.33,82.38,82.39,82.39,82.40,82.50,82.66,82.69,82.59,82.52,82.55,82.58,82.58,82.59,82.60,82.61,82.61,82.57,82.43,82.32,82.32,82.41,82.47,82.49,82.49,82.48,82.44,82.46,82.43,82.40,82.40,82.40,82.44,82.44,82.43,82.50,82.54,82.53,82.50,82.49,82.44,82.43,82.42,82.41,82.40,82.42,82.47,82.52,82.51,82.46,82.40,82.30,82.19,82.19,82.21,82.23,82.24,82.22,82.26,82.29,82.29,82.30,82.32,82.35,82.36,82.34,82.35,82.59,83.00,83.47,83.87,84.18,84.50,84.85,85.21,85.58,85.78,85.86,85.88,85.91,85.97,86.21,86.65,87.30,88.24,89.39,90.46,91.23,91.45,91.19,90.86,90.60,90.51,90.54,90.61,90.67,90.73,90.77,90.77,90.77,90.74,90.69,90.65,90.59,90.53,90.52,90.59,90.65,90.70,90.74,90.80,90.83,90.82,90.77,90.72,90.72,90.76,90.79,90.80,90.80,90.80,90.80,90.80,90.80,90.77,90.72,90.65,90.54,90.42,90.39,90.39,90.41,90.41,90.44
84.37,84.34,84.30,84.30,84.38,84.40,84.42,84.44,84.46,84.48,84.48,84.45,84.40,84.38,84.32,84.27,84.24,84.28,84.34,84.36,84.33,84.30,84.30,84.24,84.18,84.18,84.14,84.06,84.02,84.02,84.03,84.06,84.09,84.10,84.10,84.10,84.11,84.14,84.19,84.22,84.26,84.28,84.29,84.24,84.17,84.13,84.13,84.18,84.23,84.24,84.25,84.25,84.20,84.19,84.16,84.12,84.13,84.19,84.26,84.35,84.45,84.42,84.35,84.28,84.20,84.12,84.11,84.11,84.12,84.18,84.26,84.19,84.13,84.15,84.11,84.10,84.10,84.11,84.18,84.13,84.06,84.04,84.07,84.12,84.10,84.01,83.89,83.82,83.80,83.81,83.81,83.70,83.66,83.63,83.64,83.68,83.65,83.55,83.48,83.43,83.31,83.23,83.11,83.00,82.94,82.94,82.87,82.81,82.80,82.75,82.69,82.63,82.61,82.62,82.59,82.51,82.42,82.35,82.36,82.37,82.36,82.36,82.38,82.37,82.35,82.33,82.34,82.42,82.58,82.67,82.63,82.52,82.49,82.49,82.52,82.56,82.58,82.63,82.65,82.63,82.55,82.43,82.35,82.34,82.41,82.47,82.50,82.52,82.52,82.47,82.42,82.38,82.37,82.37,82.39,82.40,82.40,82.45,82.51,82.53,82.53,82.52,82.48,82.46,82.44,82.41,82.37,82.38,82.44,82.49,82.47,82.37,82.30,82.24,82.18,82.17,82.19,82.20,82.19,82.18,82.20,82.23,82.25,82.26,82.27,82.28,82.29,82.30,82.35,82.63,83.10,83.62,84.05,84.33,84.61,84.90,85.21,85.50,85.66,85.74,85.75,85.76,85.80,86.04,86.54,87.37,88.51,89.75,90.79,91.45,91.57,91.34,91.02,90.72,90.56,90.57,90.60,90.64,90.67,90.71,90.73,90.71,90.66,90.60,90.59,90.57,90.54,90.49,90.50,90.54,90.59,90.65,90.72,90.76,90.76,90.74,90.71,90.74,90.77,90.80,90.80,90.80,90.80,90.80,90.79,90.77,90.75,90.72,90.67,90.60,90.48,90.43,90.43,90.46,90.48,90.54
84.27,84.26,84.26,84.29,84.35,84.40,84.41,84.39,84.38,84.40,84.41,84.41,84.40,84.40,84.34,84.28,84.24,84.27,84.33,84.36,84.35,84.31,84.28,84.21,84.14,84.14,84.12,84.04,83.98,83.99,84.02,84.05,84.08,84.09,84.09,84.09,84.09,84.11,84.15,84.18,84.23,84.27,84.27,84.21,84.14,84.11,84.14,84.22,84.30,84.31,84.30,84.28,84.23,84.21,84.19,84.16,84.14,84.17,84.21,84.28,84.37,84.37,84.34,84.27,84.19,84.13,84.13,84.15,84.15,84.16,84.24,84.18,84.13,84.15,84.13,84.12,84.09,84.08,84.13,84.10,84.04,84.00,84.00,84.01,84.00,83.96,83.89,83.85,83.79,83.80,83.84,83.79,83.70,83.66,83.67,83.70,83.69,83.57,83.47,83.40,83.27,83.18,83.06,82.98,82.95,82.93,82.89,82.85,82.82,82.74,82.67,82.62,82.60,82.60,82.63,82.56,82.46,82.37,82.37,82.40,82.39,82.36,82.38,82.35,82.32,82.29,82.29,82.35,82.48,82.60,82.64,82.55,82.47,82.43,82.44,82.47,82.53,82.60,82.65,82.65,82.61,82.49,82.37,82.31,82.36,82.45,82.53,82.57,82.58,82.48,82.41,82.37,82.36,82.37,82.38,82.37,82.37,82.42,82.47,82.50,82.50,82.48,82.45,82.43,82.41,82.38,82.33,82.33,82.37,82.40,82.37,82.28,82.25,82.22,82.20,82.17,82.18,82.18,82.18,82.16,82.17,82.19,82.22,82.23,82.23,82.23,82.24,82.27,82.34,82.62,83.12,83.70,84.21,84.52,84.78,85.02,85.24,85.42,85.52,85.57,85.60,85.61,85.64,85.90,86.50,87.50,88.80,90.08,91.07,91.63,91.65,91.43,91.15,90.88,90.68,90.61,90.59,90.60,90.60,90.65,90.67,90.65,90.60,90.54,90.54,90.54,90.52,90.48,90.46,90.48,90.53,90.60,90.66,90.68,90.69,90.69,90.67,90.72,90.76,90.79,90.80,90.80,90.79,90.77,90.74,90.73,90.70,90.68,90.65,90.59,90.50,90.48,90.50,90.55,90.59,90.67
84.25,84.24,84.27,84.31,84.36,84.42,84.43,84.36,84.31,84.31,84.34,84.38,84.40,84.40,84.36,84.32,84.29,84.28,84.32,84.36,84.38,84.33,84.25,84.17,84.10,84.08,84.08,84.05,84.01,84.01,84.05,84.05,84.06,84.08,84.08,84.08,84.08,84.08,84.09,84.14,84.21,84.25,84.23,84.19,84.13,84.12,84.18,84.29,84.37,84.35,84.31,84.27,84.22,84.22,84.22,84.22,84.20,84.17,84.18,84.20,84.23,84.29,84.31,84.26,84.18,84.14,84.17,84.21,84.20,84.11,84.13,84.11,84.10,84.11,84.15,84.15,84.09,84.02,84.06,84.06,84.03,84.00,83.99,83.92,83.88,83.88,83.90,83.90,83.79,83.81,83.90,83.90,83.81,83.74,83.73,83.80,83.80,83.61,83.44,83.32,83.22,83.13,83.03,82.97,83.00,82.96,82.94,82.91,82.84,82.76,82.71,82.65,82.60,82.61,82.67,82.61,82.51,82.45,82.45,82.44,82.42,82.38,82.34,82.31,82.30,82.28,82.25,82.27,82.37,82.51,82.63,82.59,82.48,82.39,82.35,82.36,82.45,82.55,82.62,82.65,82.62,82.52,82.40,82.31,82.33,82.45,82.55,82.63,82.64,82.49,82.39,82.36,82.37,82.40,82.38,82.35,82.35,82.41,82.44,82.45,82.43,82.38,82.36,82.35,82.34,82.32,82.29,82.28,82.28,82.27,82.22,82.20,82.21,82.23,82.23,82.19,82.17,82.17,82.19,82.17,82.17,82.18,82.19,82.20,82.20,82.20,82.22,82.25,82.31,82.56,83.08,83.73,84.35,84.74,84.99,85.17,85.29,85.33,85.35,85.38,85.42,85.45,85.48,85.79,86.50,87.67,89.10,90.40,91.32,91.77,91.71,91.48,91.27,91.07,90.84,90.65,90.58,90.55,90.53,90.56,90.60,90.59,90.55,90.50,90.50,90.50,90.50,90.49,90.45,90.45,90.50,90.57,90.61,90.61,90.61,90.61,90.61,90.66,90.73,90.78,90.80,90.80,90.77,90.71,90.66,90.67,90.65,90.63,90.59,90.55,90.51,90.54,90.59,90.66,90.74,90.82
84.21,84.23,84.28,84.34,84.38,84.41,84.40,84.35,84.32,84.34,84.37,84.39,84.40,84.40,84.36,84.30,84.25,84.23,84.24,84.28,84.32,84.30,84.21,84.12,84.05,84.03,84.03,84.02,84.00,83.98,84.00,84.02,84.05,84.06,84.04,84.03,84.03,84.02,84.01,84.06,84.14,84.21,84.24,84.17,84.12,84.14,84.23,84.34,84.36,84.34,84.29,84.24,84.23,84.25,84.28,84.29,84.25,84.28,84.32,84.35,84.34,84.30,84.32,84.32,84.27,84.22,84.23,84.24,84.23,84.18,84.15,84.17,84.24,84.33,84.30,84.31,84.21,84.06,84.06,84.06,84.03,84.00,83.99,83.92,83.88,83.89,83.93,83.90,83.82,83.83,83.91,83.94,83.87,83.77,83.73,83.80,83.76,83.59,83.43,83.29,83.18,83.09,83.03,82.99,82.95,82.93,82.93,82.91,82.84,82.73,82.67,82.65,82.64,82.65,82.68,82.63,82.54,82.48,82.48,82.47,82.42,82.35,82.36,82.34,82.31,82.27,82.23,82.27,82.34,82.48,82.64,82.59,82.49,82.39,82.33,82.37,82.38,82.47,82.58,82.66,82.61,82.51,82.40,82.30,82.30,82.44,82.53,82.58,82.62,82.52,82.43,82.41,82.44,82.44,82.40,82.37,82.35,82.35,82.37,82.36,82.33,82.27,82.27,82.26,82.26,82.25,82.24,82.25,82.26,82.26,82.21,82.22,82.24,82.26,82.25,82.20,82.18,82.18,82.17,82.13,82.13,82.14,82.17,82.20,82.20,82.20,82.22,82.25,82.32,82.55,83.02,83.66,84.34,84.82,85.06,85.15,85.18,85.22,85.26,85.32,85.38,85.44,85.48,85.63,86.02,86.80,88.09,89.58,90.81,91.58,91.68,91.62,91.54,91.37,91.00,90.63,90.55,90.57,90.60,90.62,90.59,90.57,90.55,90.53,90.51,90.51,90.50,90.49,90.45,90.45,90.49,90.56,90.60,90.60,90.61,90.62,90.64,90.68,90.72,90.73,90.74,90.77,90.78,90.77,90.74,90.68,90.63,90.61,90.58,90.54,90.55,90.63,90.71,90.78,90.80,90.79
84.19,84.24,84.30,84.37,84.39,84.40,84.38,84.35,84.34,84.36,84.38,84.40,84.40,84.39,84.35,84.28,84.22,84.20,84.19,84.21,84.25,84.25,84.17,84.09,84.04,84.02,84.00,83.99,83.97,83.95,83.94,83.98,84.01,84.02,83.99,83.98,83.98,83.97,83.95,84.01,84.07,84.16,84.23,84.16,84.13,84.16,84.23,84.34,84.34,84.31,84.27,84.23,84.25,84.28,84.31,84.32,84.28,84.36,84.42,84.45,84.43,84.33,84.37,84.40,84.36,84.29,84.26,84.26,84.28,84.31,84.20,84.22,84.34,84.49,84.35,84.40,84.34,84.18,84.14,84.10,84.06,84.02,84.02,83.96,83.90,83.90,83.94,83.90,83.85,83.86,83.92,83.97,83.90,83.79,83.74,83.77,83.73,83.58,83.43,83.30,83.20,83.08,83.05,83.02,82.94,82.91,82.91,82.90,82.84,82.72,82.66,82.66,82.68,82.68,82.69,82.65,82.58,82.52,82.48,82.45,82.39,82.33,82.35,82.35,82.31,82.26,82.23,82.28,82.34,82.47,82.63,82.57,82.51,82.41,82.33,82.35,82.34,82.42,82.55,82.66,82.61,82.51,82.40,82.31,82.27,82.41,82.51,82.57,82.60,82.54,82.46,82.42,82.45,82.42,82.39,82.38,82.36,82.31,82.30,82.29,82.25,82.18,82.18,82.19,82.20,82.21,82.21,82.22,82.24,82.23,82.19,82.22,82.25,82.25,82.24,82.21,82.19,82.18,82.16,82.13,82.12,82.13,82.14,82.18,82.18,82.20,82.23,82.27,82.33,82.51,82.90,83.46,84.15,84.73,85.02,85.11,85.10,85.14,85.21,85.28,85.34,85.41,85.46,85.49,85.66,86.08,87.10,88.53,89.91,90.97,91.44,91.62,91.67,91.53,91.11,90.66,90.54,90.57,90.63,90.64,90.59,90.57,90.57,90.57,90.54,90.53,90.53,90.51,90.45,90.44,90.48,90.55,90.58,90.59,90.60,90.63,90.67,90.71,90.72,90.72,90.72,90.76,90.81,90.83,90.81,90.73,90.64,90.59,90.56,90.55,90.60,90.69,90.78,90.84,90.83,90.77
84.21,84.27,84.33,84.38,84.40,84.40,84.39,84.37,84.38,84.37,84.37,84.39,84.40,84.37,84.33,84.27,84.22,84.20,84.18,84.16,84.16,84.16,84.13,84.10,84.07,84.06,83.99,83.95,83.93,83.91,83.87,83.90,83.93,83.94,83.94,83.94,83.94,83.93,83.92,83.97,84.02,84.09,84.19,84.18,84.18,84.17,84.17,84.25,84.29,84.27,84.25,84.26,84.29,84.30,84.31,84.32,84.30,84.37,84.44,84.49,84.48,84.41,84.48,84.52,84.46,84.33,84.26,84.28,84.38,84.54,84.29,84.23,84.35,84.55,84.27,84.39,84.47,84.43,84.33,84.21,84.13,84.08,84.07,84.05,83.96,83.91,83.91,83.90,83.89,83.89,83.92,83.99,83.87,83.80,83.76,83.72,83.71,83.57,83.45,83.36,83.28,83.13,83.09,83.06,82.98,82.91,82.90,82.90,82.86,82.72,82.69,82.69,82.70,82.70,82.70,82.69,82.64,82.56,82.43,82.36,82.32,82.30,82.31,82.30,82.26,82.24,82.29,82.30,82.37,82.48,82.59,82.53,82.55,82.47,82.36,82.31,82.33,82.43,82.55,82.63,82.65,82.54,82.43,82.33,82.23,82.33,82.48,82.59,82.60,82.56,82.46,82.40,82.38,82.33,82.33,82.35,82.35,82.28,82.24,82.24,82.21,82.12,82.11,82.13,82.16,82.19,82.19,82.20,82.19,82.17,82.15,82.20,82.20,82.18,82.17,82.20,82.19,82.16,82.15,82.18,82.16,82.13,82.11,82.11,82.14,82.20,82.25,82.29,82.30,82.39,82.65,83.10,83.70,84.37,84.82,85.03,85.05,85.12,85.20,85.26,85.30,85.33,85.38,85.42,85.48,85.63,86.14,87.17,88.42,89.72,90.86,91.44,91.60,91.46,91.15,90.75,90.57,90.54,90.58,90.62,90.62,90.61,90.60,90.61,90.60,90.59,90.58,90.54,90.46,90.42,90.44,90.51,90.55,90.56,90.59,90.65,90.70,90.73,90.75,90.76,90.75,90.78,90.85,90.89,90.88,90.82,90.68,90.57,90.53,90.56,90.65,90.71,90.76,90.81,90.81,90.78
84.15,84.21,84.29,84.35,84.34,84.32,84.31,84.30,84.31,84.30,84.32,84.36,84.40,84.38,84.34,84.29,84.25,84.20,84.15,84.13,84.12,84.09,84.07,84.05,84.04,84.01,83.93,83.90,83.89,83.87,83.83,83.87,83.90,83.91,83.91,83.91,83.91,83.91,83.91,83.94,83.98,84.05,84.13,84.14,84.12,84.13,84.17,84.22,84.30,84.28,84.24,84.23,84.25,84.25,84.25,84.26,84.25,84.32,84.39,84.44,84.44,84.37,84.43,84.45,84.40,84.32,84.25,84.26,84.36,84.48,84.35,84.36,84.46,84.57,84.42,84.51,84.47,84.36,84.50,84.25,84.20,84.19,84.09,84.08,84.01,83.94,83.90,83.86,83.88,83.92,83.95,83.95,83.88,83.85,83.82,83.75,83.71,83.60,83.49,83.38,83.30,83.15,83.05,83.01,82.98,82.92,82.88,82.85,82.83,82.75,82.71,82.70,82.70,82.69,82.66,82.64,82.62,82.56,82.43,82.37,82.33,82.30,82.30,82.32,82.29,82.26,82.29,82.31,82.36,82.43,82.50,82.54,82.55,82.47,82.35,82.30,82.32,82.44,82.57,82.66,82.66,82.55,82.43,82.32,82.21,82.24,82.39,82.53,82.53,82.51,82.45,82.39,82.36,82.30,82.28,82.29,82.31,82.26,82.22,82.20,82.18,82.13,82.10,82.11,82.12,82.14,82.14,82.16,82.17,82.19,82.20,82.25,82.25,82.23,82.21,82.25,82.24,82.20,82.17,82.16,82.14,82.11,82.10,82.10,82.13,82.18,82.24,82.28,82.30,82.33,82.45,82.72,83.19,83.90,84.44,84.73,84.82,84.95,85.07,85.16,85.23,85.27,85.32,85.37,85.44,85.54,85.89,86.74,87.87,89.16,90.40,91.16,91.47,91.42,91.16,90.81,90.61,90.52,90.53,90.57,90.59,90.60,90.61,90.62,90.63,90.61,90.58,90.53,90.47,90.43,90.43,90.47,90.48,90.51,90.58,90.66,90.72,90.75,90.76,90.76,90.78,90.84,90.90,90.92,90.90,90.86,90.73,90.61,90.54,90.55,90.60,90.62,90.67,90.73,90.75,90.71
