81.21,81.23,81.25,81.21,81.10,81.07,81.04,81.01,80.99,81.03,81.07,81.02,80.93,80.90,80.90,80.85,80.80,80.78,80.74,80.69,80.69,80.74,80.82,80.88,80.90,80.90,80.90,80.88,80.82,80.82,80.86,80.86,80.84,80.82,80.82,80.85,80.86,80.76,80.74,80.87,80.82,80.87,80.88,80.85,80.82,80.80,80.74,80.70,80.71,80.73,80.72,80.67,80.62,80.61,80.53,80.49,80.47,80.42,80.43,80.47,80.53,80.59,80.57,80.59,80.63,80.68,80.75,80.74,80.71,80.69,80.69,80.65,80.56,80.44,80.34,80.30,80.32,80.31,80.30,80.29,80.27,80.26,80.25,80.24,80.23,80.32,80.39,80.41,80.42,80.36,80.26,80.19,80.18,80.17,80.16,80.14,80.11,80.08,80.02,79.99,79.99,80.07,80.11,80.10,80.08,80.05,80.02,80.01,79.99,79.98,79.97,79.96,79.95,79.96,80.00,80.00,79.95,79.91,79.90,79.86,79.73,79.59,79.53,79.62,79.70,79.71,79.68,79.67,79.69,79.68,79.62,79.57,79.69,79.84,79.79,79.66,79.62,79.76,79.80,79.79,79.74,79.63,79.49,79.34,79.18,79.00,78.82,78.74,78.71,78.73,78.84,79.02,79.14,79.20,79.22,79.24,79.25,79.23,79.19,79.20,79.20,79.19,79.18,79.20,79.19,79.19,79.20,79.19,79.17,79.17,79.38,79.89,80.19,80.24,80.24,80.26,80.29,80.17,79.99,79.79,79.58,79.39,79.20,79.01,78.85,78.77,78.84,78.93,78.97,78.93,79.07,79.13,79.14,79.15,79.20,79.19,79.20,79.23,79.24,79.22,79.21,79.23,79.28,79.22,79.16,79.08,79.02,78.99,79.07,79.23,79.38,79.40,79.39,79.39,79.40,79.40,79.40,79.42,79.42,79.39,79.40,79.40,79.38,79.36,79.36,79.33,79.31,79.30,79.29,79.22,79.21,79.20,79.16,79.12,79.11,79.11,79.13,79.18,79.11,79.01,78.91,78.81,78.77,78.69,78.66,78.64,78.52,78.45,78.31,78.21,78.20,78.24,78.24,78.17,78.07,78.02
81.21,81.20,81.25,81.24,81.11,81.13,81.07,81.01,80.97,80.97,81.02,80.98,80.90,80.90,80.90,80.83,80.75,80.70,80.62,80.54,80.55,80.64,80.76,80.87,80.90,80.90,80.90,80.86,80.81,80.82,80.88,80.85,80.82,80.81,80.82,80.86,80.84,80.67,80.64,80.85,80.82,80.87,80.89,80.87,80.84,80.80,80.73,80.69,80.70,80.69,80.66,80.61,80.56,80.54,80.52,80.50,80.48,80.45,80.46,80.51,80.57,80.61,80.61,80.63,80.65,80.69,80.72,80.70,80.68,80.66,80.68,80.63,80.55,80.45,80.34,80.29,80.31,80.32,80.31,80.27,80.24,80.25,80.27,80.26,80.23,80.34,80.40,80.41,80.42,80.37,80.31,80.25,80.22,80.17,80.16,80.15,80.13,80.08,80.02,79.98,79.99,80.06,80.10,80.10,80.08,80.07,80.04,80.02,80.01,80.00,79.98,79.97,79.98,80.00,80.03,80.00,79.95,79.90,79.88,79.85,79.74,79.61,79.54,79.62,79.71,79.72,79.70,79.69,79.71,79.69,79.62,79.57,79.68,79.83,79.77,79.63,79.59,79.74,79.78,79.77,79.72,79.61,79.50,79.38,79.25,79.07,78.87,78.78,78.75,78.74,78.82,79.01,79.15,79.20,79.23,79.23,79.20,79.15,79.12,79.16,79.15,79.12,79.08,79.11,79.12,79.12,79.12,79.12,79.14,79.14,79.33,79.84,80.20,80.29,80.31,80.34,80.42,80.28,80.06,79.82,79.57,79.38,79.18,79.00,78.86,78.81,78.83,78.86,78.87,78.88,79.04,79.11,79.14,79.18,79.21,79.19,79.20,79.26,79.29,79.25,79.21,79.22,79.29,79.24,79.17,79.09,79.02,79.00,79.10,79.26,79.42,79.41,79.40,79.40,79.40,79.40,79.40,79.43,79.44,79.41,79.40,79.40,79.36,79.33,79.37,79.32,79.30,79.29,79.28,79.22,79.20,79.17,79.13,79.10,79.10,79.10,79.10,79.11,79.08,79.04,78.95,78.84,78.81,78.67,78.63,78.62,78.50,78.48,78.38,78.30,78.29,78.29,78.29,78.21,78.08,78.02
81.20,81.20,81.25,81.24,81.11,81.17,81.10,81.02,80.96,80.95,80.97,80.94,80.90,80.90,80.90,80.88,80.83,80.73,80.65,80.58,80.58,80.66,80.76,80.86,80.90,80.90,80.89,80.83,80.78,80.80,80.86,80.88,80.85,80.82,80.80,80.81,80.80,80.68,80.66,80.81,80.81,80.86,80.88,80.86,80.87,80.78,80.70,80.67,80.70,80.69,80.64,80.59,80.57,80.58,80.55,80.52,80.49,80.48,80.46,80.51,80.59,80.65,80.66,80.69,80.71,80.72,80.72,80.68,80.64,80.63,80.64,80.59,80.49,80.40,80.33,80.33,80.36,80.38,80.36,80.29,80.28,80.31,80.31,80.26,80.24,80.34,80.40,80.41,80.41,80.36,80.33,80.29,80.22,80.19,80.18,80.17,80.15,80.09,80.05,80.00,79.97,79.98,80.03,80.04,80.03,80.03,80.04,80.04,80.02,80.00,80.00,79.99,80.01,80.04,80.05,79.98,79.92,79.86,79.83,79.82,79.76,79.66,79.59,79.64,79.72,79.72,79.70,79.70,79.71,79.68,79.61,79.54,79.62,79.78,79.75,79.64,79.63,79.75,79.81,79.81,79.76,79.65,79.55,79.46,79.35,79.18,78.96,78.84,78.77,78.75,78.84,79.02,79.13,79.17,79.18,79.17,79.13,79.07,79.04,79.11,79.11,79.07,79.02,79.07,79.06,79.05,79.04,79.03,79.07,79.10,79.26,79.67,80.16,80.40,80.49,80.51,80.67,80.57,80.26,79.87,79.53,79.29,79.09,78.95,78.89,78.88,78.88,78.91,78.96,79.03,79.08,79.13,79.19,79.25,79.28,79.27,79.28,79.30,79.35,79.27,79.22,79.23,79.34,79.26,79.17,79.09,79.02,79.00,79.10,79.25,79.38,79.40,79.40,79.40,79.40,79.39,79.40,79.40,79.40,79.39,79.39,79.39,79.35,79.31,79.32,79.30,79.30,79.27,79.22,79.21,79.20,79.19,79.17,79.11,79.10,79.10,79.10,79.10,78.99,79.03,79.03,78.94,78.88,78.69,78.57,78.52,78.49,78.43,78.35,78.30,78.29,78.24,78.28,78.22,78.09,78.07
81.20,81.20,81.25,81.24,81.11,81.15,81.07,80.99,80.97,80.94,80.91,80.90,80.90,80.90,80.90,80.90,80.87,80.79,80.71,80.64,80.65,80.72,80.78,80.87,80.90,80.90,80.89,80.82,80.80,80.80,80.81,80.89,80.86,80.82,80.79,80.77,80.76,80.72,80.73,80.81,80.84,80.88,80.88,80.87,80.88,80.76,80.67,80.65,80.70,80.69,80.63,80.59,80.58,80.57,80.59,80.55,80.50,80.49,80.44,80.48,80.57,80.69,80.71,80.72,80.72,80.72,80.72,80.68,80.64,80.62,80.64,80.58,80.49,80.43,80.39,80.39,80.38,80.40,80.41,80.33,80.34,80.35,80.33,80.25,80.20,80.27,80.31,80.30,80.28,80.26,80.26,80.24,80.17,80.14,80.13,80.13,80.13,80.10,80.07,80.03,80.00,80.02,80.03,80.02,80.01,80.01,80.02,80.03,80.02,80.02,80.03,80.01,80.01,80.03,80.03,79.97,79.92,79.87,79.85,79.85,79.78,79.68,79.60,79.64,79.70,79.71,79.70,79.70,79.70,79.66,79.61,79.59,79.66,79.75,79.72,79.66,79.67,79.79,79.81,79.78,79.71,79.61,79.56,79.50,79.41,79.25,79.03,78.88,78.79,78.75,78.83,79.00,79.12,79.14,79.14,79.13,79.10,79.06,79.03,79.09,79.09,79.05,79.00,79.03,79.01,78.99,78.98,79.00,79.04,79.07,79.23,79.61,80.22,80.53,80.66,80.70,80.81,80.77,80.50,80.10,79.70,79.38,79.19,79.10,79.09,79.08,79.08,79.11,79.17,79.20,79.15,79.14,79.18,79.26,79.29,79.30,79.30,79.30,79.30,79.25,79.23,79.27,79.36,79.27,79.19,79.11,79.03,79.03,79.12,79.25,79.36,79.39,79.40,79.40,79.39,79.36,79.38,79.37,79.35,79.35,79.35,79.35,79.32,79.29,79.29,79.30,79.28,79.24,79.21,79.20,79.19,79.19,79.17,79.11,79.10,79.09,79.09,79.11,79.03,79.04,79.02,78.91,78.78,78.62,78.49,78.41,78.43,78.41,78.35,78.31,78.28,78.26,78.27,78.21,78.09,78.06
81.20,81.20,81.24,81.23,81.11,81.12,81.01,80.97,81.00,80.94,80.87,80.87,80.90,80.90,80.90,80.90,80.89,80.86,80.79,80.72,80.73,80.78,80.80,80.87,80.90,80.89,80.89,80.81,80.83,80.81,80.75,80.89,80.85,80.81,80.77,80.72,80.73,80.77,80.80,80.82,80.87,80.89,80.89,80.88,80.87,80.73,80.64,80.63,80.69,80.69,80.64,80.60,80.58,80.55,80.62,80.58,80.49,80.49,80.42,80.44,80.55,80.72,80.76,80.73,80.70,80.70,80.70,80.68,80.64,80.63,80.66,80.59,80.53,80.49,80.48,80.46,80.39,80.40,80.44,80.38,80.38,80.37,80.33,80.24,80.16,80.19,80.20,80.17,80.12,80.13,80.16,80.15,80.09,80.07,80.05,80.06,80.09,80.10,80.07,80.05,80.04,80.09,80.06,80.02,80.00,79.99,79.99,80.00,80.01,80.04,80.06,80.01,80.00,80.00,80.00,79.97,79.92,79.90,79.90,79.90,79.81,79.69,79.61,79.64,79.68,79.69,79.69,79.68,79.68,79.63,79.62,79.67,79.74,79.74,79.69,79.66,79.71,79.82,79.79,79.71,79.64,79.56,79.54,79.51,79.44,79.31,79.08,78.91,78.79,78.76,78.83,78.98,79.10,79.13,79.10,79.10,79.10,79.08,79.04,79.09,79.08,79.05,79.00,79.00,78.98,78.97,78.97,79.03,79.06,79.09,79.26,79.66,80.35,80.68,80.84,80.90,80.92,80.95,80.75,80.39,79.97,79.59,79.42,79.37,79.37,79.35,79.34,79.37,79.41,79.37,79.23,79.15,79.14,79.23,79.28,79.29,79.30,79.29,79.23,79.21,79.25,79.32,79.36,79.27,79.22,79.15,79.04,79.06,79.13,79.24,79.35,79.39,79.40,79.40,79.38,79.32,79.35,79.33,79.31,79.30,79.30,79.30,79.28,79.27,79.27,79.29,79.25,79.21,79.20,79.20,79.18,79.16,79.15,79.11,79.10,79.08,79.08,79.13,79.10,79.04,78.95,78.81,78.61,78.51,78.37,78.28,78.34,78.38,78.37,78.32,78.27,78.30,78.27,78.19,78.09,78.05
81.20,81.20,81.22,81.20,81.11,81.06,81.00,81.01,81.06,81.04,80.97,80.92,80.90,80.90,80.90,80.90,80.90,80.89,80.86,80.80,80.78,80.80,80.80,80.87,80.86,80.83,80.83,80.75,80.74,80.74,80.74,80.89,80.88,80.84,80.79,80.77,80.73,80.76,80.80,80.82,80.88,80.90,80.89,80.87,80.81,80.67,80.58,80.57,80.64,80.68,80.64,80.60,80.59,80.58,80.59,80.53,80.48,80.54,80.48,80.49,80.57,80.71,80.72,80.69,80.65,80.61,80.58,80.59,80.57,80.57,80.64,80.64,80.58,80.55,80.56,80.55,80.35,80.29,80.32,80.29,80.27,80.28,80.29,80.25,80.20,80.22,80.21,80.18,80.16,80.15,80.12,80.08,80.05,80.06,80.05,80.03,80.04,80.05,80.02,80.01,80.01,80.00,79.99,79.97,79.95,79.94,79.94,79.96,79.98,80.00,80.02,79.98,79.97,79.97,79.97,79.94,79.90,79.88,79.88,79.88,79.80,79.69,79.61,79.63,79.67,79.68,79.66,79.63,79.62,79.61,79.63,79.68,79.73,79.68,79.62,79.61,79.71,79.82,79.78,79.70,79.62,79.55,79.51,79.46,79.40,79.35,79.15,78.96,78.82,78.79,78.90,79.03,79.10,79.12,79.11,79.09,79.09,79.08,79.05,79.06,79.06,79.05,79.04,79.04,79.14,79.20,79.26,79.46,79.52,79.57,79.77,80.19,80.68,80.91,81.01,81.06,81.11,81.12,80.97,80.70,80.39,80.19,80.03,79.91,79.82,79.77,79.66,79.57,79.51,79.42,79.30,79.19,79.15,79.19,79.26,79.27,79.28,79.29,79.25,79.24,79.29,79.35,79.36,79.28,79.23,79.16,79.06,79.03,79.10,79.20,79.31,79.38,79.40,79.40,79.39,79.35,79.33,79.31,79.30,79.30,79.30,79.30,79.27,79.23,79.22,79.28,79.25,79.21,79.20,79.20,79.15,79.12,79.12,79.10,79.07,79.04,79.05,79.12,79.04,78.90,78.76,78.62,78.43,78.29,78.11,77.99,78.14,78.27,78.35,78.36,78.31,78.30,78.25,78.19,78.14,78.08
81.20,81.18,81.17,81.15,81.08,81.04,81.01,81.04,81.10,81.12,81.06,80.97,80.89,80.87,80.89,80.89,80.89,80.90,80.89,80.85,80.81,80.80,80.80,80.85,80.82,80.77,80.77,80.71,80.72,80.75,80.79,80.89,80.87,80.82,80.79,80.79,80.75,80.77,80.80,80.81,80.88,80.87,80.84,80.81,80.74,80.62,80.56,80.56,80.61,80.67,80.63,80.59,80.59,80.60,80.59,80.53,80.49,80.54,80.49,80.49,80.58,80.72,80.68,80.62,80.56,80.52,80.49,80.50,80.49,80.51,80.61,80.64,80.57,80.51,80.50,80.48,80.29,80.21,80.23,80.22,80.20,80.22,80.24,80.24,80.21,80.21,80.19,80.17,80.16,80.13,80.09,80.05,80.03,80.04,80.03,80.01,80.00,80.01,79.98,79.97,79.97,79.94,79.93,79.90,79.88,79.88,79.89,79.91,79.93,79.94,79.95,79.93,79.92,79.93,79.93,79.90,79.86,79.84,79.83,79.83,79.76,79.67,79.61,79.65,79.71,79.74,79.71,79.66,79.62,79.62,79.65,79.70,79.70,79.62,79.54,79.54,79.67,79.81,79.78,79.68,79.59,79.53,79.49,79.45,79.41,79.39,79.19,78.98,78.84,78.82,78.94,79.05,79.12,79.17,79.26,79.33,79.33,79.31,79.32,79.37,79.44,79.49,79.52,79.54,79.70,79.78,79.85,80.11,80.19,80.24,80.39,80.71,80.99,81.11,81.15,81.18,81.23,81.21,81.12,80.97,80.79,80.63,80.40,80.16,79.99,79.92,79.77,79.63,79.52,79.42,79.33,79.23,79.16,79.17,79.23,79.26,79.27,79.29,79.29,79.29,79.33,79.38,79.37,79.29,79.24,79.17,79.08,79.02,79.09,79.19,79.29,79.38,79.38,79.39,79.38,79.35,79.33,79.31,79.30,79.30,79.28,79.28,79.24,79.21,79.20,79.25,79.23,79.20,79.20,79.18,79.13,79.09,79.08,79.07,79.04,79.01,79.03,79.09,78.99,78.77,78.58,78.43,78.27,78.10,77.90,77.79,77.94,78.13,78.27,78.35,78.35,78.31,78.25,78.20,78.15,78.13
81.19,81.13,81.11,81.08,81.03,81.07,81.04,81.05,81.12,81.17,81.15,81.02,80.87,80.83,80.87,80.87,80.87,80.90,80.88,80.88,80.84,80.80,80.80,80.80,80.76,80.72,80.72,80.70,80.76,80.83,80.89,80.89,80.81,80.78,80.79,80.80,80.80,80.80,80.79,80.79,80.85,80.81,80.75,80.70,80.67,80.60,80.57,80.58,80.61,80.65,80.61,80.57,80.58,80.60,80.60,80.58,80.54,80.49,80.45,80.45,80.55,80.74,80.64,80.51,80.44,80.44,80.43,80.41,80.41,80.46,80.59,80.61,80.48,80.36,80.30,80.25,80.19,80.17,80.16,80.17,80.16,80.17,80.19,80.20,80.19,80.16,80.14,80.14,80.12,80.09,80.06,80.04,80.04,80.03,80.00,79.99,79.99,79.98,79.95,79.93,79.92,79.89,79.87,79.83,79.80,79.82,79.85,79.85,79.86,79.86,79.86,79.86,79.87,79.88,79.88,79.84,79.81,79.78,79.76,79.76,79.71,79.65,79.62,79.70,79.82,79.86,79.84,79.76,79.69,79.68,79.70,79.72,79.66,79.56,79.47,79.46,79.61,79.80,79.76,79.65,79.55,79.51,79.50,79.49,79.46,79.43,79.20,78.98,78.84,78.84,78.94,79.05,79.15,79.27,79.53,79.80,79.83,79.76,79.84,80.02,80.20,80.35,80.45,80.49,80.64,80.70,80.74,80.98,81.06,81.10,81.14,81.24,81.27,81.27,81.27,81.27,81.28,81.22,81.19,81.18,81.17,80.94,80.54,80.15,79.90,79.80,79.67,79.55,79.45,79.37,79.32,79.26,79.19,79.15,79.19,79.24,79.27,79.30,79.35,79.36,79.38,79.39,79.40,79.29,79.23,79.18,79.11,79.03,79.10,79.20,79.30,79.38,79.35,79.37,79.38,79.34,79.36,79.33,79.31,79.29,79.24,79.23,79.21,79.20,79.20,79.22,79.21,79.20,79.19,79.14,79.11,79.07,79.03,79.02,79.01,79.00,79.00,79.01,78.93,78.65,78.40,78.24,78.15,77.95,77.75,77.65,77.74,77.97,78.14,78.28,78.39,78.31,78.29,78.21,78.13,78.18
81.15,81.10,81.08,81.07,81.04,81.02,81.02,81.06,81.13,81.11,81.04,80.93,80.85,80.87,80.84,80.81,80.82,80.87,80.86,80.84,80.82,80.79,80.77,80.79,80.78,80.77,80.76,80.73,80.76,80.82,80.90,80.87,80.79,80.76,80.77,80.80,80.78,80.76,80.74,80.75,80.81,80.76,80.70,80.66,80.63,80.58,80.56,80.58,80.61,80.65,80.62,80.59,80.59,80.59,80.57,80.53,80.48,80.46,80.44,80.44,80.50,80.61,80.54,80.45,80.42,80.44,80.42,80.41,80.39,80.42,80.55,80.57,80.49,80.38,80.28,80.24,80.21,80.20,80.20,80.23,80.20,80.21,80.21,80.17,80.16,80.17,80.17,80.17,80.16,80.11,80.07,80.06,80.09,80.11,80.10,80.07,80.05,80.05,80.03,80.01,79.97,79.92,79.93,79.90,79.87,79.86,79.88,79.87,79.86,79.86,79.88,79.89,79.91,79.93,79.93,79.90,79.85,79.81,79.79,79.76,79.72,79.65,79.62,79.70,79.84,79.91,79.91,79.84,79.79,79.80,79.82,79.81,79.69,79.54,79.44,79.40,79.47,79.64,79.66,79.60,79.52,79.50,79.48,79.46,79.44,79.44,79.26,79.05,78.90,78.87,78.95,79.05,79.31,79.73,80.26,80.57,80.64,80.61,80.63,80.73,80.83,80.93,81.01,81.02,81.07,81.08,81.10,81.20,81.24,81.23,81.24,81.28,81.30,81.29,81.29,81.29,81.30,81.26,81.25,81.26,81.29,80.94,80.43,79.99,79.75,79.69,79.60,79.49,79.38,79.29,79.26,79.23,79.20,79.18,79.20,79.22,79.25,79.29,79.32,79.33,79.36,79.38,79.35,79.30,79.25,79.17,79.07,79.06,79.12,79.21,79.29,79.33,79.32,79.33,79.35,79.36,79.35,79.29,79.25,79.25,79.26,79.27,79.26,79.25,79.21,79.21,79.20,79.19,79.15,79.12,79.10,79.06,78.99,78.92,78.93,78.97,79.00,78.99,78.83,78.55,78.29,78.13,78.00,77.83,77.69,77.63,77.71,77.89,78.07,78.23,78.34,78.31,78.30,78.26,78.22,78.20
81.10,81.06,81.04,81.04,81.03,80.97,80.98,81.04,81.11,81.05,80.96,80.87,80.83,80.90,80.82,80.77,80.77,80.83,80.84,80.81,80.80,80.79,80.74,80.77,80.80,80.81,80.81,80.78,80.78,80.82,80.89,80.86,80.80,80.77,80.77,80.80,80.75,80.71,80.69,80.71,80.78,80.72,80.66,80.61,80.59,80.56,80.56,80.58,80.61,80.65,80.64,80.61,80.60,80.59,80.53,80.47,80.43,80.45,80.44,80.42,80.44,80.50,80.48,80.43,80.44,80.48,80.45,80.44,80.40,80.40,80.51,80.53,80.49,80.40,80.28,80.24,80.23,80.22,80.23,80.28,80.25,80.24,80.21,80.13,80.14,80.17,80.19,80.20,80.18,80.14,80.09,80.08,80.13,80.18,80.17,80.13,80.10,80.10,80.10,80.07,80.03,79.96,79.98,79.97,79.93,79.91,79.92,79.90,79.88,79.88,79.91,79.93,79.95,79.98,79.97,79.94,79.90,79.85,79.82,79.78,79.73,79.67,79.63,79.70,79.86,79.96,79.98,79.91,79.88,79.92,79.95,79.91,79.74,79.54,79.43,79.38,79.37,79.51,79.56,79.54,79.51,79.50,79.48,79.45,79.44,79.46,79.33,79.14,78.98,78.92,78.95,79.05,79.41,80.04,80.78,81.12,81.24,81.23,81.21,81.22,81.24,81.29,81.33,81.34,81.33,81.32,81.32,81.33,81.32,81.28,81.25,81.27,81.30,81.30,81.30,81.30,81.30,81.30,81.30,81.29,81.26,80.80,80.24,79.80,79.60,79.57,79.52,79.43,79.32,79.23,79.21,79.20,79.19,79.18,79.19,79.20,79.23,79.29,79.31,79.32,79.35,79.38,79.34,79.31,79.26,79.17,79.06,79.08,79.16,79.23,79.29,79.30,79.30,79.30,79.32,79.36,79.32,79.27,79.23,79.22,79.28,79.28,79.28,79.26,79.21,79.20,79.20,79.18,79.13,79.11,79.08,79.04,78.92,78.67,78.82,78.93,78.98,78.95,78.70,78.40,78.17,78.02,77.84,77.73,77.65,77.62,77.70,77.86,78.06,78.23,78.33,78.31,78.30,78.30,78.29,78.23
81.06,81.02,80.98,80.96,80.96,80.92,80.92,80.97,81.04,81.01,80.97,80.91,80.87,80.90,80.82,80.77,80.74,80.76,80.82,80.81,80.80,80.78,80.71,80.73,80.80,80.86,80.86,80.85,80.84,80.85,80.90,80.87,80.85,80.82,80.79,80.79,80.73,80.69,80.67,80.67,80.77,80.69,80.60,80.55,80.54,80.54,80.56,80.60,80.61,80.68,80.68,80.63,80.56,80.58,80.48,80.40,80.38,80.46,80.42,80.41,80.42,80.45,80.52,80.50,80.52,80.57,80.55,80.49,80.43,80.43,80.50,80.50,80.45,80.36,80.27,80.21,80.21,80.21,80.24,80.30,80.27,80.23,80.17,80.11,80.11,80.14,80.17,80.20,80.20,80.16,80.12,80.10,80.13,80.19,80.18,80.14,80.10,80.10,80.10,80.08,80.04,79.98,79.99,79.98,79.95,79.93,79.97,79.96,79.93,79.92,79.95,79.94,79.97,79.99,79.99,79.96,79.92,79.88,79.85,79.80,79.76,79.71,79.67,79.72,79.91,80.03,80.05,79.99,79.97,80.03,80.07,80.02,79.82,79.58,79.47,79.43,79.40,79.46,79.50,79.51,79.50,79.50,79.50,79.49,79.49,79.49,79.40,79.23,79.07,78.98,78.96,79.03,79.37,79.98,80.74,81.13,81.27,81.27,81.26,81.22,81.23,81.24,81.25,81.30,81.34,81.36,81.37,81.38,81.34,81.28,81.25,81.27,81.30,81.30,81.30,81.30,81.30,81.34,81.33,81.22,80.97,80.43,79.94,79.60,79.45,79.42,79.41,79.35,79.26,79.21,79.20,79.18,79.15,79.14,79.18,79.19,79.25,79.33,79.36,79.38,79.40,79.42,79.39,79.33,79.26,79.18,79.11,79.11,79.20,79.27,79.29,79.28,79.30,79.30,79.30,79.31,79.31,79.28,79.27,79.26,79.27,79.24,79.22,79.21,79.20,79.20,79.20,79.20,79.18,79.12,79.05,78.98,78.77,78.13,78.62,78.90,78.96,78.88,78.52,78.18,77.98,77.89,77.67,77.66,77.63,77.60,77.69,77.89,78.18,78.38,78.40,78.34,78.31,78.30,78.30,78.29
81.07,81.02,80.96,80.93,80.92,80.90,80.90,80.94,81.01,81.00,81.01,80.96,80.89,80.90,80.82,80.78,80.75,80.72,80.77,80.79,80.80,80.79,80.74,80.72,80.82,80.92,80.92,80.92,80.87,80.85,80.90,80.92,80.90,80.84,80.79,80.75,80.71,80.69,80.68,80.68,80.74,80.66,80.59,80.55,80.52,80.52,80.54,80.57,80.61,80.64,80.62,80.57,80.52,80.50,80.44,80.41,80.44,80.52,80.46,80.42,80.41,80.44,80.53,80.57,80.59,80.60,80.58,80.51,80.44,80.42,80.47,80.49,80.47,80.44,80.37,80.25,80.24,80.25,80.28,80.34,80.31,80.24,80.17,80.13,80.09,80.08,80.09,80.13,80.16,80.15,80.12,80.09,80.09,80.11,80.11,80.10,80.06,80.08,80.09,80.07,80.04,79.99,79.99,79.98,79.95,79.93,79.98,79.98,79.96,79.95,79.96,79.93,79.96,79.98,79.98,79.94,79.91,79.88,79.85,79.81,79.77,79.71,79.67,79.72,79.92,80.04,80.08,80.05,80.06,80.10,80.10,80.02,79.78,79.55,79.45,79.43,79.40,79.44,79.49,79.53,79.55,79.55,79.55,79.55,79.54,79.52,79.43,79.27,79.11,79.00,78.98,79.04,79.34,79.89,80.69,81.16,81.28,81.19,81.10,81.02,81.02,81.05,81.10,81.17,81.20,81.24,81.29,81.34,81.30,81.27,81.26,81.28,81.30,81.30,81.30,81.30,81.30,81.35,81.27,80.99,80.50,80.00,79.66,79.46,79.38,79.35,79.35,79.30,79.23,79.20,79.19,79.17,79.15,79.17,79.20,79.21,79.25,79.32,79.35,79.38,79.39,79.38,79.37,79.33,79.26,79.19,79.12,79.13,79.21,79.26,79.27,79.25,79.27,79.28,79.30,79.30,79.30,79.27,79.25,79.25,79.24,79.22,79.20,79.20,79.20,79.20,79.19,79.18,79.17,79.10,79.04,78.97,78.73,78.01,78.58,78.90,78.96,78.85,78.45,78.07,77.88,77.84,77.66,77.71,77.69,77.65,77.74,78.01,78.30,78.47,78.43,78.38,78.34,78.32,78.30,78.30
81.09,81.02,80.95,80.91,80.90,80.90,80.90,80.93,80.99,81.01,81.06,81.00,80.91,80.90,80.82,80.79,80.76,80.71,80.71,80.76,80.79,80.80,80.78,80.72,80.84,80.98,80.98,80.99,80.89,80.85,80.91,80.97,80.92,80.85,80.78,80.71,80.70,80.70,80.69,80.70,80.70,80.64,80.60,80.57,80.51,80.50,80.50,80.53,80.59,80.59,80.53,80.50,80.49,80.42,80.42,80.46,80.53,80.58,80.52,80.46,80.43,80.44,80.51,80.61,80.64,80.59,80.58,80.52,80.45,80.41,80.43,80.49,80.52,80.53,80.50,80.31,80.28,80.30,80.33,80.36,80.33,80.25,80.19,80.16,80.07,80.02,80.01,80.03,80.11,80.12,80.10,80.06,80.04,80.01,80.03,80.03,80.01,80.05,80.06,80.05,80.03,79.99,79.99,79.97,79.95,79.93,79.97,79.97,79.97,79.97,79.94,79.91,79.93,79.96,79.94,79.91,79.89,79.87,79.84,79.80,79.76,79.70,79.66,79.72,79.90,80.02,80.08,80.09,80.13,80.15,80.11,79.97,79.69,79.47,79.41,79.41,79.40,79.44,79.51,79.56,79.60,79.60,79.60,79.60,79.59,79.55,79.45,79.29,79.13,79.01,79.00,79.07,79.32,79.81,80.65,81.17,81.25,81.05,80.84,80.74,80.74,80.80,80.90,80.98,80.99,81.05,81.16,81.28,81.25,81.25,81.27,81.28,81.30,81.31,81.31,81.30,81.30,81.35,81.18,80.73,80.02,79.60,79.43,79.37,79.35,79.32,79.31,79.27,79.23,79.21,79.18,79.16,79.17,79.22,79.24,79.24,79.26,79.30,79.33,79.37,79.36,79.32,79.33,79.32,79.26,79.19,79.12,79.13,79.20,79.24,79.24,79.22,79.23,79.27,79.29,79.30,79.30,79.25,79.23,79.23,79.21,79.20,79.20,79.20,79.20,79.20,79.17,79.15,79.14,79.07,79.03,78.97,78.74,78.03,78.58,78.89,78.95,78.85,78.42,78.02,77.83,77.83,77.73,77.81,77.79,77.73,77.83,78.17,78.43,78.53,78.45,78.41,78.38,78.34,78.31,78.31
81.05,80.97,80.92,80.90,80.90,80.90,80.90,80.93,80.99,81.05,81.08,81.00,80.91,80.90,80.82,80.80,80.79,80.76,80.71,80.72,80.75,80.77,80.73,80.71,80.77,80.87,80.94,80.97,80.91,80.88,80.89,80.91,80.85,80.82,80.79,80.76,80.71,80.66,80.65,80.69,80.70,80.69,80.62,80.54,80.52,80.54,80.49,80.46,80.53,80.54,80.52,80.53,80.56,80.54,80.50,80.50,80.53,80.55,80.56,80.56,80.53,80.48,80.46,80.52,80.57,80.58,80.58,80.57,80.52,80.47,80.45,80.51,80.56,80.57,80.50,80.27,80.24,80.25,80.26,80.24,80.21,80.20,80.18,80.13,80.01,80.00,80.01,80.01,80.05,80.00,79.98,79.98,79.97,79.96,79.97,79.97,79.96,79.98,79.98,79.99,80.00,80.00,79.99,79.96,79.94,79.94,79.94,79.93,79.92,79.91,79.87,79.85,79.87,79.89,79.89,79.87,79.86,79.84,79.81,79.80,79.75,79.68,79.63,79.70,79.86,79.96,80.02,80.06,80.12,80.14,80.06,79.85,79.48,79.33,79.32,79.36,79.35,79.40,79.47,79.54,79.58,79.61,79.61,79.60,79.57,79.53,79.46,79.33,79.18,79.05,79.01,79.08,79.33,79.82,80.62,81.08,81.09,80.82,80.54,80.43,80.41,80.46,80.56,80.66,80.69,80.79,80.97,81.20,81.25,81.27,81.27,81.25,81.29,81.30,81.32,81.33,81.34,81.35,81.14,80.66,79.92,79.55,79.43,79.41,79.39,79.36,79.33,79.29,79.26,79.24,79.18,79.14,79.15,79.24,79.27,79.28,79.29,79.31,79.35,79.39,79.36,79.33,79.36,79.33,79.26,79.19,79.12,79.11,79.19,79.23,79.23,79.24,79.26,79.28,79.29,79.30,79.26,79.23,79.21,79.22,79.17,79.18,79.20,79.20,79.20,79.17,79.14,79.12,79.11,79.04,79.01,78.96,78.73,78.00,78.57,78.87,78.94,78.91,78.48,78.07,77.86,77.86,77.82,77.86,77.88,77.90,77.98,78.30,78.53,78.60,78.53,78.47,78.45,78.41,78.36,78.36
81.06,80.96,80.92,80.91,80.90,80.90,80.90,80.92,80.97,81.04,81.06,80.99,80.92,80.90,80.82,80.80,80.80,80.79,80.74,80.71,80.72,80.73,80.69,80.71,80.74,80.81,80.93,80.94,80.92,80.88,80.85,80.84,80.81,80.79,80.77,80.74,80.70,80.64,80.62,80.67,80.71,80.73,80.67,80.57,80.56,80.54,80.47,80.44,80.51,80.54,80.53,80.55,80.59,80.58,80.56,80.55,80.55,80.56,80.58,80.59,80.57,80.51,80.43,80.48,80.53,80.57,80.58,80.60,80.57,80.52,80.47,80.53,80.58,80.59,80.52,80.29,80.24,80.24,80.23,80.18,80.15,80.16,80.15,80.11,80.00,80.02,80.03,80.01,80.01,79.96,79.95,79.96,79.96,79.96,79.96,79.96,79.96,79.96,79.97,79.99,80.02,80.04,80.00,79.99,79.98,79.98,79.97,79.95,79.92,79.89,79.85,79.84,79.85,79.86,79.86,79.86,79.85,79.83,79.81,79.81,79.75,79.67,79.62,79.70,79.84,79.92,79.98,80.05,80.10,80.13,80.03,79.78,79.35,79.22,79.24,79.31,79.31,79.38,79.46,79.52,79.56,79.61,79.63,79.61,79.57,79.53,79.48,79.37,79.23,79.09,79.04,79.10,79.31,79.74,80.54,80.97,80.92,80.57,80.22,80.10,80.06,80.10,80.20,80.33,80.38,80.51,80.73,81.05,81.20,81.27,81.28,81.26,81.30,81.32,81.34,81.34,81.35,81.35,81.20,80.77,80.01,79.61,79.47,79.44,79.41,79.38,79.38,79.36,79.32,79.30,79.21,79.16,79.18,79.32,79.34,79.32,79.31,79.33,79.38,79.39,79.36,79.34,79.38,79.33,79.26,79.19,79.12,79.10,79.17,79.21,79.21,79.24,79.25,79.26,79.26,79.27,79.23,79.21,79.20,79.20,79.14,79.15,79.16,79.17,79.17,79.16,79.13,79.10,79.09,79.02,79.00,78.96,78.72,77.95,78.50,78.82,78.92,78.92,78.51,78.09,77.87,77.88,77.87,77.91,77.95,77.99,78.07,78.40,78.62,78.66,78.55,78.52,78.50,78.46,78.41,78.39
81.11,80.99,80.94,80.92,80.90,80.90,80.90,80.90,80.92,80.99,81.00,80.97,80.93,80.90,80.82,80.80,80.80,80.80,80.78,80.73,80.68,80.66,80.66,80.72,80.74,80.80,80.95,80.90,80.89,80.86,80.80,80.77,80.79,80.78,80.73,80.66,80.65,80.62,80.62,80.66,80.74,80.77,80.74,80.67,80.63,80.53,80.45,80.44,80.51,80.57,80.56,80.56,80.59,80.56,80.59,80.60,80.60,80.59,80.56,80.55,80.54,80.52,80.43,80.48,80.53,80.55,80.57,80.62,80.61,80.56,80.51,80.55,80.59,80.60,80.55,80.35,80.27,80.25,80.23,80.19,80.14,80.12,80.11,80.10,80.03,80.06,80.06,80.02,80.00,80.00,80.00,80.00,80.00,80.00,80.00,80.00,80.00,80.00,80.00,80.03,80.07,80.09,80.03,80.04,80.06,80.05,80.05,80.01,79.97,79.92,79.86,79.87,79.88,79.88,79.87,79.87,79.85,79.84,79.83,79.84,79.76,79.67,79.62,79.70,79.82,79.90,79.97,80.04,80.09,80.11,80.01,79.75,79.28,79.14,79.19,79.28,79.29,79.39,79.46,79.50,79.52,79.60,79.64,79.62,79.58,79.54,79.50,79.40,79.27,79.12,79.09,79.13,79.26,79.59,80.40,80.85,80.73,80.30,79.89,79.75,79.71,79.73,79.82,79.98,80.06,80.20,80.44,80.83,81.12,81.26,81.30,81.29,81.33,81.36,81.36,81.34,81.32,81.35,81.33,81.05,80.25,79.76,79.56,79.48,79.43,79.40,79.47,79.47,79.42,79.39,79.28,79.22,79.26,79.45,79.44,79.36,79.34,79.37,79.40,79.40,79.37,79.34,79.38,79.33,79.26,79.19,79.12,79.10,79.15,79.19,79.20,79.21,79.21,79.21,79.21,79.21,79.20,79.20,79.20,79.19,79.13,79.11,79.10,79.10,79.10,79.16,79.14,79.11,79.09,79.02,79.00,78.96,78.71,77.89,78.40,78.74,78.89,78.88,78.52,78.09,77.87,77.89,77.90,77.96,77.99,78.02,78.10,78.47,78.69,78.70,78.53,78.59,78.54,78.50,78.48,78.40
81.11,81.02,80.98,80.95,80.91,80.90,80.90,80.90,80.92,81.02,81.03,81.02,80.98,80.87,80.79,80.79,80.80,80.81,80.84,80.78,80.69,80.62,80.62,80.71,80.76,80.81,80.89,80.88,80.89,80.85,80.76,80.73,80.72,80.72,80.72,80.70,80.70,80.69,80.69,80.73,80.77,80.79,80.78,80.75,80.71,80.61,80.53,80.49,80.51,80.55,80.59,80.61,80.60,80.61,80.60,80.60,80.58,80.55,80.49,80.50,80.51,80.50,80.43,80.47,80.48,80.48,80.54,80.58,80.61,80.58,80.50,80.49,80.53,80.55,80.52,80.41,80.32,80.28,80.26,80.22,80.12,80.04,80.02,80.05,80.03,80.07,80.08,80.04,80.00,80.01,80.00,79.98,79.95,79.96,79.99,80.00,80.00,79.98,79.99,80.02,80.06,80.06,80.05,80.04,80.02,80.00,79.97,79.98,79.97,79.93,79.92,79.90,79.89,79.89,79.89,79.89,79.88,79.87,79.84,79.80,79.73,79.65,79.62,79.69,79.83,79.93,80.00,80.04,80.09,80.10,80.03,79.81,79.34,79.11,79.13,79.24,79.27,79.37,79.45,79.51,79.55,79.62,79.62,79.58,79.53,79.52,79.50,79.43,79.32,79.20,79.16,79.17,79.25,79.51,80.28,80.76,80.65,80.18,79.68,79.51,79.46,79.47,79.50,79.57,79.67,79.79,79.92,80.05,80.11,80.16,80.24,80.41,80.87,81.17,81.31,81.32,81.31,81.34,81.38,81.22,80.63,79.98,79.64,79.50,79.47,79.42,79.44,79.45,79.45,79.45,79.32,79.24,79.27,79.42,79.36,79.32,79.31,79.34,79.39,79.41,79.40,79.38,79.39,79.34,79.26,79.19,79.12,79.10,79.15,79.19,79.21,79.24,79.22,79.21,79.21,79.21,79.20,79.19,79.17,79.14,79.10,79.10,79.10,79.10,79.10,79.13,79.12,79.09,79.04,79.01,78.97,78.94,78.71,77.91,78.39,78.75,78.90,78.83,78.47,78.07,77.87,77.88,77.86,77.87,77.93,78.03,78.20,78.52,78.68,78.69,78.59,78.61,78.57,78.53,78.48,78.40
81.13,81.04,81.01,80.97,80.91,80.90,80.90,80.90,80.92,81.03,81.06,81.06,81.00,80.84,80.77,80.78,80.81,80.83,80.89,80.81,80.70,80.62,80.60,80.67,80.74,80.79,80.81,80.85,80.86,80.81,80.73,80.72,80.70,80.70,80.72,80.76,80.76,80.76,80.78,80.82,80.82,80.81,80.80,80.79,80.77,80.69,80.62,80.56,80.52,80.53,80.60,80.63,80.61,80.64,80.60,80.57,80.54,80.52,80.46,80.47,80.50,80.51,80.46,80.46,80.45,80.45,80.54,80.55,80.59,80.59,80.49,80.45,80.48,80.50,80.48,80.44,80.35,80.31,80.29,80.24,80.11,80.02,79.99,80.02,80.01,80.06,80.07,80.03,79.99,80.00,80.00,79.98,79.95,79.96,79.99,80.01,80.00,79.98,79.99,80.02,80.04,80.02,80.05,80.03,79.99,79.95,79.89,79.92,79.93,79.91,79.92,79.89,79.89,79.89,79.89,79.89,79.89,79.89,79.86,79.80,79.71,79.63,79.60,79.67,79.83,79.93,79.99,80.01,80.05,80.06,80.03,79.87,79.40,79.10,79.09,79.21,79.23,79.34,79.44,79.52,79.56,79.63,79.61,79.56,79.51,79.51,79.52,79.47,79.38,79.26,79.21,79.20,79.25,79.46,80.11,80.52,80.41,79.98,79.52,79.37,79.32,79.31,79.29,79.27,79.33,79.41,79.46,79.43,79.38,79.40,79.52,79.80,80.49,81.00,81.26,81.30,81.30,81.33,81.39,81.33,80.98,80.32,79.88,79.64,79.54,79.46,79.42,79.42,79.45,79.47,79.34,79.27,79.28,79.39,79.33,79.31,79.31,79.33,79.41,79.44,79.44,79.43,79.41,79.34,79.26,79.19,79.12,79.11,79.15,79.18,79.21,79.25,79.23,79.21,79.21,79.22,79.20,79.18,79.14,79.10,79.07,79.09,79.09,79.09,79.10,79.10,79.10,79.06,79.01,79.00,78.96,78.92,78.71,77.93,78.38,78.74,78.90,78.82,78.46,78.10,77.89,77.86,77.85,77.85,77.94,78.12,78.33,78.59,78.69,78.69,78.66,78.65,78.60,78.54,78.48,78.40
81.17,81.06,81.01,80.97,80.91,80.90,80.90,80.90,80.92,81.01,81.06,81.06,80.98,80.82,80.78,80.79,80.82,80.87,80.90,80.79,80.71,80.66,80.60,80.57,80.65,80.73,80.73,80.80,80.78,80.74,80.72,80.77,80.76,80.73,80.74,80.87,80.87,80.87,80.89,80.94,80.89,80.83,80.80,80.80,80.79,80.77,80.75,80.69,80.56,80.52,80.58,80.61,80.62,80.67,80.56,80.48,80.46,80.50,80.49,80.50,80.53,80.58,80.55,80.47,80.46,80.51,80.57,80.54,80.56,80.56,80.48,80.43,80.46,80.46,80.42,80.41,80.38,80.34,80.29,80.25,80.13,80.08,80.07,80.04,79.97,80.03,80.04,79.97,79.93,79.98,80.01,80.03,80.05,80.01,80.03,80.03,79.99,80.01,80.05,80.05,80.01,79.96,80.03,80.02,79.97,79.92,79.82,79.81,79.82,79.81,79.82,79.83,79.85,79.87,79.87,79.87,79.88,79.88,79.88,79.84,79.73,79.61,79.55,79.66,79.83,79.90,79.91,79.92,79.93,79.95,79.97,79.89,79.48,79.12,79.09,79.18,79.17,79.27,79.41,79.52,79.56,79.60,79.60,79.58,79.55,79.55,79.58,79.54,79.45,79.31,79.23,79.22,79.27,79.44,79.83,79.97,79.84,79.60,79.43,79.40,79.37,79.33,79.28,79.17,79.12,79.12,79.15,79.17,79.28,79.40,79.55,79.78,80.35,80.88,81.20,81.31,81.29,81.30,81.34,81.36,81.29,80.89,80.40,79.98,79.70,79.52,79.44,79.40,79.39,79.41,79.34,79.31,79.33,79.38,79.39,79.39,79.38,79.37,79.50,79.52,79.53,79.50,79.43,79.33,79.26,79.19,79.12,79.12,79.15,79.18,79.20,79.21,79.21,79.20,79.21,79.24,79.19,79.15,79.10,79.07,79.03,79.06,79.08,79.07,79.09,79.10,79.08,79.05,79.01,79.00,78.97,78.94,78.72,77.92,78.34,78.70,78.88,78.87,78.54,78.20,77.95,77.84,77.91,77.95,78.12,78.36,78.54,78.68,78.71,78.71,78.73,78.69,78.61,78.54,78.48,78.40
81.18,81.09,81.03,80.99,80.95,80.91,80.90,80.92,80.95,80.96,81.02,81.02,80.96,80.81,80.79,80.80,80.83,80.88,80.85,80.76,80.68,80.64,80.60,80.54,80.57,80.63,80.70,80.74,80.76,80.77,80.78,80.76,80.74,80.70,80.69,80.81,80.90,80.91,80.90,80.92,80.85,80.84,80.82,80.80,80.80,80.79,80.78,80.72,80.59,80.55,80.57,80.58,80.57,80.61,80.58,80.57,80.59,80.62,80.61,80.61,80.62,80.63,80.55,80.44,80.43,80.50,80.53,80.53,80.54,80.53,80.48,80.43,80.43,80.42,80.38,80.37,80.34,80.29,80.23,80.17,80.08,80.06,80.05,80.02,79.94,79.98,79.98,79.95,79.94,79.97,80.01,80.03,80.04,80.01,80.01,79.99,79.96,79.98,80.00,79.98,79.94,79.91,79.94,79.93,79.88,79.84,79.79,79.78,79.77,79.76,79.75,79.76,79.76,79.76,79.76,79.79,79.82,79.85,79.85,79.83,79.74,79.61,79.53,79.63,79.77,79.84,79.87,79.90,79.91,79.92,79.94,79.87,79.53,79.16,79.09,79.14,79.12,79.22,79.39,79.52,79.56,79.60,79.62,79.62,79.60,79.59,79.61,79.59,79.51,79.38,79.28,79.26,79.31,79.43,79.63,79.65,79.56,79.46,79.40,79.36,79.28,79.19,79.09,78.99,78.95,78.97,79.03,79.13,79.31,79.47,79.64,79.85,80.29,80.80,81.18,81.35,81.37,81.36,81.35,81.35,81.35,81.13,80.78,80.41,80.09,79.82,79.65,79.56,79.53,79.52,79.44,79.40,79.41,79.47,79.49,79.49,79.46,79.45,79.54,79.57,79.56,79.52,79.41,79.30,79.22,79.16,79.12,79.15,79.15,79.15,79.16,79.17,79.19,79.19,79.18,79.20,79.16,79.12,79.08,79.04,79.01,79.04,79.05,79.04,79.06,79.07,79.05,79.03,79.00,78.98,78.91,78.89,78.71,77.96,78.35,78.69,78.89,78.92,78.61,78.23,77.97,77.89,77.96,78.07,78.27,78.52,78.70,78.76,78.76,78.75,78.77,78.71,78.62,78.55,78.49,78.44
81.18,81.13,81.06,81.01,80.99,80.92,80.90,80.93,80.97,80.91,80.95,80.97,80.94,80.81,80.79,80.80,80.83,80.85,80.78,80.72,80.65,80.60,80.60,80.54,80.51,80.55,80.66,80.69,80.76,80.83,80.86,80.73,80.69,80.64,80.62,80.71,80.91,80.92,80.88,80.87,80.80,80.83,80.83,80.80,80.80,80.76,80.75,80.71,80.61,80.58,80.57,80.55,80.51,80.55,80.63,80.71,80.77,80.76,80.74,80.73,80.71,80.67,80.52,80.40,80.40,80.47,80.45,80.51,80.51,80.49,80.49,80.44,80.41,80.39,80.36,80.33,80.28,80.22,80.16,80.08,80.03,80.03,80.03,80.00,79.93,79.93,79.94,79.95,79.97,79.98,80.01,80.04,80.03,80.00,79.98,79.95,79.93,79.93,79.93,79.92,79.90,79.87,79.86,79.83,79.80,79.77,79.78,79.78,79.76,79.73,79.72,79.71,79.67,79.65,79.66,79.71,79.77,79.81,79.82,79.81,79.74,79.62,79.52,79.59,79.70,79.77,79.83,79.89,79.90,79.91,79.90,79.83,79.57,79.21,79.08,79.08,79.06,79.17,79.37,79.52,79.56,79.62,79.66,79.66,79.64,79.62,79.64,79.63,79.57,79.44,79.33,79.30,79.34,79.42,79.48,79.45,79.42,79.41,79.41,79.31,79.17,79.01,78.87,78.81,78.82,78.88,78.98,79.15,79.37,79.55,79.73,79.95,80.27,80.76,81.16,81.40,81.48,81.43,81.38,81.34,81.32,81.25,81.07,80.81,80.50,80.18,79.92,79.78,79.73,79.68,79.56,79.49,79.49,79.56,79.58,79.57,79.54,79.53,79.57,79.59,79.57,79.51,79.38,79.27,79.19,79.13,79.11,79.17,79.14,79.13,79.14,79.14,79.17,79.16,79.14,79.14,79.12,79.10,79.07,79.01,79.00,79.02,79.02,79.01,79.03,79.03,79.02,79.01,78.99,78.95,78.84,78.83,78.70,78.00,78.36,78.69,78.90,78.98,78.65,78.24,77.99,77.95,78.00,78.18,78.40,78.64,78.83,78.83,78.80,78.78,78.78,78.72,78.64,78.56,78.50,78.48
81.17,81.12,81.06,80.99,80.95,80.91,80.89,80.89,80.90,80.88,80.86,80.88,80.88,80.79,80.74,80.77,80.78,80.73,80.66,80.64,80.62,80.62,80.60,80.57,80.53,80.51,80.56,80.66,80.74,80.80,80.82,80.78,80.69,80.61,80.60,80.68,80.85,80.85,80.83,80.83,80.76,80.73,80.74,80.77,80.76,80.62,80.60,80.62,80.58,80.53,80.54,80.55,80.55,80.63,80.71,80.80,80.87,80.86,80.80,80.77,80.75,80.69,80.55,80.44,80.39,80.39,80.33,80.39,80.45,80.48,80.50,80.47,80.42,80.37,80.33,80.27,80.23,80.20,80.16,80.09,80.06,80.08,80.09,80.04,79.97,79.99,80.02,80.04,80.09,80.07,80.08,80.09,80.10,80.06,80.04,80.00,79.95,79.95,79.99,80.03,80.03,79.96,79.93,79.87,79.81,79.80,79.85,79.86,79.83,79.79,79.76,79.75,79.72,79.71,79.74,79.78,79.82,79.85,79.85,79.82,79.75,79.62,79.51,79.57,79.67,79.73,79.77,79.81,79.82,79.83,79.83,79.79,79.59,79.26,79.08,79.00,78.94,79.09,79.34,79.52,79.59,79.67,79.71,79.71,79.67,79.64,79.66,79.65,79.59,79.46,79.35,79.31,79.33,79.40,79.48,79.50,79.50,79.49,79.46,79.32,79.14,78.97,78.84,78.82,78.83,78.87,78.98,79.19,79.44,79.64,79.82,80.01,80.33,80.78,81.16,81.41,81.55,81.48,81.40,81.36,81.36,81.28,81.10,80.88,80.63,80.40,80.19,80.03,79.91,79.77,79.61,79.53,79.50,79.52,79.50,79.50,79.51,79.52,79.53,79.54,79.53,79.48,79.36,79.26,79.18,79.11,79.07,79.15,79.17,79.17,79.16,79.13,79.13,79.12,79.13,79.16,79.12,79.08,79.03,79.00,78.95,78.98,79.00,79.00,79.01,79.01,79.01,79.00,78.99,78.93,78.85,78.81,78.66,77.98,78.35,78.68,78.91,79.02,78.66,78.26,77.99,77.94,78.05,78.20,78.44,78.67,78.81,78.81,78.76,78.73,78.73,78.76,78.66,78.59,78.56,78.50
81.12,81.10,81.05,80.99,80.95,80.91,80.88,80.86,80.85,80.83,80.80,80.81,80.81,80.75,80.70,80.73,80.73,80.67,80.62,80.62,80.63,80.63,80.60,80.56,80.52,80.49,80.49,80.58,80.68,80.75,80.80,80.80,80.71,80.63,80.59,80.65,80.76,80.79,80.80,80.82,80.74,80.66,80.66,80.70,80.67,80.52,80.49,80.55,80.60,80.55,80.56,80.57,80.60,80.66,80.74,80.82,80.88,80.88,80.80,80.76,80.72,80.66,80.55,80.47,80.41,80.34,80.28,80.35,80.42,80.48,80.52,80.48,80.41,80.36,80.34,80.27,80.23,80.20,80.17,80.11,80.09,80.11,80.11,80.05,80.00,80.04,80.07,80.09,80.13,80.11,80.10,80.11,80.12,80.08,80.05,79.99,79.92,79.94,79.99,80.04,80.06,79.99,79.95,79.89,79.84,79.84,79.89,79.90,79.87,79.84,79.81,79.80,79.77,79.75,79.78,79.81,79.83,79.84,79.84,79.82,79.73,79.60,79.50,79.57,79.66,79.71,79.74,79.77,79.75,79.74,79.72,79.65,79.45,79.17,79.01,78.94,78.88,79.06,79.33,79.53,79.61,79.72,79.74,79.72,79.70,79.68,79.68,79.66,79.60,79.48,79.36,79.33,79.35,79.41,79.50,79.55,79.56,79.55,79.51,79.36,79.16,78.97,78.83,78.84,78.84,78.88,79.00,79.25,79.51,79.72,79.90,80.08,80.42,80.82,81.16,81.41,81.59,81.50,81.41,81.36,81.36,81.26,81.09,80.90,80.71,80.53,80.34,80.16,80.00,79.81,79.65,79.56,79.51,79.50,79.48,79.48,79.49,79.48,79.48,79.48,79.47,79.44,79.34,79.25,79.17,79.10,79.05,79.12,79.15,79.16,79.15,79.11,79.11,79.10,79.11,79.14,79.12,79.06,79.02,78.99,78.94,78.96,78.99,79.00,79.00,79.00,79.00,78.99,78.97,78.91,78.87,78.84,78.67,77.98,78.37,78.71,78.94,79.04,78.71,78.33,78.08,78.04,78.21,78.32,78.50,78.69,78.80,78.81,78.76,78.72,78.74,78.79,78.69,78.62,78.59,78.52
81.04,81.05,81.03,81.01,80.99,80.92,80.88,80.84,80.80,80.76,80.75,80.75,80.74,80.70,80.66,80.68,80.69,80.66,80.65,80.65,80.65,80.64,80.60,80.53,80.50,80.49,80.45,80.49,80.58,80.70,80.80,80.80,80.77,80.67,80.57,80.60,80.67,80.72,80.77,80.83,80.74,80.61,80.58,80.61,80.52,80.45,80.42,80.49,80.65,80.62,80.61,80.63,80.66,80.67,80.74,80.79,80.82,80.85,80.76,80.69,80.64,80.58,80.51,80.51,80.43,80.31,80.28,80.35,80.43,80.50,80.55,80.49,80.39,80.35,80.37,80.30,80.27,80.23,80.18,80.16,80.12,80.11,80.08,80.02,80.02,80.07,80.10,80.11,80.12,80.11,80.10,80.11,80.12,80.09,80.02,79.93,79.85,79.90,79.94,79.99,80.02,79.98,79.93,79.89,79.88,79.89,79.90,79.90,79.90,79.89,79.88,79.86,79.82,79.79,79.80,79.80,79.81,79.81,79.81,79.80,79.70,79.56,79.48,79.58,79.67,79.72,79.74,79.74,79.68,79.63,79.57,79.46,79.18,78.97,78.90,78.90,78.86,79.06,79.33,79.54,79.65,79.77,79.74,79.71,79.71,79.74,79.71,79.67,79.61,79.49,79.37,79.35,79.38,79.46,79.54,79.58,79.60,79.59,79.55,79.42,79.21,79.00,78.84,78.86,78.85,78.90,79.04,79.32,79.58,79.80,79.98,80.15,80.54,80.86,81.15,81.39,81.60,81.50,81.41,81.36,81.34,81.21,81.06,80.90,80.75,80.59,80.39,80.20,80.02,79.81,79.67,79.58,79.52,79.50,79.50,79.50,79.47,79.43,79.41,79.41,79.40,79.38,79.33,79.25,79.17,79.10,79.04,79.08,79.10,79.11,79.10,79.10,79.10,79.10,79.09,79.10,79.10,79.05,79.01,78.98,78.93,78.96,78.99,79.00,79.00,79.00,79.00,78.97,78.92,78.90,78.90,78.90,78.72,78.00,78.41,78.77,78.98,79.03,78.79,78.45,78.22,78.22,78.46,78.52,78.58,78.68,78.79,78.83,78.78,78.75,78.79,78.82,78.71,78.64,78.61,78.55
80.97,80.97,80.97,80.96,80.95,80.91,80.87,80.84,80.83,80.74,80.78,80.81,80.81,80.79,80.73,80.77,80.79,80.77,80.70,80.65,80.63,80.61,80.56,80.51,80.52,80.54,80.51,80.45,80.49,80.61,80.74,80.66,80.61,80.56,80.55,80.60,80.62,80.65,80.65,80.61,80.61,80.52,80.48,80.51,80.50,80.48,80.49,80.57,80.69,80.71,80.68,80.69,80.74,80.74,80.77,80.80,80.81,80.82,80.73,80.66,80.61,80.59,80.56,80.58,80.50,80.36,80.36,80.43,80.50,80.55,80.56,80.45,80.36,80.32,80.33,80.31,80.33,80.30,80.24,80.22,80.13,80.10,80.07,80.01,80.02,80.07,80.10,80.08,80.05,80.04,80.04,80.04,80.03,79.98,79.95,79.91,79.88,79.92,79.96,79.99,79.98,79.93,79.91,79.89,79.86,79.84,79.84,79.85,79.87,79.90,79.89,79.87,79.83,79.80,79.80,79.80,79.80,79.81,79.82,79.84,79.72,79.59,79.50,79.58,79.67,79.71,79.72,79.75,79.73,79.66,79.59,79.53,79.40,79.15,78.98,78.87,78.80,78.97,79.27,79.51,79.62,79.75,79.73,79.71,79.72,79.75,79.72,79.68,79.62,79.53,79.44,79.40,79.41,79.47,79.55,79.59,79.59,79.56,79.51,79.41,79.20,78.97,78.80,78.78,78.79,78.90,79.10,79.41,79.67,79.88,80.05,80.21,80.54,80.90,81.17,81.34,81.42,81.40,81.38,81.37,81.36,81.25,81.10,80.91,80.72,80.56,80.40,80.25,80.09,79.91,79.69,79.54,79.47,79.49,79.53,79.53,79.50,79.46,79.45,79.42,79.41,79.39,79.33,79.25,79.16,79.08,79.03,79.07,79.11,79.13,79.11,79.10,79.10,79.08,79.07,79.09,79.10,79.06,79.01,78.97,78.95,78.97,78.99,79.00,79.00,79.00,78.99,78.96,78.91,78.90,78.90,78.90,78.73,78.03,78.44,78.79,78.96,78.94,78.73,78.48,78.37,78.45,78.54,e,e,e,e,e,e,e,e,78.86,78.81,78.73,78.67,78.64
80.94,80.93,80.92,80.92,80.92,80.89,80.86,80.86,80.85,80.71,80.79,80.84,80.85,80.84,80.80,80.83,80.85,80.83,80.74,80.68,80.63,80.60,80.57,80.54,80.55,80.59,80.58,80.45,80.43,80.52,80.65,80.53,80.48,80.49,80.53,80.57,80.56,80.56,80.52,80.46,80.49,80.45,80.42,80.44,80.49,80.48,80.53,80.62,80.72,80.77,80.75,80.75,80.80,80.81,80.82,80.82,80.81,80.79,80.71,80.64,80.60,80.59,80.60,80.62,80.53,80.40,80.41,80.50,80.56,80.59,80.57,80.44,80.37,80.33,80.32,80.35,80.37,80.35,80.30,80.25,80.15,80.10,80.06,80.03,80.05,80.08,80.09,80.07,80.02,79.99,79.99,80.00,79.98,79.94,79.92,79.91,79.90,79.92,79.98,79.99,79.95,79.90,79.89,79.88,79.85,79.80,79.78,79.81,79.85,79.89,79.89,79.88,79.85,79.82,79.81,79.81,79.80,79.81,79.82,79.83,79.72,79.58,79.50,79.57,79.67,79.70,79.72,79.77,79.78,79.68,79.61,79.58,79.59,79.32,79.05,78.85,78.77,78.92,79.22,79.47,79.60,79.71,79.73,79.72,79.72,79.75,79.72,79.68,79.63,79.56,79.49,79.44,79.45,79.50,79.57,79.59,79.57,79.53,79.48,79.39,79.20,78.99,78.83,78.80,78.81,78.95,79.21,79.51,79.76,79.96,80.13,80.29,80.57,80.91,81.16,81.28,81.30,81.33,81.36,81.37,81.35,81.27,81.11,80.92,80.72,80.57,80.45,80.31,80.16,80.00,79.71,79.51,79.42,79.46,79.53,79.53,79.49,79.46,79.46,79.44,79.43,79.41,79.33,79.24,79.15,79.07,79.02,79.06,79.11,79.13,79.11,79.10,79.10,79.08,79.06,79.08,79.09,79.07,79.02,78.97,78.96,78.97,78.99,79.00,78.99,79.00,78.98,78.94,78.91,78.90,78.90,78.90,78.72,78.04,78.45,78.79,78.96,78.94,78.73,78.57,78.55,78.65,78.59,e,e,e,e,e,e,e,e,78.90,78.88,78.81,78.74,78.72
80.98,80.93,80.91,80.90,80.90,80.84,80.86,80.89,80.86,80.66,80.74,80.83,80.87,80.82,80.86,80.84,80.81,80.80,80.79,80.73,80.66,80.62,80.67,80.61,80.59,80.62,80.66,80.53,80.44,80.45,80.51,80.43,80.41,80.45,80.50,80.50,80.44,80.43,80.42,80.40,80.42,80.41,80.41,80.43,80.50,80.44,80.52,80.64,80.72,80.78,80.80,80.80,80.83,80.88,80.88,80.87,80.85,80.78,80.71,80.65,80.61,80.60,80.60,80.58,80.50,80.40,80.43,80.54,80.59,80.59,80.57,80.50,80.45,80.39,80.34,80.42,80.40,80.38,80.33,80.23,80.19,80.12,80.08,80.09,80.13,80.12,80.10,80.09,80.05,79.98,79.97,80.00,80.00,79.99,79.97,79.93,79.89,79.91,79.97,79.99,79.95,79.88,79.86,79.87,79.86,79.80,79.73,79.78,79.84,79.87,79.87,79.88,79.88,79.87,79.85,79.82,79.81,79.80,79.80,79.78,79.66,79.53,79.47,79.56,79.67,79.71,79.75,79.80,79.80,79.70,79.61,79.59,79.69,79.46,79.11,78.82,78.78,78.92,79.20,79.44,79.58,79.67,79.71,79.73,79.73,79.74,79.73,79.69,79.63,79.59,79.52,79.48,79.49,79.55,79.61,79.60,79.57,79.51,79.45,79.37,79.23,79.09,78.99,78.97,78.97,79.11,79.38,79.66,79.86,80.04,80.21,80.38,80.63,80.89,81.09,81.22,81.30,81.32,81.32,81.31,81.28,81.22,81.10,80.95,80.79,80.67,80.55,80.40,80.22,80.06,79.74,79.50,79.40,79.43,79.48,79.48,79.45,79.42,79.44,79.45,79.46,79.44,79.32,79.21,79.12,79.06,79.02,79.06,79.09,79.11,79.10,79.10,79.10,79.08,79.06,79.05,79.08,79.07,79.03,79.00,78.97,78.95,78.97,78.98,78.96,78.98,78.96,78.92,78.90,78.90,78.90,78.88,78.70,78.04,78.45,78.79,78.99,79.07,78.83,78.75,78.77,78.82,e,e,e,e,e,e,e,e,e,78.90,78.90,78.86,78.81,78.76
81.00,80.92,80.90,80.88,80.85,80.79,80.84,80.89,80.85,80.66,80.68,80.79,80.87,80.85,80.89,80.83,80.80,80.84,80.82,80.75,80.68,80.65,80.69,80.62,80.60,80.61,80.63,80.54,80.46,80.43,80.44,80.40,80.40,80.42,80.45,80.45,80.41,80.40,80.40,80.39,80.40,80.41,80.43,80.46,80.50,80.44,80.51,80.63,80.72,80.80,80.84,80.86,80.86,80.89,80.87,80.85,80.82,80.76,80.69,80.65,80.62,80.60,80.58,80.55,80.47,80.40,80.42,80.52,80.58,80.59,80.58,80.49,80.43,80.37,80.32,80.38,80.37,80.37,80.35,80.28,80.20,80.09,80.03,80.08,80.12,80.11,80.11,80.12,80.10,80.03,80.00,80.00,80.00,80.00,79.98,79.93,79.87,79.90,79.97,79.99,79.96,79.91,79.88,79.88,79.85,79.77,79.70,79.74,79.78,79.81,79.81,79.83,79.84,79.83,79.80,79.81,79.80,79.80,79.78,79.75,79.64,79.51,79.44,79.53,79.66,79.71,79.73,79.76,79.75,79.66,79.59,79.59,79.71,79.50,79.14,78.84,78.82,79.01,79.29,79.51,79.58,79.65,79.68,79.70,79.72,79.74,79.73,79.70,79.65,79.62,79.56,79.51,79.50,79.55,79.60,79.60,79.57,79.51,79.46,79.40,79.29,79.20,79.15,79.13,79.16,79.30,79.52,79.77,79.94,80.11,80.29,80.49,80.71,80.91,81.08,81.21,81.30,81.31,81.30,81.29,81.27,81.20,81.09,80.97,80.83,80.73,80.64,80.52,80.38,80.21,79.80,79.51,79.36,79.37,79.40,79.42,79.41,79.41,79.45,79.47,79.48,79.45,79.30,79.18,79.12,79.06,79.00,79.05,79.09,79.10,79.10,79.10,79.10,79.08,79.07,79.06,79.06,79.04,79.01,78.97,78.95,78.93,78.93,78.94,78.93,78.95,78.93,78.91,78.90,78.90,78.88,78.85,78.68,78.09,78.46,78.78,79.01,79.14,79.07,78.97,78.90,78.88,e,e,e,e,e,e,e,e,e,78.90,78.90,78.87,78.82,78.79
81.00,80.91,80.88,80.87,80.81,80.75,80.83,80.88,80.84,80.67,80.64,80.74,80.88,80.90,80.90,80.83,80.81,80.88,80.84,80.76,80.70,80.68,80.68,80.62,80.60,80.59,80.57,80.55,80.49,80.44,80.41,80.40,80.40,80.39,80.40,80.40,80.40,80.40,80.40,80.42,80.42,80.44,80.47,80.50,80.49,80.46,80.52,80.63,80.73,80.83,80.88,80.90,80.90,80.89,80.85,80.81,80.77,80.72,80.67,80.65,80.63,80.59,80.57,80.52,80.47,80.41,80.40,80.47,80.55,80.59,80.57,80.46,80.38,80.33,80.31,80.31,80.33,80.35,80.34,80.32,80.19,80.03,79.97,80.07,80.09,80.11,80.12,80.14,80.13,80.08,80.03,80.00,80.00,80.00,79.98,79.93,79.86,79.88,79.96,79.99,79.97,79.94,79.91,79.89,79.83,79.75,79.68,79.70,79.73,79.75,79.76,79.78,79.78,79.76,79.70,79.76,79.79,79.78,79.76,79.72,79.63,79.50,79.42,79.50,79.65,79.69,79.70,79.71,79.69,79.60,79.55,79.58,79.71,79.50,79.14,78.85,78.83,79.08,79.38,79.58,79.61,79.64,79.66,79.68,79.71,79.75,79.74,79.71,79.68,79.66,79.60,79.53,79.51,79.53,79.58,79.60,79.56,79.51,79.47,79.43,79.36,79.31,79.28,79.28,79.35,79.47,79.65,79.86,80.03,80.19,80.38,80.59,80.78,80.95,81.10,81.22,81.30,81.31,81.30,81.28,81.27,81.19,81.09,80.98,80.86,80.76,80.71,80.65,80.55,80.36,79.86,79.51,79.33,79.31,79.32,79.36,79.39,79.41,79.46,79.49,79.49,79.44,79.28,79.16,79.11,79.05,78.97,79.04,79.08,79.10,79.10,79.09,79.10,79.09,79.07,79.07,79.03,79.01,78.98,78.94,78.93,78.91,78.91,78.91,78.90,78.91,78.90,78.90,78.90,78.89,78.86,78.82,78.67,78.14,78.47,78.78,79.02,79.20,79.30,79.16,79.00,78.92,e,e,e,e,e,e,e,e,e,78.90,78.90,78.87,78.82,78.80
81.02,80.88,80.86,80.87,80.84,80.82,80.86,80.86,80.81,80.70,80.68,80.77,80.89,80.93,80.91,80.86,80.84,80.86,80.88,80.79,80.73,80.69,80.66,80.62,80.60,80.59,80.56,80.63,80.62,80.54,80.43,80.40,80.37,80.36,80.37,80.40,80.43,80.42,80.45,80.54,80.52,80.52,80.51,80.49,80.46,80.46,80.57,80.71,80.80,80.90,80.91,80.90,80.90,80.90,80.85,80.79,80.74,80.69,80.63,80.59,80.57,80.56,80.57,80.58,80.54,80.45,80.36,80.41,80.52,80.59,80.56,80.40,80.34,80.33,80.33,80.32,80.35,80.34,80.29,80.25,80.13,79.96,79.94,80.12,80.10,80.11,80.12,80.13,80.12,80.07,80.03,80.00,80.00,80.00,79.99,79.96,79.91,79.88,79.95,79.97,79.96,79.97,79.95,79.90,79.84,79.76,79.70,79.71,79.74,79.77,79.79,79.80,79.74,79.64,79.55,79.64,79.71,79.73,79.70,79.65,79.58,79.48,79.39,79.46,79.60,79.64,79.65,79.67,79.65,79.56,79.52,79.57,79.72,79.46,79.05,78.74,78.76,78.98,79.32,79.57,79.67,79.68,79.69,79.71,79.75,79.78,79.75,79.72,79.69,79.68,79.61,79.54,79.50,79.51,79.56,79.59,79.56,79.49,79.43,79.44,79.42,79.39,79.36,79.36,79.43,79.55,79.72,79.93,80.14,80.33,80.50,80.64,80.82,81.00,81.15,81.25,81.30,81.30,81.30,81.29,81.29,81.20,81.10,80.98,80.86,80.79,80.77,80.75,80.67,80.40,79.86,79.50,79.31,79.25,79.28,79.34,79.38,79.40,79.42,79.46,79.46,79.40,79.26,79.16,79.08,79.01,78.95,79.04,79.08,79.10,79.09,79.05,79.08,79.06,79.03,79.02,79.01,79.00,78.97,78.93,78.96,78.93,78.91,78.90,78.90,78.90,78.90,78.90,78.89,78.85,78.86,78.84,78.68,78.15,78.47,78.77,79.05,79.31,79.34,79.21,79.07,78.95,78.72,e,e,e,e,e,e,e,e,e,78.92,78.90,78.87,78.82
81.03,80.91,80.90,80.90,80.87,80.86,80.88,80.86,80.79,80.72,80.70,80.78,80.90,80.96,80.92,80.87,80.84,80.84,80.87,80.80,80.74,80.70,80.65,80.63,80.63,80.62,80.63,80.69,80.69,80.62,80.51,80.46,80.37,80.33,80.35,80.40,80.45,80.45,80.49,80.60,80.61,80.62,80.57,80.49,80.46,80.51,80.63,80.76,80.83,80.92,80.90,80.86,80.84,80.84,80.81,80.76,80.70,80.62,80.56,80.55,80.56,80.57,80.63,80.66,80.61,80.50,80.39,80.37,80.44,80.51,80.50,80.35,80.32,80.33,80.35,80.29,80.31,80.29,80.24,80.18,80.08,79.94,79.93,80.10,80.07,80.07,80.07,80.07,80.05,80.01,79.98,79.97,79.97,79.97,79.96,79.95,79.91,79.88,79.93,79.94,79.93,79.93,79.93,79.88,79.81,79.75,79.73,79.72,79.73,79.75,79.77,79.79,79.72,79.60,79.51,79.61,79.66,79.67,79.65,79.60,79.55,79.48,79.43,79.48,79.57,79.59,79.60,79.63,79.62,79.54,79.51,79.56,79.74,79.45,78.99,78.66,78.70,78.87,79.22,79.53,79.69,79.70,79.70,79.71,79.74,79.77,79.75,79.74,79.73,79.71,79.62,79.54,79.51,79.53,79.58,79.63,79.63,79.62,79.61,79.64,79.62,79.61,79.60,79.57,79.60,79.70,79.87,80.08,80.30,80.49,80.64,80.75,80.90,81.05,81.18,81.27,81.30,81.30,81.30,81.30,81.28,81.21,81.05,80.82,80.57,80.42,80.37,80.34,80.26,80.03,79.66,79.41,79.28,79.23,79.25,79.32,79.37,79.40,79.40,79.41,79.40,79.35,79.25,79.16,79.07,79.00,78.96,79.04,79.08,79.09,79.07,79.04,79.07,79.05,79.01,79.00,79.00,78.99,78.96,78.94,78.98,78.94,78.92,78.90,78.90,78.90,78.90,78.88,78.86,78.82,78.84,78.83,78.69,78.20,78.46,78.74,79.03,79.38,79.45,79.35,79.21,79.04,78.74,e,e,e,e,e,e,e,e,e,78.97,78.95,78.91,78.85
81.03,80.99,80.97,80.95,80.91,80.90,80.90,80.87,80.79,80.72,80.70,80.78,80.91,80.99,80.93,80.85,80.81,80.80,80.83,80.77,80.74,80.71,80.64,80.66,80.67,80.69,80.74,80.73,80.73,80.70,80.64,80.56,80.38,80.30,80.32,80.40,80.48,80.49,80.52,80.61,80.69,80.73,80.65,80.50,80.48,80.60,80.70,80.77,80.83,80.90,80.86,80.79,80.74,80.74,80.73,80.71,80.65,80.51,80.46,80.52,80.59,80.62,80.75,80.76,80.69,80.56,80.46,80.35,80.34,80.37,80.40,80.32,80.31,80.34,80.35,80.23,80.22,80.21,80.18,80.10,80.02,79.95,79.94,80.02,80.01,80.01,80.00,79.98,79.92,79.91,79.91,79.91,79.91,79.91,79.91,79.91,79.90,79.90,79.90,79.89,79.87,79.84,79.87,79.83,79.76,79.73,79.76,79.73,79.70,79.71,79.73,79.76,79.70,79.61,79.56,79.64,79.63,79.60,79.59,79.56,79.52,79.50,79.51,79.54,79.56,79.55,79.56,79.60,79.60,79.55,79.52,79.56,79.76,79.45,78.96,78.60,78.66,78.76,79.09,79.45,79.70,79.70,79.70,79.70,79.70,79.71,79.74,79.78,79.79,79.75,79.63,79.55,79.53,79.57,79.64,79.70,79.77,79.85,79.94,79.96,79.94,79.92,79.94,79.88,79.82,79.89,80.07,80.29,80.49,80.65,80.79,80.90,81.02,81.12,81.21,81.27,81.30,81.31,81.31,81.30,81.25,81.22,80.96,80.55,80.08,79.77,79.65,79.58,79.49,79.36,79.32,79.27,79.24,79.22,79.22,79.29,79.36,79.40,79.40,79.35,79.32,79.28,79.23,79.15,79.06,79.00,78.99,79.06,79.09,79.07,79.04,79.06,79.07,79.04,79.01,79.00,79.00,78.96,78.95,78.96,78.99,78.96,78.93,78.91,78.90,78.90,78.89,78.86,78.81,78.80,78.80,78.80,78.69,78.26,78.45,78.68,78.99,79.42,79.62,79.55,79.39,79.17,78.77,e,e,e,e,e,e,e,e,e,79.04,79.00,78.94,78.90
80.97,80.94,80.93,80.92,80.90,80.90,80.90,80.88,80.85,80.77,80.72,80.79,80.91,80.99,80.97,80.94,80.89,80.81,80.81,80.75,80.72,80.71,80.73,80.74,80.75,80.76,80.77,80.72,80.71,80.68,80.62,80.58,80.43,80.33,80.31,80.34,80.46,80.53,80.57,80.60,80.63,80.65,80.64,80.64,80.68,80.72,80.73,80.75,80.81,80.79,80.76,80.71,80.66,80.71,80.71,80.64,80.58,80.57,80.59,80.60,80.60,80.63,80.77,80.78,80.75,80.68,80.58,80.39,80.35,80.39,80.41,80.38,80.41,80.41,80.37,80.29,80.27,80.23,80.16,80.06,79.90,79.89,79.95,80.00,79.96,79.94,79.91,79.87,79.84,79.84,79.83,79.83,79.82,79.79,79.78,79.78,79.77,79.76,79.73,79.71,79.71,79.70,79.70,79.68,79.64,79.60,79.62,79.62,79.61,79.58,79.58,79.59,79.55,79.50,79.46,79.49,79.48,79.47,79.48,79.49,79.45,79.44,79.44,79.47,79.51,79.52,79.52,79.52,79.49,79.47,79.50,79.58,79.75,79.41,78.91,78.56,78.63,78.77,79.16,79.53,79.72,79.69,79.70,79.71,79.74,79.77,79.78,79.81,79.82,79.78,79.69,79.62,79.58,79.57,79.64,79.76,79.87,80.00,80.18,80.26,80.22,80.17,80.14,80.09,80.06,80.14,80.30,80.50,80.69,80.85,80.97,81.05,81.13,81.20,81.25,81.29,81.30,81.31,81.30,81.27,81.24,81.20,80.85,80.34,79.81,79.56,79.49,79.46,79.42,79.34,79.27,79.26,79.27,79.27,79.28,79.32,79.35,79.37,79.37,79.32,79.30,79.27,79.21,79.12,79.02,78.95,78.94,79.04,79.08,79.08,79.04,79.03,79.03,79.02,79.01,79.00,79.00,78.99,78.96,78.94,78.96,78.97,78.95,78.91,78.87,78.87,78.82,78.76,78.70,78.65,78.58,78.47,78.30,77.99,78.15,78.30,78.64,79.33,79.63,79.65,79.57,79.44,79.23,79.22,79.23,e,e,e,e,e,e,e,e,e,78.94,78.90
80.93,80.91,80.91,80.91,80.90,80.90,80.90,80.90,80.88,80.81,80.74,80.79,80.91,80.99,80.99,80.97,80.91,80.82,80.81,80.76,80.74,80.76,80.79,80.79,80.81,80.82,80.80,80.72,80.70,80.67,80.61,80.60,80.50,80.41,80.34,80.30,80.44,80.54,80.59,80.60,80.60,80.62,80.66,80.72,80.79,80.79,80.76,80.75,80.79,80.70,80.65,80.61,80.58,80.67,80.69,80.62,80.56,80.61,80.67,80.66,80.64,80.66,80.76,80.76,80.73,80.68,80.60,80.41,80.37,80.41,80.43,80.44,80.47,80.46,80.40,80.34,80.32,80.27,80.17,80.04,79.88,79.92,80.01,80.03,79.98,79.94,79.88,79.81,79.76,79.76,79.77,79.77,79.78,79.75,79.73,79.72,79.72,79.70,79.65,79.65,79.66,79.66,79.66,79.66,79.64,79.61,79.61,79.63,79.60,79.55,79.52,79.51,79.49,79.47,79.44,79.44,79.43,79.43,79.43,79.45,79.42,79.41,79.41,79.44,79.49,79.53,79.53,79.50,79.48,79.47,79.50,79.58,79.74,79.40,78.89,78.52,78.58,78.76,79.18,79.56,79.73,79.69,79.69,79.71,79.74,79.78,79.78,79.82,79.83,79.79,79.71,79.67,79.61,79.57,79.65,79.79,79.93,80.09,80.31,80.40,80.34,80.26,80.23,80.22,80.24,80.35,80.52,80.69,80.86,80.99,81.08,81.13,81.19,81.22,81.24,81.23,81.24,81.25,81.24,81.21,81.19,80.99,80.52,79.96,79.44,79.24,79.19,79.19,79.19,79.15,79.06,79.13,79.23,79.28,79.30,79.32,79.34,79.34,79.34,79.31,79.29,79.27,79.19,79.10,79.00,78.93,78.92,79.03,79.08,79.08,79.05,79.01,79.00,79.00,78.99,78.97,78.95,78.92,78.86,78.81,78.83,78.81,78.78,78.75,78.74,78.75,78.72,78.67,78.64,78.58,78.47,78.32,78.15,77.96,78.08,78.10,78.40,79.27,79.64,79.72,79.69,79.62,79.53,79.36,79.27,e,e,e,e,e,e,e,e,e,78.93,78.89
80.92,80.91,80.90,80.90,80.90,80.90,80.90,80.90,80.89,80.82,80.74,80.79,80.90,80.98,80.98,80.91,80.84,80.82,80.82,80.81,80.83,80.86,80.82,80.80,80.84,80.86,80.80,80.72,80.70,80.66,80.60,80.58,80.60,80.55,80.43,80.30,80.39,80.49,80.56,80.59,80.61,80.66,80.69,80.72,80.78,80.78,80.79,80.79,80.78,80.64,80.56,80.51,80.51,80.61,80.67,80.66,80.61,80.61,80.66,80.68,80.70,80.72,80.74,80.68,80.60,80.52,80.48,80.42,80.40,80.43,80.49,80.49,80.50,80.49,80.47,80.40,80.38,80.32,80.22,80.07,80.02,80.06,80.12,80.12,80.10,80.03,79.93,79.82,79.68,79.68,79.71,79.75,79.80,79.83,79.80,79.77,79.77,79.75,79.73,79.74,79.78,79.80,79.80,79.83,79.83,79.81,79.81,79.78,79.73,79.66,79.60,79.57,79.56,79.56,79.54,79.53,79.53,79.51,79.46,79.45,79.43,79.42,79.43,79.46,79.52,79.58,79.61,79.59,79.60,79.58,79.54,79.55,79.74,79.43,78.91,78.50,78.53,78.70,79.13,79.53,79.73,79.70,79.69,79.69,79.70,79.73,79.74,79.79,79.81,79.78,79.71,79.67,79.62,79.59,79.67,79.80,79.93,80.08,80.28,80.32,80.23,80.15,80.15,80.26,80.35,80.50,80.70,80.88,80.98,81.05,81.09,81.13,81.17,81.17,81.12,81.07,81.09,81.11,81.11,81.11,81.09,80.51,79.87,79.31,78.91,78.73,78.71,78.72,78.72,78.69,78.61,78.83,79.12,79.25,79.25,79.28,79.30,79.31,79.31,79.32,79.32,79.27,79.16,79.10,79.01,78.93,78.91,79.02,79.08,79.08,79.04,79.01,79.00,79.00,78.97,78.90,78.84,78.72,78.61,78.53,78.56,78.41,78.34,78.37,78.45,78.51,78.56,78.61,78.64,78.62,78.53,78.43,78.34,78.29,78.34,78.15,78.31,79.26,79.65,79.76,79.74,79.67,79.60,79.46,79.32,79.22,e,e,e,e,e,e,e,e,e,78.87
80.92,80.91,80.89,80.88,80.87,80.88,80.89,80.90,80.89,80.82,80.74,80.78,80.87,80.92,80.93,80.91,80.87,80.86,80.86,80.86,80.88,80.89,80.86,80.82,80.84,80.85,80.80,80.74,80.71,80.66,80.59,80.54,80.63,80.64,80.53,80.28,80.37,80.43,80.47,80.53,80.62,80.66,80.67,80.69,80.74,80.76,80.77,80.78,80.78,80.63,80.54,80.49,80.48,80.57,80.66,80.69,80.67,80.63,80.63,80.66,80.68,80.67,80.62,80.58,80.54,80.48,80.44,80.43,80.42,80.45,80.53,80.53,80.52,80.50,80.46,80.41,80.39,80.35,80.27,80.16,80.17,80.17,80.18,80.20,80.18,80.09,79.96,79.80,79.62,79.63,79.69,79.76,79.86,79.88,79.86,79.84,79.84,79.85,79.87,79.90,79.94,80.00,80.05,80.06,80.05,80.03,80.02,79.98,79.92,79.83,79.75,79.72,79.70,79.69,79.68,79.67,79.67,79.64,79.58,79.51,79.47,79.45,79.46,79.52,79.59,79.66,79.70,79.69,79.69,79.64,79.58,79.57,79.72,79.47,78.95,78.51,78.47,78.66,79.07,79.47,79.70,79.72,79.71,79.70,79.70,79.72,79.75,79.79,79.81,79.80,79.77,79.72,79.65,79.60,79.66,79.80,79.89,79.98,80.13,80.20,80.13,80.05,80.06,80.19,80.27,80.37,80.48,80.60,80.69,80.75,80.75,80.67,80.78,80.89,80.92,80.89,80.91,80.96,80.99,80.91,80.61,79.76,79.18,78.84,78.69,78.62,78.60,78.59,78.56,78.51,78.43,78.63,78.92,79.14,79.19,79.25,79.29,79.30,79.30,79.34,79.34,79.28,79.16,79.08,78.97,78.89,78.87,79.01,79.08,79.09,79.00,78.71,78.68,78.74,78.82,78.83,78.81,78.79,78.75,78.70,78.70,78.62,78.58,78.60,78.65,78.65,78.65,78.66,78.67,78.66,78.59,78.55,78.52,78.49,78.50,78.26,78.35,79.23,79.65,79.77,79.76,79.69,79.62,79.49,79.37,79.29,79.15,78.45,e,e,e,e,e,e,e,e
80.92,80.91,80.88,80.86,80.83,80.85,80.88,80.89,80.89,80.82,80.74,80.77,80.84,80.87,80.90,80.92,80.92,80.90,80.90,80.90,80.90,80.90,80.90,80.84,80.84,80.84,80.80,80.76,80.72,80.66,80.59,80.52,80.64,80.69,80.58,80.27,80.38,80.38,80.38,80.45,80.60,80.64,80.65,80.66,80.70,80.73,80.75,80.75,80.76,80.63,80.54,80.49,80.48,80.56,80.65,80.70,80.71,80.66,80.60,80.61,80.62,80.60,80.50,80.49,80.49,80.47,80.41,80.44,80.43,80.45,80.54,80.55,80.54,80.50,80.43,80.40,80.39,80.37,80.31,80.24,80.28,80.25,80.23,80.25,80.23,80.11,79.96,79.78,79.56,79.60,79.67,79.78,79.91,79.92,79.90,79.89,79.90,79.93,80.00,80.05,80.09,80.17,80.25,80.25,80.22,80.20,80.19,80.16,80.08,79.97,79.89,79.86,79.83,79.80,79.79,79.78,79.79,79.76,79.69,79.58,79.51,79.48,79.49,79.59,79.65,79.73,79.78,79.78,79.76,79.69,79.62,79.60,79.71,79.50,79.01,78.54,78.41,78.60,79.00,79.41,79.68,79.74,79.74,79.72,79.70,79.72,79.76,79.79,79.81,79.82,79.81,79.75,79.67,79.61,79.67,79.80,79.84,79.86,79.95,80.03,79.97,79.90,79.89,79.97,80.01,80.02,80.04,80.08,80.16,80.22,80.19,80.04,80.27,80.56,80.72,80.74,80.77,80.85,80.89,80.74,80.20,79.17,78.70,78.59,78.68,78.69,78.67,78.63,78.57,78.50,78.40,78.53,78.78,79.04,79.14,79.23,79.28,79.30,79.30,79.34,79.34,79.28,79.15,79.06,78.94,78.85,78.84,79.00,79.07,79.10,78.98,78.50,78.46,78.58,78.73,78.82,78.83,78.90,78.94,78.91,78.88,78.88,78.89,78.89,78.90,78.85,78.78,78.73,78.71,78.71,78.66,78.65,78.67,78.62,78.61,78.35,78.40,79.20,79.64,79.78,79.77,79.72,79.65,79.51,79.43,79.35,79.18,78.52,e,e,e,e,e,e,e,e
80.92,80.91,80.88,80.86,80.82,80.85,80.88,80.89,80.89,80.82,80.74,80.75,80.83,80.90,80.94,80.94,80.93,80.90,80.90,80.90,80.90,80.90,80.90,80.87,80.86,80.84,80.80,80.75,80.72,80.66,80.59,80.56,80.60,80.58,80.48,80.32,80.42,80.38,80.33,80.37,80.49,80.57,80.63,80.67,80.70,80.73,80.72,80.70,80.68,80.61,80.54,80.52,80.56,80.61,80.60,80.63,80.68,80.68,80.57,80.52,80.51,80.51,80.44,80.43,80.44,80.43,80.40,80.42,80.42,80.43,80.48,80.52,80.52,80.47,80.41,80.40,80.40,80.38,80.35,80.28,80.26,80.26,80.25,80.23,80.20,80.07,79.93,79.77,79.54,79.58,79.65,79.75,79.90,79.89,79.87,79.87,79.90,79.93,80.01,80.09,80.15,80.16,80.25,80.24,80.20,80.20,80.21,80.21,80.15,80.03,79.94,79.90,79.87,79.83,79.80,79.80,79.80,79.78,79.73,79.65,79.57,79.53,79.54,79.62,79.69,79.76,79.80,79.81,79.81,79.71,79.63,79.61,79.68,79.53,79.08,78.59,78.33,78.48,78.89,79.34,79.70,79.71,79.73,79.74,79.74,79.71,79.74,79.78,79.80,79.80,79.77,79.71,79.64,79.62,79.71,79.84,79.84,79.77,79.70,79.67,79.62,79.55,79.46,79.34,79.24,79.17,79.12,79.11,79.11,79.14,79.16,79.18,79.71,80.28,80.63,80.72,80.76,80.83,80.86,80.74,80.34,79.36,78.95,78.95,79.15,79.14,79.06,79.00,78.96,78.89,78.68,78.71,78.90,79.11,79.14,79.21,79.27,79.30,79.30,79.31,79.29,79.22,79.13,79.05,78.94,78.86,78.87,79.01,79.08,79.11,79.07,78.90,78.90,78.95,78.98,78.98,78.96,78.98,78.97,78.91,78.82,78.85,78.88,78.90,78.90,78.89,78.83,78.79,78.77,78.74,78.70,78.69,78.68,78.62,78.61,78.38,78.43,79.17,79.63,79.77,79.79,79.78,79.76,79.63,79.51,79.41,79.29,78.84,e,e,e,e,e,e,e,e
80.91,80.90,80.90,80.89,80.85,80.84,80.85,80.88,80.88,80.82,80.72,80.76,80.87,80.95,80.95,80.93,80.92,80.90,80.90,80.90,80.90,80.89,80.87,80.88,80.86,80.83,80.79,80.71,80.68,80.65,80.63,80.59,80.57,80.52,80.47,80.43,80.47,80.42,80.35,80.33,80.42,80.54,80.63,80.69,80.70,80.69,80.69,80.68,80.63,80.63,80.56,80.55,80.62,80.62,80.48,80.47,80.54,80.58,80.50,80.43,80.41,80.44,80.38,80.39,80.41,80.42,80.44,80.45,80.42,80.40,80.40,80.48,80.46,80.41,80.39,80.36,80.33,80.34,80.35,80.33,80.29,80.23,80.19,80.16,80.14,80.06,79.92,79.75,79.56,79.56,79.61,79.72,79.87,79.88,79.87,79.87,79.90,79.92,79.98,80.08,80.16,80.18,80.23,80.22,80.19,80.18,80.20,80.21,80.16,80.06,79.94,79.91,79.89,79.86,79.83,79.81,79.81,79.79,79.76,79.68,79.59,79.53,79.53,79.64,79.72,79.78,79.81,79.83,79.82,79.74,79.67,79.63,79.67,79.58,79.21,78.71,78.30,78.40,78.79,79.28,79.69,79.70,79.74,79.77,79.77,79.76,79.79,79.80,79.81,79.80,79.77,79.69,79.63,79.62,79.71,79.83,79.74,79.52,79.26,79.23,79.20,79.16,79.08,78.98,78.88,78.80,78.75,78.73,78.71,78.73,78.78,78.87,79.44,80.12,80.58,80.75,80.75,80.81,80.83,80.75,80.52,79.75,79.42,79.42,79.59,79.56,79.45,79.36,79.30,79.19,78.94,78.92,79.03,79.17,79.16,79.22,79.27,79.30,79.30,79.30,79.27,79.20,79.10,79.04,78.93,78.86,78.89,79.02,79.10,79.14,79.14,79.08,79.09,79.09,79.08,79.06,79.03,79.01,78.98,78.93,78.84,78.86,78.89,78.90,78.90,78.90,78.86,78.83,78.80,78.77,78.73,78.70,78.69,78.64,78.61,78.40,78.45,79.15,79.62,79.77,79.80,79.80,79.80,79.72,79.59,79.46,79.39,79.05,e,e,e,e,e,e,e,e
80.90,80.90,80.94,80.95,80.90,80.84,80.82,80.84,80.88,80.82,80.69,80.77,80.94,81.00,80.94,80.91,80.90,80.90,80.90,80.90,80.90,80.89,80.82,80.87,80.85,80.81,80.79,80.65,80.62,80.64,80.68,80.61,80.54,80.50,80.51,80.58,80.52,80.49,80.42,80.31,80.39,80.53,80.64,80.70,80.70,80.64,80.66,80.67,80.61,80.67,80.58,80.57,80.67,80.58,80.32,80.25,80.33,80.41,80.40,80.35,80.33,80.38,80.32,80.37,80.41,80.43,80.50,80.49,80.44,80.37,80.33,80.44,80.37,80.33,80.36,80.29,80.23,80.25,80.32,80.37,80.34,80.20,80.08,80.08,80.08,80.04,79.92,79.73,79.60,79.54,79.57,79.68,79.82,79.88,79.90,79.90,79.90,79.90,79.93,80.03,80.14,80.20,80.21,80.19,80.16,80.13,80.18,80.18,80.14,80.06,79.91,79.89,79.89,79.89,79.87,79.82,79.82,79.81,79.77,79.69,79.58,79.50,79.50,79.65,79.75,79.81,79.82,79.82,79.82,79.78,79.72,79.66,79.67,79.66,79.36,78.85,78.30,78.35,78.72,79.22,79.68,79.70,79.77,79.80,79.81,79.84,79.86,79.84,79.82,79.82,79.78,79.70,79.63,79.61,79.67,79.78,79.59,79.17,78.73,78.75,78.75,78.75,78.76,78.79,78.77,78.74,78.71,78.70,78.70,78.73,78.78,78.90,79.35,80.03,80.56,80.79,80.74,80.80,80.81,80.78,80.72,80.27,80.02,79.95,80.01,79.95,79.83,79.71,79.59,79.44,79.20,79.14,79.18,79.22,79.20,79.24,79.28,79.30,79.30,79.30,79.27,79.19,79.06,79.01,78.92,78.86,78.89,79.02,79.12,79.18,79.19,79.13,79.13,79.10,79.08,79.09,79.07,79.03,79.00,78.96,78.92,78.90,78.90,78.90,78.90,78.90,78.88,78.84,78.81,78.80,78.75,78.71,78.69,78.66,78.62,78.42,78.47,79.14,79.61,79.77,79.80,79.80,79.80,79.80,79.68,79.52,79.46,79.19,e,e,e,e,e,e,e,e
80.91,80.90,80.91,80.91,80.86,80.82,80.78,80.79,80.83,80.81,80.73,80.79,80.93,81.04,80.91,80.82,80.80,80.84,80.89,80.90,80.93,80.94,80.89,80.85,80.82,80.78,80.74,80.69,80.67,80.67,80.68,80.61,80.58,80.56,80.55,80.52,80.56,80.56,80.50,80.39,80.40,80.45,80.53,80.64,80.70,80.71,80.71,80.69,80.66,80.64,80.52,80.43,80.41,80.41,80.23,80.21,80.30,80.33,80.33,80.32,80.31,80.33,80.34,80.39,80.45,80.50,80.56,80.53,80.48,80.40,80.31,80.35,80.30,80.27,80.29,80.25,80.19,80.18,80.20,80.19,80.15,80.07,80.00,79.97,79.95,79.90,79.83,79.74,79.64,79.54,79.54,79.63,79.79,79.87,79.89,79.89,79.90,79.91,79.95,80.04,80.14,80.19,80.21,80.21,80.16,80.10,80.09,80.08,80.04,79.98,79.89,79.88,79.88,79.90,79.89,79.87,79.87,79.86,79.83,79.74,79.60,79.49,79.48,79.63,79.81,79.93,79.98,79.99,79.97,79.88,79.78,79.71,79.77,79.75,79.42,78.88,78.30,78.37,78.74,79.26,79.74,79.73,79.76,79.79,79.81,79.84,79.88,79.88,79.87,79.87,79.81,79.71,79.63,79.59,79.63,79.74,79.59,79.22,78.79,78.79,78.78,78.77,78.77,78.80,78.79,78.76,78.73,78.70,78.70,78.73,78.81,79.02,79.55,80.18,80.62,80.79,80.76,80.80,80.81,80.80,80.75,80.53,80.36,80.24,80.17,80.06,79.91,79.78,79.64,79.50,79.33,79.24,79.20,79.18,79.16,79.20,79.25,79.29,79.30,79.30,79.27,79.20,79.09,79.01,78.91,78.84,78.86,79.00,79.10,79.14,79.15,79.12,79.10,79.09,79.09,79.10,79.09,79.05,79.01,78.97,78.92,78.91,78.90,78.90,78.90,78.90,78.89,78.86,78.81,78.80,78.75,78.71,78.70,78.69,78.64,78.45,78.51,79.10,79.59,79.76,79.80,79.80,79.80,79.72,79.61,79.51,79.49,79.38,e,e,e,e,e,e,e,e
80.92,80.92,80.92,80.91,80.87,80.85,80.82,80.82,80.86,80.85,80.76,80.81,80.94,81.06,80.93,80.81,80.76,80.83,80.89,80.92,80.94,80.95,80.92,80.84,80.79,80.75,80.70,80.71,80.69,80.67,80.67,80.62,80.62,80.62,80.59,80.49,80.58,80.60,80.56,80.47,80.41,80.40,80.46,80.57,80.67,80.73,80.72,80.69,80.70,80.66,80.50,80.33,80.21,80.24,80.15,80.17,80.25,80.26,80.28,80.30,80.31,80.32,80.38,80.43,80.48,80.54,80.56,80.52,80.48,80.42,80.31,80.30,80.28,80.28,80.29,80.27,80.23,80.21,80.19,80.14,80.11,80.07,80.03,79.98,79.93,79.86,79.80,79.75,79.67,79.55,79.53,79.62,79.78,79.88,79.88,79.88,79.91,79.92,79.96,80.05,80.14,80.16,80.18,80.17,80.13,80.04,80.02,80.00,79.97,79.92,79.86,79.86,79.87,79.88,79.88,79.88,79.88,79.88,79.86,79.77,79.61,79.49,79.48,79.65,79.92,80.07,80.13,80.14,80.11,79.99,79.85,79.77,79.84,79.81,79.46,78.90,78.29,78.35,78.71,79.25,79.77,79.75,79.76,79.78,79.82,79.85,79.89,79.90,79.90,79.88,79.81,79.70,79.61,79.58,79.59,79.71,79.57,79.23,78.82,78.79,78.78,78.78,78.82,78.87,78.91,78.96,79.01,79.03,79.06,79.12,79.24,79.44,79.93,80.42,80.72,80.81,80.78,80.80,80.81,80.80,80.76,80.68,80.56,80.41,80.26,80.10,79.94,79.79,79.66,79.54,79.41,79.30,79.22,79.15,79.14,79.18,79.23,79.28,79.31,79.31,79.27,79.19,79.09,79.00,78.89,78.82,78.84,79.00,79.08,79.11,79.10,79.08,79.08,79.09,79.09,79.08,79.08,79.04,79.01,78.98,78.93,78.91,78.90,78.90,78.90,78.90,78.90,78.87,78.82,78.80,78.75,78.71,78.70,78.70,78.64,78.49,78.55,79.08,79.58,79.76,79.79,79.78,79.77,79.65,79.55,79.51,79.50,79.56,e,e,e,e,e,e,e,e
80.92,80.95,80.96,80.97,80.98,80.94,80.95,80.98,81.00,80.94,80.79,80.83,80.97,81.03,81.02,80.89,80.81,80.86,80.92,80.94,80.94,80.92,80.93,80.84,80.76,80.71,80.68,80.71,80.66,80.62,80.64,80.66,80.66,80.66,80.62,80.48,80.60,80.61,80.59,80.57,80.42,80.40,80.43,80.50,80.62,80.66,80.67,80.67,80.70,80.72,80.55,80.30,80.08,80.08,80.09,80.13,80.18,80.21,80.25,80.28,80.32,80.37,80.47,80.49,80.52,80.53,80.47,80.43,80.43,80.41,80.33,80.31,80.35,80.38,80.38,80.38,80.38,80.37,80.34,80.27,80.24,80.22,80.19,80.14,80.06,79.94,79.84,79.76,79.67,79.55,79.55,79.64,79.79,79.89,79.86,79.86,79.91,79.94,79.98,80.05,80.12,80.10,80.08,80.08,80.04,79.97,79.97,79.95,79.92,79.87,79.81,79.83,79.84,79.85,79.85,79.85,79.85,79.85,79.83,79.77,79.61,79.49,79.49,79.72,80.09,80.24,80.27,80.27,80.23,80.10,79.95,79.84,79.87,79.81,79.47,78.92,78.29,78.28,78.60,79.16,79.77,79.73,79.74,79.78,79.84,79.88,79.89,79.90,79.89,79.86,79.77,79.67,79.60,79.56,79.58,79.70,79.54,79.18,78.78,78.77,78.75,78.78,78.89,79.05,79.17,79.37,79.62,79.79,79.89,80.03,80.17,80.28,80.54,80.77,80.88,80.85,80.80,80.80,80.80,80.79,80.74,80.66,80.55,80.41,80.25,80.07,79.89,79.75,79.64,79.54,79.41,79.30,79.21,79.14,79.15,79.17,79.22,79.28,79.35,79.34,79.26,79.15,79.05,78.97,78.85,78.79,78.85,79.01,79.08,79.08,79.04,79.02,79.06,79.09,79.08,79.04,79.02,79.01,79.00,78.99,78.93,78.91,78.90,78.90,78.90,78.90,78.90,78.87,78.82,78.80,78.75,78.71,78.70,78.70,78.64,78.52,78.60,79.09,79.59,79.76,79.77,79.73,79.71,79.59,79.52,79.50,79.50,79.74,80.13,80.45,80.54,80.88,80.64,80.04,79.14,77.95
80.96,80.96,80.96,80.98,81.01,81.00,81.01,81.04,81.05,80.99,80.83,80.85,80.99,81.08,81.07,80.99,80.92,80.92,80.94,80.88,80.81,80.77,80.82,80.79,80.74,80.69,80.67,80.68,80.67,80.68,80.70,80.74,80.76,80.76,80.71,80.61,80.66,80.63,80.60,80.58,80.46,80.41,80.41,80.45,80.55,80.61,80.64,80.67,80.70,80.73,80.55,80.30,80.07,80.08,80.09,80.10,80.13,80.24,80.32,80.36,80.39,80.43,80.49,80.48,80.47,80.47,80.41,80.40,80.42,80.42,80.36,80.32,80.37,80.43,80.44,80.45,80.42,80.39,80.35,80.30,80.31,80.28,80.24,80.17,80.09,79.99,79.90,79.81,79.70,79.56,79.54,79.64,79.83,80.00,80.01,80.01,80.05,80.03,80.08,80.18,80.26,80.21,80.18,80.17,80.11,79.98,79.99,80.01,80.00,79.98,79.96,79.96,79.97,79.97,79.94,79.90,79.88,79.88,79.86,79.75,79.57,79.44,79.45,79.69,80.08,80.25,80.30,80.29,80.27,80.16,80.00,79.85,79.86,79.84,79.53,78.95,78.25,78.19,78.39,78.90,79.55,79.73,79.78,79.82,79.87,79.89,79.90,79.89,79.86,79.80,79.72,79.63,79.57,79.56,79.61,79.72,79.67,79.45,79.10,79.13,79.29,79.45,79.55,79.66,79.74,79.89,80.07,80.22,80.29,80.40,80.52,80.62,80.74,80.82,80.85,80.83,80.80,80.78,80.76,80.73,80.69,80.66,80.60,80.50,80.33,80.12,79.93,79.76,79.62,79.52,79.41,79.31,79.21,79.14,79.13,79.18,79.24,79.30,79.36,79.32,79.23,79.12,79.00,78.94,78.85,78.81,78.87,79.02,79.08,79.09,79.06,79.02,79.03,79.04,79.03,79.01,78.97,78.95,78.96,78.97,78.92,78.90,78.90,78.90,78.90,78.90,78.90,78.89,78.86,78.82,78.78,78.74,78.70,78.66,78.62,78.55,78.62,79.01,79.52,79.70,79.73,79.68,79.61,79.65,79.76,79.94,80.17,80.45,80.90,81.14,81.00,81.03,80.79,80.35,79.73,78.98
80.99,80.98,80.97,80.99,81.04,81.06,81.06,81.07,81.08,81.03,80.86,80.87,81.00,81.13,81.12,81.08,81.03,80.99,80.95,80.81,80.70,80.65,80.72,80.74,80.72,80.69,80.67,80.68,80.71,80.75,80.77,80.80,80.83,80.82,80.77,80.70,80.70,80.64,80.60,80.59,80.50,80.44,80.41,80.42,80.48,80.56,80.63,80.68,80.70,80.72,80.55,80.29,80.07,80.10,80.09,80.06,80.09,80.28,80.39,80.44,80.45,80.46,80.47,80.44,80.42,80.41,80.36,80.38,80.41,80.42,80.40,80.33,80.39,80.46,80.48,80.48,80.43,80.38,80.33,80.31,80.34,80.31,80.26,80.19,80.11,80.02,79.95,79.87,79.75,79.57,79.53,79.64,79.86,80.08,80.16,80.19,80.21,80.14,80.19,80.30,80.36,80.30,80.27,80.27,80.20,80.02,80.02,80.06,80.09,80.10,80.10,80.09,80.11,80.11,80.05,79.98,79.94,79.93,79.91,79.74,79.54,79.41,79.41,79.63,80.05,80.24,80.30,80.30,80.29,80.20,80.04,79.86,79.85,79.88,79.57,78.96,78.18,78.09,78.21,78.66,79.36,79.74,79.82,79.86,79.90,79.90,79.90,79.88,79.84,79.77,79.68,79.60,79.55,79.56,79.62,79.73,79.78,79.71,79.44,79.49,79.77,80.02,80.10,80.14,80.19,80.25,80.34,80.45,80.51,80.58,80.67,80.78,80.80,80.80,80.79,80.79,80.78,80.73,80.70,80.67,80.63,80.64,80.64,80.57,80.41,80.18,79.98,79.77,79.60,79.50,79.41,79.31,79.21,79.14,79.11,79.18,79.26,79.32,79.36,79.29,79.19,79.08,78.95,78.91,78.85,78.82,78.87,79.01,79.08,79.10,79.09,79.04,79.01,78.99,78.98,78.97,78.93,78.90,78.91,78.92,78.90,78.89,78.90,78.90,78.90,78.90,78.90,78.89,78.89,78.83,78.79,78.75,78.70,78.64,78.61,78.57,78.65,78.95,79.46,79.65,79.68,79.64,79.59,79.85,80.18,80.57,81.04,81.30,81.79,82.00,81.69,81.37,81.07,80.76,80.43,80.10
81.00,81.03,81.04,81.06,81.09,81.09,81.09,81.09,81.09,81.03,80.88,80.86,80.97,81.15,81.16,81.15,81.12,81.06,80.95,80.79,80.68,80.65,80.70,80.75,80.74,80.70,80.69,80.74,80.80,80.82,80.80,80.80,80.78,80.75,80.70,80.60,80.67,80.64,80.60,80.60,80.57,80.50,80.44,80.41,80.43,80.50,80.61,80.69,80.70,80.71,80.52,80.26,80.03,80.09,80.05,80.02,80.08,80.30,80.44,80.48,80.46,80.41,80.37,80.39,80.40,80.38,80.33,80.33,80.37,80.42,80.45,80.34,80.42,80.49,80.48,80.43,80.40,80.36,80.31,80.30,80.31,80.30,80.28,80.25,80.17,80.05,79.98,79.93,79.82,79.59,79.53,79.64,79.85,80.05,80.24,80.34,80.33,80.28,80.32,80.33,80.29,80.23,80.25,80.29,80.26,80.11,80.04,80.09,80.13,80.15,80.13,80.16,80.18,80.17,80.14,80.06,80.02,80.00,79.95,79.76,79.57,79.41,79.37,79.58,80.02,80.23,80.29,80.30,80.30,80.21,80.06,79.90,79.90,79.90,79.56,78.92,78.09,78.01,78.14,78.60,79.33,79.74,79.82,79.86,79.89,79.89,79.90,79.90,79.88,79.83,79.72,79.61,79.54,79.52,79.57,79.67,79.76,79.78,79.66,79.61,79.74,79.89,79.97,80.01,80.05,80.12,80.20,80.29,80.38,80.49,80.58,80.65,80.68,80.72,80.75,80.75,80.68,80.62,80.59,80.59,80.59,80.60,80.62,80.60,80.48,80.26,80.03,79.79,79.60,79.50,79.41,79.32,79.22,79.15,79.12,79.17,79.24,79.31,79.33,79.26,79.15,79.04,78.94,78.90,78.82,78.77,78.81,79.00,79.09,79.12,79.10,79.05,79.02,78.97,78.94,78.92,78.91,78.89,78.87,78.84,78.83,78.86,78.89,78.90,78.90,78.90,78.89,78.87,78.86,78.82,78.76,78.72,78.70,78.69,78.63,78.61,78.70,78.99,79.47,79.63,79.63,79.60,79.80,80.41,80.99,81.53,82.11,82.32,82.70,82.96,82.83,82.18,81.69,81.32,81.08,80.95
81.02,81.06,81.08,81.09,81.10,81.07,81.08,81.08,81.06,81.02,80.89,80.86,80.96,81.16,81.18,81.17,81.14,81.09,80.95,80.79,80.70,80.67,80.69,80.76,80.78,80.78,80.78,80.82,80.86,80.85,80.79,80.70,80.69,80.70,80.69,80.62,80.68,80.67,80.65,80.68,80.64,80.57,80.51,80.47,80.41,80.45,80.54,80.64,80.69,80.67,80.50,80.27,80.06,80.10,80.05,80.04,80.11,80.28,80.44,80.47,80.43,80.38,80.35,80.36,80.36,80.36,80.35,80.35,80.38,80.43,80.47,80.38,80.41,80.46,80.45,80.39,80.38,80.34,80.29,80.29,80.28,80.26,80.24,80.21,80.15,80.06,80.00,79.95,79.84,79.63,79.56,79.64,79.81,80.04,80.25,80.37,80.38,80.36,80.37,80.34,80.26,80.21,80.24,80.26,80.23,80.14,80.08,80.13,80.16,80.17,80.14,80.18,80.19,80.19,80.17,80.11,80.06,80.02,79.95,79.76,79.59,79.43,79.37,79.55,79.99,80.20,80.28,80.31,80.32,80.25,80.10,79.93,79.93,79.90,79.52,78.82,77.97,77.93,78.10,78.61,79.37,79.75,79.82,79.84,79.87,79.87,79.88,79.89,79.88,79.84,79.73,79.62,79.54,79.51,79.55,79.64,79.73,79.78,79.75,79.71,79.75,79.82,79.88,79.92,79.97,80.03,80.10,80.17,80.25,80.34,80.44,80.52,80.60,80.66,80.68,80.66,80.60,80.54,80.52,80.51,80.51,80.52,80.53,80.50,80.39,80.21,79.99,79.77,79.58,79.49,79.41,79.33,79.26,79.18,79.16,79.17,79.21,79.24,79.24,79.20,79.13,79.04,78.94,78.88,78.79,78.75,78.80,79.01,79.12,79.14,79.11,79.07,79.03,78.98,78.94,78.91,78.90,78.88,78.86,78.83,78.83,78.86,78.89,78.90,78.90,78.88,78.86,78.84,78.83,78.81,78.75,78.71,78.70,78.70,78.64,78.63,78.73,79.02,79.48,79.59,79.57,79.61,80.15,80.99,81.77,82.47,83.10,83.36,83.66,83.85,83.78,82.95,82.46,82.07,81.75,81.55
81.06,81.09,81.10,81.10,81.10,81.03,81.05,81.05,81.02,81.00,80.88,80.86,80.95,81.16,81.19,81.16,81.12,81.08,80.95,80.80,80.72,80.70,80.70,80.77,80.84,80.89,80.90,80.90,80.89,80.86,80.77,80.57,80.60,80.66,80.71,80.72,80.72,80.71,80.73,80.79,80.70,80.63,80.60,80.56,80.41,80.40,80.44,80.54,80.68,80.61,80.49,80.30,80.10,80.11,80.07,80.08,80.15,80.24,80.42,80.43,80.39,80.37,80.38,80.34,80.32,80.34,80.40,80.42,80.42,80.43,80.48,80.42,80.39,80.40,80.41,80.36,80.35,80.32,80.28,80.28,80.25,80.21,80.17,80.13,80.09,80.06,80.02,79.94,79.86,79.69,79.62,79.65,79.76,80.05,80.24,80.34,80.38,80.40,80.39,80.34,80.27,80.22,80.24,80.20,80.16,80.14,80.13,80.17,80.19,80.17,80.15,80.17,80.18,80.17,80.18,80.13,80.09,80.02,79.92,79.76,79.60,79.45,79.38,79.53,79.95,80.16,80.26,80.31,80.35,80.29,80.13,79.96,79.95,79.90,79.46,78.71,77.85,77.86,78.09,78.65,79.44,79.77,79.80,79.81,79.83,79.82,79.85,79.87,79.86,79.83,79.73,79.63,79.55,79.51,79.56,79.63,79.69,79.74,79.78,79.78,79.78,79.79,79.81,79.87,79.92,79.97,80.03,80.08,80.12,80.18,80.26,80.39,80.53,80.60,80.61,80.56,80.53,80.49,80.45,80.42,80.41,80.41,80.39,80.32,80.21,80.08,79.89,79.70,79.55,79.47,79.41,79.35,79.30,79.24,79.21,79.18,79.16,79.14,79.12,79.13,79.12,79.06,78.95,78.86,78.77,78.74,78.80,79.03,79.15,79.17,79.12,79.10,79.05,79.00,78.96,78.92,78.90,78.88,78.87,78.86,78.86,78.88,78.89,78.90,78.90,78.86,78.83,78.81,78.80,78.80,78.75,78.71,78.70,78.70,78.64,78.62,78.73,79.03,79.48,79.53,79.50,79.66,80.56,81.56,82.52,83.37,84.02,84.39,84.60,84.69,84.58,83.69,83.30,82.91,82.44,82.03
81.04,81.09,81.10,81.10,81.10,81.03,81.02,81.01,80.99,80.99,80.91,80.88,80.96,81.15,81.19,81.19,81.15,81.09,81.00,80.87,80.80,80.77,80.73,80.74,80.82,80.89,80.90,80.85,80.82,80.81,80.79,80.70,80.74,80.78,80.81,80.84,80.80,80.77,80.76,80.79,80.69,80.63,80.60,80.57,80.43,80.41,80.42,80.47,80.58,80.60,80.53,80.36,80.15,80.19,80.24,80.25,80.24,80.30,80.40,80.40,80.34,80.29,80.33,80.36,80.37,80.38,80.41,80.46,80.45,80.44,80.46,80.41,80.35,80.32,80.30,80.28,80.28,80.27,80.25,80.22,80.19,80.18,80.15,80.10,80.05,80.01,79.96,79.91,79.87,79.74,79.65,79.64,79.74,80.01,80.21,80.32,80.35,80.39,80.39,80.36,80.30,80.25,80.16,80.09,80.04,80.03,80.05,80.08,80.10,80.10,80.11,80.11,80.09,80.09,80.13,80.13,80.09,80.02,79.92,79.77,79.63,79.49,79.40,79.49,79.89,80.14,80.27,80.31,80.34,80.27,80.10,79.91,79.87,79.86,79.46,78.76,77.90,77.90,78.14,78.71,79.48,79.79,79.79,79.76,79.75,79.72,79.75,79.77,79.79,79.79,79.74,79.64,79.54,79.48,79.53,79.59,79.67,79.74,79.78,79.80,79.83,79.87,79.92,79.98,80.01,80.05,80.09,80.09,80.08,80.11,80.18,80.29,80.48,80.59,80.61,80.57,80.55,80.47,80.39,80.32,80.27,80.19,80.06,79.92,79.79,79.69,79.57,79.47,79.41,79.38,79.35,79.33,79.29,79.24,79.21,79.20,79.16,79.11,79.12,79.13,79.11,79.04,78.94,78.85,78.77,78.74,78.80,79.03,79.15,79.17,79.12,79.10,79.05,79.01,78.98,78.96,78.92,78.90,78.87,78.84,78.83,78.87,78.89,78.90,78.90,78.88,78.84,78.81,78.80,78.80,78.75,78.73,78.74,78.71,78.68,78.59,78.64,78.96,79.34,79.41,79.49,79.87,80.97,82.10,83.09,83.92,84.65,84.88,84.98,84.98,84.85,84.32,84.02,83.66,83.19,82.70
81.01,81.07,81.10,81.10,81.10,81.03,81.00,80.98,80.96,80.95,80.90,80.89,80.96,81.16,81.20,81.21,81.18,81.11,81.04,80.92,80.86,80.84,80.78,80.76,80.81,80.87,80.88,80.82,80.78,80.78,80.81,80.78,80.83,80.86,80.89,80.90,80.86,80.82,80.79,80.78,80.70,80.64,80.62,80.59,80.48,80.45,80.42,80.43,80.50,80.55,80.56,80.44,80.27,80.31,80.41,80.41,80.36,80.38,80.39,80.37,80.32,80.26,80.30,80.37,80.40,80.40,80.41,80.48,80.48,80.46,80.45,80.42,80.34,80.28,80.26,80.28,80.29,80.28,80.26,80.21,80.19,80.20,80.18,80.12,80.07,79.99,79.93,79.90,79.88,79.79,79.69,79.65,79.72,80.00,80.21,80.32,80.33,80.37,80.38,80.36,80.32,80.22,80.06,79.97,79.93,79.92,79.95,79.97,79.97,79.97,79.99,79.99,79.97,79.97,80.01,80.03,80.02,79.96,79.87,79.76,79.65,79.52,79.43,79.48,79.84,80.11,80.27,80.29,80.32,80.25,80.11,79.95,79.88,79.86,79.50,78.83,78.01,77.92,78.18,78.78,79.54,79.81,79.79,79.74,79.71,79.67,79.68,79.72,79.76,79.77,79.74,79.64,79.53,79.48,79.52,79.58,79.68,79.78,79.84,79.87,79.93,80.00,80.08,80.13,80.15,80.18,80.19,80.18,80.16,80.16,80.20,80.29,80.47,80.59,80.61,80.57,80.54,80.45,80.33,80.22,80.12,79.96,79.75,79.58,79.48,79.41,79.35,79.32,79.32,79.30,79.29,79.28,79.27,79.23,79.21,79.20,79.17,79.13,79.16,79.15,79.10,79.02,78.92,78.83,78.76,78.74,78.80,79.03,79.15,79.17,79.12,79.10,79.05,79.01,79.00,78.99,78.94,78.91,78.89,78.85,78.83,78.86,78.89,78.90,78.90,78.88,78.84,78.81,78.80,78.80,78.75,78.73,78.73,78.69,78.64,78.56,78.60,78.88,79.23,79.30,79.43,79.87,81.09,82.38,83.41,84.22,84.93,85.07,85.06,84.94,84.76,84.47,84.27,83.97,83.57,83.12
80.95,81.04,81.09,81.10,81.10,81.03,80.99,80.95,80.91,80.87,80.86,80.87,80.96,81.19,81.23,81.25,81.22,81.15,81.07,80.96,80.91,80.89,80.85,80.82,80.82,80.85,80.85,80.81,80.78,80.79,80.83,80.81,80.86,80.91,80.93,80.90,80.90,80.87,80.81,80.75,80.74,80.68,80.66,80.64,80.55,80.52,80.45,80.40,80.41,80.48,80.55,80.54,80.46,80.46,80.57,80.56,80.49,80.45,80.41,80.35,80.30,80.30,80.31,80.37,80.40,80.40,80.41,80.48,80.50,80.49,80.46,80.45,80.36,80.30,80.31,80.35,80.39,80.38,80.32,80.26,80.26,80.28,80.27,80.23,80.15,80.02,79.94,79.90,79.90,79.85,79.74,79.67,79.72,80.00,80.24,80.34,80.31,80.33,80.34,80.35,80.30,80.12,79.93,79.85,79.83,79.82,79.84,79.83,79.81,79.78,79.79,79.80,79.81,79.82,79.80,79.83,79.85,79.83,79.76,79.72,79.66,79.55,79.46,79.49,79.79,80.07,80.23,80.26,80.27,80.23,80.16,80.08,80.00,79.91,79.56,78.95,78.17,77.92,78.21,78.86,79.63,79.83,79.81,79.77,79.73,79.65,79.65,79.70,79.76,79.78,79.73,79.62,79.53,79.50,79.54,79.61,79.73,79.86,79.97,80.00,80.09,80.20,80.30,80.34,80.35,80.36,80.36,80.36,80.35,80.36,80.36,80.39,80.52,80.61,80.61,80.54,80.51,80.43,80.28,80.11,79.96,79.73,79.48,79.32,79.28,79.26,79.26,79.28,79.29,79.25,79.22,79.21,79.21,79.20,79.20,79.20,79.20,79.20,79.24,79.19,79.10,78.99,78.87,78.77,78.72,78.72,78.79,79.03,79.15,79.17,79.12,79.10,79.05,79.01,79.00,79.00,78.94,78.92,78.90,78.89,78.83,78.86,78.88,78.89,78.90,78.85,78.82,78.81,78.80,78.80,78.75,78.71,78.67,78.62,78.52,78.52,78.61,78.78,79.13,79.22,79.30,79.65,80.88,82.37,83.47,84.21,84.80,84.92,84.78,84.53,84.26,84.07,83.97,83.79,83.52,83.24
80.95,81.04,81.09,81.09,81.07,81.02,80.97,80.93,80.90,80.87,80.87,80.88,80.97,81.22,81.26,81.26,81.21,81.14,81.06,80.97,80.91,80.90,80.88,80.86,80.84,80.82,80.82,80.80,80.81,80.85,80.91,80.90,80.93,80.93,80.92,80.90,80.90,80.86,80.81,80.77,80.80,80.75,80.73,80.71,80.63,80.61,80.57,80.49,80.40,80.43,80.51,80.55,80.55,80.55,80.60,80.61,80.59,80.53,80.46,80.39,80.33,80.31,80.35,80.38,80.40,80.39,80.36,80.43,80.45,80.46,80.48,80.47,80.37,80.30,80.31,80.34,80.39,80.37,80.32,80.29,80.29,80.29,80.27,80.21,80.13,80.03,79.97,79.95,79.94,79.87,79.74,79.64,79.69,79.95,80.17,80.27,80.24,80.19,80.14,80.11,80.09,80.00,79.91,79.87,79.86,79.86,79.87,79.85,79.81,79.76,79.73,79.73,79.74,79.75,79.73,79.75,79.75,79.72,79.67,79.65,79.61,79.54,79.47,79.49,79.77,80.05,80.21,80.22,80.23,80.22,80.19,80.13,80.01,79.95,79.64,79.05,78.22,77.90,78.18,78.84,79.62,79.80,79.81,79.79,79.77,79.73,79.73,79.75,79.78,79.79,79.73,79.61,79.51,79.48,79.51,79.59,79.75,79.95,80.11,80.19,80.28,80.38,80.47,80.54,80.56,80.55,80.52,80.50,80.53,80.54,80.53,80.51,80.55,80.58,80.56,80.49,80.41,80.29,80.13,79.96,79.83,79.60,79.38,79.25,79.23,79.22,79.22,79.23,79.24,79.22,79.20,79.20,79.21,79.23,79.22,79.18,79.16,79.19,79.25,79.19,79.08,78.96,78.84,78.75,78.70,78.70,78.77,79.01,79.15,79.17,79.12,79.10,79.05,79.01,79.00,79.00,78.97,78.96,78.94,78.91,78.87,78.88,78.88,78.87,78.89,78.87,78.86,78.84,78.81,78.79,78.63,78.56,78.57,78.58,78.54,78.56,78.60,78.67,79.02,79.14,79.19,79.35,80.01,81.15,82.12,82.83,83.29,83.21,82.99,82.73,82.50,82.45,82.34,82.20,82.03,81.84
80.97,81.05,81.09,81.09,81.05,81.02,80.96,80.91,80.90,80.90,80.90,80.90,80.98,81.23,81.28,81.27,81.22,81.14,81.06,80.97,80.91,80.90,80.90,80.90,80.85,80.81,80.80,80.81,80.86,80.92,80.96,80.98,80.97,80.94,80.91,80.90,80.90,80.87,80.83,80.81,80.87,80.83,80.79,80.77,80.70,80.70,80.67,80.57,80.40,80.39,80.44,80.52,80.58,80.60,80.60,80.62,80.63,80.56,80.50,80.43,80.36,80.31,80.38,80.40,80.40,80.38,80.34,80.40,80.42,80.44,80.50,80.50,80.39,80.30,80.28,80.30,80.33,80.32,80.28,80.27,80.28,80.27,80.23,80.16,80.09,80.02,79.99,79.98,79.96,79.87,79.72,79.62,79.66,79.88,80.07,80.16,80.14,80.07,79.98,79.94,79.94,79.92,79.93,79.93,79.94,79.95,79.96,79.94,79.89,79.81,79.73,79.73,79.74,79.75,79.76,79.75,79.71,79.67,79.63,79.63,79.61,79.55,79.49,79.49,79.75,80.03,80.21,80.21,80.22,80.23,80.21,80.15,80.01,79.99,79.73,79.16,78.29,77.89,78.12,78.77,79.54,79.77,79.80,79.81,79.81,79.80,79.80,79.80,79.80,79.79,79.73,79.60,79.50,79.46,79.48,79.57,79.77,80.02,80.25,80.36,80.43,80.48,80.53,80.61,80.64,80.61,80.53,80.48,80.51,80.51,80.47,80.40,80.42,80.47,80.48,80.41,80.31,80.16,80.00,79.86,79.73,79.50,79.32,79.22,79.20,79.20,79.20,79.20,79.20,79.20,79.20,79.20,79.21,79.24,79.23,79.18,79.15,79.18,79.26,79.19,79.07,78.93,78.82,78.72,78.68,78.68,78.75,79.00,79.14,79.17,79.12,79.10,79.05,79.02,79.00,79.00,79.00,79.00,78.98,78.93,78.91,78.90,78.88,78.86,78.88,78.89,78.88,78.85,78.80,78.75,78.51,78.43,78.52,78.60,78.61,78.62,78.62,78.61,78.91,79.05,79.09,79.08,79.24,79.90,80.63,81.23,81.56,81.32,81.09,80.85,80.65,80.73,80.60,80.47,80.40,80.30
81.03,81.08,81.10,81.09,81.08,81.03,80.96,80.91,80.91,80.96,80.93,80.91,80.96,81.17,81.26,81.29,81.26,81.19,81.11,80.99,80.92,80.90,80.90,80.95,80.89,80.81,80.80,80.86,80.93,80.95,80.93,80.98,80.94,80.91,80.90,80.90,80.90,80.93,80.93,80.88,80.95,80.91,80.84,80.79,80.77,80.77,80.69,80.55,80.40,80.34,80.33,80.41,80.52,80.59,80.59,80.57,80.53,80.51,80.49,80.44,80.37,80.32,80.38,80.40,80.40,80.40,80.39,80.45,80.45,80.44,80.51,80.56,80.45,80.32,80.22,80.22,80.18,80.19,80.20,80.15,80.19,80.17,80.13,80.09,80.03,79.97,79.96,79.96,79.90,79.80,79.69,79.61,79.64,79.80,79.92,80.00,80.02,80.02,80.00,80.01,80.02,80.00,80.02,80.05,80.09,80.12,80.18,80.15,80.10,80.00,79.83,79.83,79.88,79.94,79.98,79.91,79.81,79.74,79.73,79.74,79.70,79.62,79.55,79.50,79.70,80.01,80.23,80.27,80.28,80.26,80.20,80.10,80.02,80.03,79.84,79.33,78.46,77.89,78.01,78.57,79.31,79.73,79.80,79.82,79.82,79.82,79.81,79.81,79.81,79.79,79.73,79.61,79.51,79.47,79.47,79.52,79.74,80.06,80.35,80.43,80.43,80.38,80.32,80.38,80.38,80.31,80.19,80.07,80.01,79.92,79.80,79.67,79.90,80.18,80.33,80.32,80.25,80.10,79.98,79.87,79.71,79.45,79.28,79.20,79.20,79.22,79.20,79.19,79.19,79.20,79.20,79.20,79.20,79.21,79.21,79.22,79.24,79.25,79.27,79.20,79.07,78.93,78.80,78.69,78.64,78.65,78.76,79.02,79.14,79.15,79.12,79.10,79.07,79.04,79.01,79.00,79.00,79.00,78.99,78.96,78.92,78.90,78.90,78.89,78.90,78.87,78.84,78.79,78.72,78.65,78.41,78.40,78.60,78.74,78.72,78.72,78.71,78.68,78.82,78.95,78.99,78.94,78.95,79.06,79.31,79.59,79.77,79.57,79.42,79.27,79.10,79.22,79.07,78.95,78.92,78.96
81.03,81.09,81.11,81.11,81.10,81.06,80.98,80.92,80.91,80.97,80.96,80.93,80.96,81.11,81.23,81.29,81.28,81.24,81.13,81.02,80.94,80.90,80.90,80.96,80.90,80.83,80.84,80.91,80.97,80.98,80.96,80.99,80.96,80.94,80.92,80.89,80.87,80.91,80.92,80.87,80.92,80.87,80.79,80.73,80.71,80.70,80.63,80.53,80.44,80.35,80.31,80.35,80.46,80.56,80.55,80.52,80.49,80.44,80.44,80.43,80.40,80.35,80.37,80.40,80.41,80.40,80.42,80.48,80.48,80.47,80.53,80.60,80.50,80.34,80.21,80.22,80.16,80.16,80.17,80.11,80.14,80.13,80.10,80.07,80.03,79.98,79.95,79.94,79.87,79.78,79.68,79.61,79.63,79.76,79.91,80.03,80.09,80.08,80.13,80.14,80.12,80.08,80.11,80.14,80.17,80.20,80.24,80.22,80.18,80.11,79.95,79.97,80.03,80.10,80.15,80.09,79.97,79.87,79.83,79.82,79.77,79.67,79.57,79.51,79.72,80.02,80.24,80.28,80.30,80.28,80.21,80.11,80.02,80.03,79.90,79.48,78.66,77.92,77.99,78.57,79.34,79.74,79.80,79.80,79.82,79.82,79.82,79.82,79.83,79.81,79.73,79.61,79.51,79.46,79.44,79.48,79.60,79.76,79.87,79.91,79.86,79.75,79.62,79.64,79.63,79.56,79.44,79.32,79.24,79.16,79.08,79.01,79.45,79.94,80.22,80.24,80.19,80.08,79.98,79.88,79.69,79.44,79.29,79.22,79.20,79.22,79.21,79.20,79.20,79.20,79.20,79.20,79.20,79.20,79.21,79.25,79.28,79.29,79.30,79.24,79.11,78.95,78.82,78.69,78.63,78.64,78.76,79.02,79.12,79.14,79.11,79.10,79.09,79.06,79.04,79.01,79.00,79.00,78.99,78.95,78.92,78.92,78.92,78.91,78.90,78.88,78.85,78.82,78.76,78.71,78.59,78.60,78.73,78.80,78.78,78.77,78.76,78.72,78.77,78.84,78.84,78.76,78.73,78.68,78.73,78.83,78.87,78.76,78.69,78.61,78.52,78.60,78.51,78.42,78.39,78.40
81.00,81.10,81.14,81.13,81.11,81.10,81.00,80.92,80.91,80.97,80.99,80.97,80.96,81.05,81.20,81.28,81.30,81.28,81.15,81.04,80.96,80.91,80.90,80.95,80.90,80.86,80.89,80.95,80.98,81.00,81.00,81.00,81.00,80.98,80.95,80.87,80.82,80.85,80.86,80.81,80.84,80.78,80.70,80.64,80.60,80.57,80.53,80.50,80.49,80.39,80.33,80.32,80.39,80.51,80.49,80.48,80.47,80.37,80.37,80.42,80.45,80.40,80.35,80.40,80.42,80.41,80.44,80.51,80.51,80.51,80.55,80.63,80.54,80.38,80.22,80.26,80.21,80.19,80.18,80.10,80.10,80.12,80.12,80.07,80.05,80.01,79.97,79.92,79.87,79.79,79.68,79.61,79.62,79.73,79.95,80.14,80.23,80.19,80.29,80.29,80.21,80.15,80.19,80.21,80.22,80.24,80.23,80.22,80.21,80.18,80.08,80.11,80.18,80.24,80.30,80.26,80.14,80.02,79.93,79.89,79.82,79.70,79.58,79.52,79.77,80.05,80.23,80.27,80.29,80.28,80.23,80.14,80.01,80.01,79.94,79.62,78.86,77.96,78.02,78.65,79.47,79.77,79.79,79.79,79.80,79.83,79.82,79.83,79.84,79.82,79.74,79.61,79.50,79.44,79.42,79.44,79.41,79.31,79.14,79.14,79.06,78.91,78.76,78.74,78.73,78.67,78.57,78.48,78.42,78.40,78.39,78.43,79.04,79.71,80.09,80.15,80.13,80.05,79.99,79.88,79.67,79.44,79.31,79.24,79.20,79.22,79.23,79.23,79.22,79.20,79.20,79.20,79.20,79.21,79.24,79.27,79.30,79.31,79.34,79.29,79.14,78.97,78.83,78.70,78.63,78.64,78.76,79.02,79.11,79.12,79.11,79.11,79.10,79.09,79.06,79.02,79.00,79.00,78.98,78.94,78.91,78.94,78.94,78.92,78.91,78.89,78.88,78.87,78.85,78.84,78.86,78.87,78.86,78.82,78.80,78.79,78.78,78.73,78.72,78.72,78.67,78.57,78.55,78.53,78.52,78.50,78.43,78.41,78.41,78.41,78.40,78.40,78.39,78.35,78.29,78.23
81.05,81.11,81.14,81.15,81.14,81.11,81.01,80.92,80.91,80.95,80.98,80.98,80.97,81.01,81.16,81.25,81.27,81.24,81.14,81.01,80.93,80.90,80.90,80.92,80.90,80.89,80.90,80.92,80.95,80.98,81.00,80.97,80.97,80.91,80.84,80.83,80.81,80.85,80.86,80.80,80.76,80.69,80.62,80.58,80.57,80.53,80.49,80.46,80.43,80.40,80.34,80.30,80.31,80.40,80.42,80.44,80.44,80.36,80.33,80.38,80.43,80.43,80.42,80.43,80.42,80.41,80.48,80.52,80.50,80.49,80.55,80.60,80.51,80.37,80.26,80.31,80.28,80.26,80.24,80.14,80.14,80.16,80.17,80.14,80.06,80.02,80.01,80.00,79.95,79.86,79.75,79.66,79.62,79.70,79.92,80.12,80.21,80.21,80.27,80.26,80.20,80.18,80.20,80.21,80.23,80.27,80.23,80.22,80.23,80.25,80.19,80.22,80.25,80.28,80.30,80.27,80.19,80.09,79.99,79.92,79.85,79.73,79.59,79.53,79.75,80.03,80.22,80.24,80.25,80.24,80.21,80.14,80.04,80.01,79.96,79.67,78.95,77.96,78.04,78.70,79.50,79.77,79.80,79.80,79.82,79.84,79.80,79.78,79.77,79.78,79.73,79.60,79.49,79.42,79.38,79.41,79.28,79.01,78.65,78.65,78.62,78.57,78.52,78.51,78.51,78.49,78.46,78.43,78.41,78.40,78.40,78.42,78.77,79.31,79.74,79.94,79.91,79.92,79.93,79.88,79.64,79.42,79.30,79.24,79.20,79.21,79.24,79.26,79.27,79.23,79.21,79.20,79.21,79.24,79.27,79.29,79.31,79.35,79.38,79.31,79.13,78.92,78.77,78.68,78.62,78.64,78.76,79.02,79.14,79.17,79.17,79.17,79.13,79.11,79.07,79.03,79.00,79.00,78.98,78.93,78.91,78.95,78.97,78.97,78.97,78.96,78.93,78.90,78.88,78.87,78.85,78.81,78.75,78.69,78.67,78.66,78.66,78.64,78.64,78.61,78.56,78.53,78.57,78.54,78.52,78.49,78.43,78.42,78.42,78.41,78.40,78.37,78.34,78.33,78.30,78.24
81.10,81.13,81.15,81.16,81.14,81.11,81.02,80.94,80.91,80.93,80.96,80.96,80.96,80.97,81.11,81.21,81.25,81.22,81.13,81.00,80.92,80.90,80.90,80.90,80.90,80.90,80.90,80.90,80.92,80.95,80.98,80.96,80.95,80.88,80.81,80.82,80.82,80.85,80.85,80.80,80.74,80.67,80.60,80.56,80.54,80.49,80.44,80.40,80.37,80.35,80.32,80.29,80.27,80.33,80.38,80.42,80.41,80.34,80.33,80.37,80.41,80.44,80.44,80.45,80.42,80.39,80.47,80.51,80.48,80.46,80.54,80.58,80.50,80.38,80.29,80.33,80.33,80.31,80.27,80.15,80.15,80.18,80.20,80.19,80.08,80.03,80.03,80.06,80.01,79.91,79.80,79.69,79.58,79.65,79.88,80.09,80.21,80.24,80.27,80.26,80.21,80.18,80.22,80.23,80.24,80.24,80.16,80.17,80.19,80.21,80.21,80.22,80.24,80.25,80.25,80.20,80.13,80.07,79.99,79.90,79.84,79.72,79.58,79.53,79.74,80.01,80.20,80.22,80.22,80.22,80.20,80.16,80.08,80.02,79.97,79.71,79.02,77.96,77.99,78.61,79.41,79.76,79.80,79.81,79.82,79.83,79.79,79.76,79.75,79.76,79.72,79.61,79.49,79.40,79.36,79.39,79.22,78.86,78.39,78.39,78.40,78.40,78.40,78.41,78.41,78.42,78.43,78.44,78.44,78.44,78.45,78.47,78.70,79.17,79.58,79.82,79.84,79.88,79.93,79.88,79.66,79.43,79.31,79.26,79.23,79.23,79.26,79.28,79.27,79.23,79.21,79.21,79.24,79.27,79.30,79.31,79.34,79.38,79.39,79.30,79.11,78.89,78.74,78.67,78.63,78.67,78.82,79.05,79.16,79.20,79.20,79.18,79.14,79.11,79.08,79.04,79.01,79.00,78.97,78.93,78.93,78.96,78.98,78.98,78.97,78.96,78.91,78.86,78.84,78.83,78.80,78.76,78.71,78.63,78.62,78.61,78.61,78.61,78.61,78.57,78.53,78.53,78.61,78.59,78.57,78.57,78.60,78.62,78.63,78.64,78.63,78.54,78.44,78.45,78.51,78.43
81.17,81.19,81.18,81.15,81.11,81.10,81.03,80.96,80.91,80.90,80.92,80.92,80.92,80.94,81.07,81.17,81.23,81.22,81.13,81.00,80.92,80.90,80.90,80.90,80.90,80.90,80.90,80.90,80.90,80.91,80.94,80.97,80.93,80.89,80.87,80.87,80.87,80.85,80.82,80.80,80.77,80.71,80.64,80.58,80.51,80.45,80.39,80.33,80.30,80.25,80.28,80.29,80.28,80.30,80.37,80.40,80.38,80.32,80.36,80.39,80.41,80.42,80.42,80.45,80.41,80.34,80.42,80.47,80.45,80.44,80.52,80.58,80.52,80.41,80.30,80.31,80.35,80.34,80.26,80.12,80.13,80.17,80.22,80.24,80.11,80.04,80.05,80.09,80.06,79.94,79.82,79.69,79.52,79.57,79.81,80.06,80.23,80.28,80.29,80.28,80.23,80.15,80.25,80.28,80.23,80.14,80.01,80.06,80.08,80.08,80.12,80.12,80.13,80.15,80.16,80.04,79.98,79.95,79.94,79.82,79.77,79.67,79.54,79.49,79.74,79.99,80.16,80.20,80.20,80.20,80.20,80.19,80.13,80.04,79.98,79.75,79.09,77.95,77.86,78.39,79.19,79.73,79.80,79.80,79.80,79.80,79.80,79.80,79.79,79.76,79.71,79.62,79.51,79.39,79.36,79.38,79.22,78.86,78.37,78.36,78.39,78.41,78.41,78.42,78.42,78.46,78.50,78.52,78.51,78.53,78.55,78.58,78.86,79.27,79.60,79.79,79.92,79.95,79.96,79.91,79.74,79.48,79.35,79.31,79.30,79.30,79.30,79.27,79.24,79.21,79.22,79.24,79.27,79.30,79.31,79.34,79.38,79.40,79.39,79.26,79.07,78.87,78.73,78.69,78.65,78.72,78.93,79.11,79.17,79.19,79.19,79.15,79.12,79.10,79.08,79.07,79.03,79.01,78.97,78.94,79.00,78.99,78.97,78.94,78.91,78.88,78.82,78.77,78.74,78.72,78.72,78.73,78.71,78.65,78.65,78.64,78.63,78.63,78.64,78.61,78.57,78.58,78.68,78.68,78.67,78.74,78.95,79.01,79.05,79.08,79.09,78.93,78.69,78.73,78.93,78.79
81.21,81.27,81.26,81.21,81.13,81.10,81.07,81.02,80.96,80.92,80.91,80.91,80.90,80.88,81.00,81.10,81.17,81.20,81.13,81.00,80.92,80.90,80.90,80.90,80.90,80.90,80.90,80.90,80.90,80.90,80.92,80.93,80.91,80.90,80.89,80.89,80.89,80.87,80.81,80.70,80.68,80.62,80.55,80.48,80.45,80.38,80.34,80.32,80.35,80.33,80.34,80.33,80.28,80.25,80.31,80.37,80.39,80.37,80.39,80.40,80.40,80.42,80.51,80.50,80.46,80.43,80.46,80.45,80.45,80.47,80.51,80.57,80.52,80.39,80.24,80.25,80.34,80.34,80.26,80.16,80.12,80.16,80.20,80.19,80.06,79.99,79.99,80.04,80.03,79.96,79.82,79.66,79.51,79.55,79.76,79.99,80.17,80.25,80.19,80.14,80.09,80.02,80.05,80.03,80.00,79.98,79.94,79.93,79.93,79.92,79.93,79.91,79.92,79.93,79.91,79.85,79.82,79.81,79.80,79.74,79.71,79.64,79.55,79.51,79.69,79.94,80.15,80.25,80.26,80.25,80.24,80.21,80.17,80.05,79.99,79.75,79.06,77.89,77.73,78.14,78.86,79.67,79.79,79.79,79.79,79.78,79.79,79.79,79.79,79.77,79.71,79.62,79.52,79.43,79.40,79.43,79.31,79.03,78.64,78.64,78.67,78.71,78.74,78.76,78.80,78.89,79.00,79.10,79.19,79.22,79.23,79.28,79.52,79.80,79.97,80.03,80.06,80.03,79.99,79.92,79.78,79.52,79.37,79.32,79.32,79.30,79.30,79.27,79.24,79.23,79.24,79.27,79.30,79.32,79.35,79.37,79.39,79.39,79.35,79.20,79.02,78.83,78.67,78.63,78.61,78.68,78.89,79.05,79.12,79.14,79.14,79.13,79.09,79.03,79.00,78.98,78.95,78.94,78.92,78.90,78.92,78.90,78.88,78.86,78.84,78.85,78.83,78.82,78.82,78.78,78.78,78.79,78.79,78.74,78.74,78.73,78.73,78.73,78.73,78.73,78.78,78.90,79.15,79.37,79.59,79.89,80.40,80.51,80.57,80.64,80.68,80.28,79.74,79.59,79.70,79.50
81.25,81.33,81.33,81.26,81.14,81.11,81.09,81.06,81.00,80.93,80.91,80.90,80.88,80.83,80.93,81.03,81.11,81.16,81.11,80.99,80.91,80.90,80.90,80.90,80.90,80.90,80.90,80.90,80.90,80.90,80.90,80.91,80.89,80.89,80.90,80.88,80.86,80.86,80.78,80.61,80.58,80.53,80.47,80.43,80.42,80.36,80.33,80.35,80.41,80.43,80.43,80.40,80.32,80.23,80.26,80.33,80.39,80.40,80.42,80.42,80.42,80.44,80.55,80.51,80.49,80.50,80.51,80.45,80.46,80.49,80.50,80.52,80.47,80.35,80.20,80.19,80.31,80.33,80.27,80.19,80.11,80.13,80.17,80.15,80.04,79.97,79.96,79.99,80.01,79.97,79.83,79.64,79.50,79.54,79.71,79.91,80.09,80.18,80.09,80.02,79.99,79.95,79.91,79.88,79.87,79.90,79.93,79.88,79.85,79.85,79.82,79.79,79.80,79.80,79.75,79.75,79.75,79.73,79.72,79.70,79.68,79.64,79.57,79.52,79.65,79.89,80.13,80.28,80.30,80.29,80.27,80.24,80.19,80.05,79.99,79.75,79.04,77.83,77.61,77.93,78.56,79.62,79.77,79.78,79.78,79.76,79.77,79.78,79.78,79.75,79.69,79.61,79.53,79.47,79.44,79.47,79.40,79.23,78.98,79.01,79.06,79.12,79.16,79.19,79.25,79.35,79.48,79.62,79.75,79.80,79.81,79.87,80.06,80.19,80.24,80.22,80.17,80.10,80.02,79.92,79.79,79.53,79.37,79.31,79.32,79.30,79.30,79.27,79.23,79.22,79.24,79.28,79.31,79.34,79.37,79.40,79.40,79.39,79.32,79.17,78.98,78.79,78.62,78.59,78.57,78.64,78.82,78.98,79.03,79.05,79.05,79.05,79.01,78.96,78.91,78.89,78.87,78.87,78.87,78.86,78.85,78.84,78.83,78.83,78.83,78.85,78.85,78.86,78.89,78.85,78.84,78.84,78.84,78.82,78.83,78.82,78.82,78.82,78.82,78.86,78.98,79.22,79.66,80.17,80.69,81.28,82.04,82.20,82.29,82.36,82.38,81.80,80.99,80.53,80.39,80.12
81.27,81.35,81.35,81.27,81.15,81.11,81.09,81.06,81.00,80.94,80.91,80.90,80.88,80.82,80.88,80.99,81.08,81.10,81.04,80.95,80.90,80.89,80.90,80.90,80.90,80.90,80.90,80.90,80.90,80.91,80.90,80.90,80.84,80.85,80.86,80.80,80.73,80.74,80.69,80.53,80.48,80.46,80.47,80.49,80.50,80.43,80.40,80.42,80.48,80.55,80.54,80.51,80.44,80.30,80.24,80.28,80.37,80.42,80.47,80.47,80.47,80.47,80.49,80.45,80.44,80.49,80.52,80.49,80.47,80.46,80.45,80.37,80.33,80.27,80.18,80.13,80.24,80.28,80.26,80.21,80.09,80.09,80.12,80.13,80.10,80.02,79.97,79.97,80.02,79.98,79.86,79.68,79.51,79.55,79.67,79.82,79.97,80.05,80.00,80.00,80.04,80.05,79.99,79.99,80.02,80.05,80.06,79.99,79.95,79.95,79.93,79.89,79.90,79.90,79.84,79.87,79.86,79.82,79.78,79.75,79.73,79.68,79.61,79.51,79.61,79.85,80.10,80.25,80.29,80.30,80.29,80.27,80.19,80.03,79.98,79.76,79.04,77.78,77.53,77.80,78.39,79.57,79.76,79.77,79.75,79.71,79.73,79.74,79.72,79.68,79.63,79.59,79.55,79.51,79.47,79.47,79.47,79.45,79.41,79.50,79.60,79.68,79.72,79.75,79.77,79.79,79.83,79.87,79.93,79.98,80.03,80.09,80.16,80.20,80.21,80.20,80.19,80.15,80.06,79.92,79.73,79.48,79.33,79.28,79.30,79.30,79.30,79.26,79.20,79.16,79.20,79.25,79.29,79.32,79.36,79.41,79.42,79.38,79.33,79.19,78.97,78.75,78.60,78.59,78.56,78.60,78.73,78.89,78.90,78.88,78.86,78.86,78.86,78.85,78.83,78.82,78.80,78.80,78.81,78.82,78.85,78.89,78.91,78.91,78.91,78.90,78.87,78.87,78.90,78.90,78.87,78.84,78.84,78.87,78.90,78.90,78.89,78.88,78.87,78.94,79.13,79.47,80.17,81.05,81.99,82.94,83.82,84.07,84.17,84.18,84.08,83.49,82.48,81.53,80.81,80.46
