59.46,59.40,59.33,59.23,59.14,59.07,59.00,58.89,58.78,58.72,58.69,58.65,58.64,58.76,58.95,59.17,59.28,59.32,59.31,59.28,59.26,59.27,59.29,59.31,59.30,59.26,59.22,59.19,59.15,59.07,58.98,58.88,58.77,58.67,58.64,58.60,58.55,58.46,58.41,58.62,58.88,59.04,59.00,58.90,58.81,58.97,59.73,60.68,60.57,59.94,59.26,58.90,58.87,59.17,59.75,60.54,61.50,62.47,63.33,63.95,64.09,64.10,64.04,63.95,63.91,63.89,63.85,63.81,63.76,63.35,62.75,62.32,62.30,62.48,62.47,61.95,60.86,59.29,58.25,57.82,57.80,57.89,57.93,57.92,57.90,57.90,57.86,57.85,57.79,57.72,57.67,57.68,57.68,57.64,57.56,57.41,57.30,57.26,57.26,57.28,57.25,57.23,57.24,57.24,57.11,57.11,57.12,57.11,57.11,57.11,57.10,57.08,57.01,56.98,57.01,57.05,57.04,57.06,56.98,56.90,56.85,56.82,56.79,56.78,56.75,56.65,56.72,56.65,56.55,56.50,56.54,56.54,56.56,56.60,56.70,56.70,56.68,56.66,56.65,56.69,56.67,56.66,56.68,56.59,56.50,56.45,56.46,56.54,56.39,56.32,56.26,56.20,56.20,56.22,56.21,56.18,56.18,56.19,56.19,56.16,56.09,56.08,56.07,56.04,55.97,55.86,55.89,56.03,56.21,56.30,56.73,56.97,57.11,57.21,57.23,57.23,57.22,57.20,57.15,57.15,57.12,57.09,57.09,57.07,57.07,57.08,57.10,57.10,57.08,57.04,57.02,57.04,57.04,57.07,57.10,57.10,57.04,57.03,57.03,57.02,57.00,57.00,57.00,56.98,56.90,56.72,56.47,56.12,55.65,55.14,54.81,54.71,54.73,54.73,54.78,54.81,54.83,54.86,54.86,54.83,54.81,54.81,54.81,54.88,54.93,54.95,54.93,54.97,54.99,55.00,54.99,54.96,54.91,54.89,54.92,55.00,55.10,55.14,55.15,55.14,55.11,55.04,54.79,54.43,54.14,54.36,54.60,54.79,54.90,55.00,55.11,55.19,55.23,55.28,55.35,55.41
59.31,59.28,59.24,59.17,59.12,59.08,59.05,58.94,58.80,58.72,58.69,58.67,58.65,58.75,58.93,59.14,59.24,59.28,59.27,59.25,59.25,59.27,59.29,59.30,59.30,59.26,59.22,59.20,59.20,59.16,59.10,59.03,58.96,58.86,58.76,58.68,58.61,58.52,58.44,58.76,59.06,59.16,59.03,58.92,58.89,59.23,60.36,61.55,61.28,60.41,59.62,59.25,58.95,58.91,59.18,59.79,60.60,61.55,62.56,63.54,63.96,64.10,64.08,63.99,63.94,63.93,63.89,63.84,63.79,63.71,63.29,62.76,62.33,62.47,62.62,62.46,61.82,60.50,58.96,58.13,57.87,57.90,57.96,57.93,57.87,57.83,57.74,57.71,57.68,57.66,57.69,57.75,57.76,57.71,57.60,57.41,57.29,57.27,57.32,57.38,57.36,57.31,57.25,57.21,57.13,57.11,57.10,57.11,57.13,57.11,57.10,57.07,57.01,56.96,57.03,57.09,57.08,57.10,57.01,56.94,56.90,56.85,56.88,56.90,56.84,56.65,56.76,56.67,56.56,56.52,56.51,56.50,56.53,56.60,56.70,56.72,56.71,56.68,56.65,56.68,56.67,56.66,56.67,56.68,56.73,56.75,56.71,56.63,56.43,56.33,56.26,56.19,56.19,56.21,56.19,56.14,56.14,56.17,56.18,56.15,56.09,56.05,56.00,55.96,55.90,55.83,55.94,56.24,56.62,56.92,57.22,57.29,57.26,57.22,57.26,57.26,57.24,57.19,57.10,57.11,57.07,57.04,57.05,57.08,57.06,57.06,57.09,57.10,57.08,57.06,57.05,57.08,57.07,57.10,57.14,57.15,57.08,57.07,57.06,57.04,57.01,57.00,57.00,57.01,57.03,57.05,56.95,56.65,56.11,55.33,54.80,54.62,54.65,54.64,54.67,54.69,54.72,54.73,54.74,54.72,54.69,54.67,54.66,54.74,54.80,54.82,54.79,54.86,54.91,54.93,54.93,54.95,54.93,54.91,54.93,55.00,55.09,55.13,55.12,55.09,55.09,55.04,54.82,54.50,54.32,54.55,54.64,54.64,54.70,54.87,54.96,55.01,55.03,55.08,55.16,55.24
59.23,59.22,59.20,59.15,59.07,59.00,58.93,58.82,58.72,58.69,58.71,58.71,58.66,58.68,58.76,58.93,59.09,59.18,59.23,59.25,59.24,59.25,59.28,59.30,59.30,59.26,59.22,59.20,59.20,59.18,59.14,59.11,59.07,59.00,58.93,58.83,58.69,58.52,58.43,58.74,59.06,59.19,59.06,58.93,58.93,59.39,60.73,61.82,61.65,60.88,60.05,59.59,59.25,59.02,58.97,59.24,59.89,60.67,61.58,62.61,63.49,63.95,64.11,64.05,64.00,63.97,63.92,63.85,63.78,63.74,63.59,63.26,62.74,62.48,62.58,62.63,62.38,61.60,60.14,58.93,58.15,57.89,57.90,57.87,57.82,57.78,57.75,57.72,57.70,57.69,57.70,57.76,57.80,57.77,57.62,57.48,57.43,57.42,57.44,57.50,57.46,57.34,57.23,57.20,57.13,57.13,57.13,57.12,57.17,57.13,57.08,57.04,57.00,56.99,57.06,57.12,57.08,57.10,57.04,56.98,56.94,56.89,56.86,56.88,56.86,56.76,56.81,56.73,56.66,56.64,56.56,56.48,56.52,56.64,56.70,56.63,56.63,56.64,56.62,56.64,56.62,56.58,56.54,56.54,56.53,56.50,56.46,56.42,56.36,56.31,56.23,56.13,56.10,56.13,56.13,56.11,56.10,56.09,56.09,56.09,56.08,55.99,55.83,55.81,55.96,56.13,56.28,56.57,56.91,57.18,57.27,57.29,57.26,57.23,57.28,57.28,57.22,57.13,57.09,57.10,57.09,57.08,57.06,57.04,57.01,57.00,57.01,57.08,57.07,57.10,57.14,57.15,57.15,57.15,57.15,57.12,57.09,57.09,57.09,57.08,57.05,57.01,57.01,57.03,57.05,57.03,56.96,56.78,56.41,55.69,54.93,54.60,54.58,54.59,54.60,54.63,54.63,54.61,54.66,54.67,54.65,54.61,54.59,54.63,54.67,54.69,54.65,54.66,54.69,54.75,54.81,54.83,54.88,54.90,54.91,54.93,54.98,55.04,55.09,55.13,55.10,55.01,54.87,54.70,54.60,54.68,54.50,54.26,54.24,54.50,54.57,54.64,54.77,54.92,55.03,55.07
59.18,59.19,59.18,59.11,59.02,58.92,58.84,58.75,58.70,58.70,58.73,58.73,58.68,58.65,58.66,58.75,58.88,58.99,59.08,59.15,59.16,59.20,59.25,59.27,59.27,59.23,59.20,59.19,59.20,59.19,59.17,59.15,59.11,59.07,59.03,58.93,58.75,58.54,58.52,58.83,59.13,59.26,59.13,58.98,58.99,59.43,60.66,61.79,61.97,61.56,60.87,60.27,59.77,59.36,59.07,59.00,59.36,59.91,60.68,61.67,62.76,63.53,63.96,64.06,64.02,63.99,63.94,63.87,63.80,63.77,63.73,63.54,63.15,62.72,62.63,62.66,62.65,62.33,61.20,59.89,58.73,58.01,57.87,57.82,57.79,57.77,57.75,57.74,57.74,57.76,57.76,57.81,57.81,57.74,57.62,57.57,57.55,57.52,57.51,57.56,57.53,57.38,57.23,57.20,57.13,57.14,57.16,57.15,57.19,57.14,57.07,57.02,57.00,57.00,57.07,57.11,57.05,57.06,57.05,57.00,56.94,56.90,56.85,56.86,56.87,56.80,56.81,56.75,56.70,56.69,56.63,56.55,56.58,56.67,56.70,56.58,56.56,56.57,56.53,56.57,56.52,56.47,56.45,56.45,56.40,56.36,56.33,56.32,56.31,56.29,56.22,56.11,56.08,56.08,56.09,56.09,56.06,56.07,56.09,56.11,56.11,55.97,55.91,55.99,56.22,56.50,56.65,56.85,57.07,57.25,57.29,57.29,57.25,57.18,57.14,57.18,57.17,57.11,57.09,57.10,57.10,57.09,57.06,56.98,56.96,56.97,56.98,57.01,57.01,57.06,57.12,57.12,57.14,57.14,57.12,57.09,57.08,57.09,57.10,57.09,57.06,57.02,57.03,57.06,57.07,57.03,56.97,56.85,56.63,56.15,55.50,55.10,54.93,54.89,54.86,54.82,54.75,54.65,54.68,54.70,54.70,54.66,54.61,54.61,54.64,54.66,54.65,54.64,54.66,54.70,54.75,54.79,54.85,54.87,54.87,54.88,54.92,54.96,55.02,55.07,55.07,55.00,54.91,54.81,54.75,54.76,54.58,54.36,54.28,54.28,54.22,54.29,54.51,54.67,54.70,54.74
59.16,59.17,59.16,59.06,58.96,58.85,58.75,58.71,58.70,58.72,58.75,58.75,58.70,58.65,58.61,58.60,58.65,58.74,58.86,58.99,59.05,59.13,59.20,59.23,59.21,59.17,59.16,59.18,59.20,59.19,59.19,59.16,59.10,59.07,59.08,58.99,58.82,58.58,58.67,58.98,59.25,59.36,59.22,59.05,59.06,59.41,60.31,61.55,62.24,62.36,61.94,61.15,60.44,59.85,59.38,58.96,58.96,59.24,59.83,60.72,61.85,62.93,63.69,64.04,64.03,64.00,63.94,63.88,63.82,63.79,63.75,63.69,63.57,63.11,62.73,62.62,62.73,62.82,62.19,60.97,59.50,58.21,57.84,57.77,57.79,57.79,57.75,57.76,57.80,57.85,57.86,57.88,57.79,57.67,57.62,57.66,57.65,57.59,57.54,57.59,57.58,57.42,57.24,57.20,57.13,57.16,57.19,57.19,57.20,57.14,57.07,57.01,57.00,57.00,57.06,57.08,57.01,57.01,57.05,57.02,56.92,56.90,56.83,56.85,56.87,56.80,56.80,56.75,56.71,56.71,56.69,56.68,56.68,56.70,56.70,56.55,56.51,56.49,56.43,56.49,56.39,56.35,56.40,56.39,56.33,56.30,56.30,56.30,56.30,56.29,56.22,56.10,56.09,56.04,56.05,56.08,56.02,56.09,56.16,56.19,56.15,55.98,56.13,56.37,56.62,56.90,57.05,57.10,57.13,57.21,57.28,57.29,57.23,57.09,56.90,57.02,57.10,57.10,57.10,57.10,57.10,57.09,57.04,56.93,56.92,56.95,56.97,56.92,56.92,56.97,57.01,57.02,57.07,57.09,57.08,57.07,57.03,57.07,57.09,57.08,57.06,57.04,57.07,57.10,57.10,57.05,56.96,56.88,56.81,56.66,56.35,55.93,55.55,55.41,55.32,55.18,55.00,54.80,54.77,54.79,54.80,54.77,54.69,54.65,54.66,54.70,54.73,54.74,54.74,54.73,54.72,54.78,54.82,54.83,54.83,54.86,54.89,54.90,54.91,54.95,55.02,55.00,54.93,54.85,54.82,54.80,54.80,54.76,54.63,54.18,53.92,53.97,54.26,54.35,54.25,54.31
59.05,59.05,59.04,58.96,58.89,58.83,58.78,58.77,58.79,58.80,58.80,58.78,58.73,58.69,58.65,58.62,58.62,58.65,58.70,58.75,58.78,58.86,58.94,58.99,59.02,59.02,59.05,59.10,59.15,59.14,59.14,59.12,59.10,59.06,59.06,58.99,58.83,58.59,58.86,59.20,59.41,59.43,59.29,59.09,59.05,59.25,59.74,60.64,61.56,62.17,62.29,61.92,61.42,60.77,60.04,59.49,59.04,58.97,59.29,60.01,60.89,61.88,62.91,63.80,64.02,64.01,63.96,63.90,63.83,63.80,63.76,63.70,63.61,63.42,63.10,62.93,62.94,62.95,62.70,61.91,60.69,59.23,58.17,57.85,57.81,57.81,57.83,57.85,57.89,57.92,57.90,57.82,57.69,57.61,57.65,57.68,57.65,57.58,57.53,57.59,57.56,57.40,57.24,57.20,57.13,57.16,57.17,57.14,57.14,57.11,57.06,57.01,57.04,57.02,57.05,57.08,57.06,57.02,56.99,56.98,56.96,56.91,56.83,56.82,56.83,56.80,56.85,56.74,56.67,56.70,56.69,56.69,56.70,56.70,56.69,56.63,56.62,56.58,56.48,56.54,56.49,56.48,56.54,56.53,56.46,56.40,56.34,56.26,56.30,56.31,56.23,56.09,56.07,56.13,56.17,56.19,56.19,56.24,56.28,56.27,56.24,56.26,56.49,56.71,56.86,56.96,57.03,57.06,57.09,57.15,57.24,57.24,57.19,57.12,57.04,57.08,57.10,57.10,57.11,57.12,57.14,57.12,57.04,56.97,56.99,57.03,57.03,56.98,56.96,57.00,57.04,57.01,57.03,57.05,57.07,57.06,57.01,57.01,57.02,57.02,57.00,57.01,57.05,57.09,57.10,57.06,56.98,56.90,56.82,56.70,56.53,56.32,56.12,56.00,55.89,55.75,55.61,55.49,55.42,55.34,55.25,55.15,55.07,55.04,55.02,55.02,55.02,54.99,54.98,54.96,54.91,54.91,54.93,54.93,54.92,54.92,54.91,54.91,54.90,54.91,54.95,54.95,54.89,54.80,54.81,54.83,54.85,54.84,54.80,54.61,54.48,54.50,54.61,54.44,54.21,54.24
58.97,58.96,58.96,58.89,58.85,58.83,58.83,58.87,58.89,58.89,58.86,58.82,58.78,58.75,58.71,58.68,58.65,58.65,58.64,58.61,58.60,58.65,58.71,58.75,58.79,58.84,58.90,58.96,59.01,59.01,59.03,59.04,59.05,59.04,59.05,58.97,58.80,58.58,58.95,59.31,59.50,59.47,59.35,59.12,59.06,59.17,59.41,60.00,61.04,62.00,62.49,62.41,62.11,61.57,60.88,60.24,59.46,59.05,59.05,59.45,60.08,60.94,62.08,63.29,63.84,63.96,63.98,63.94,63.87,63.82,63.77,63.72,63.65,63.61,63.39,63.20,63.09,63.05,63.04,62.64,61.75,60.35,58.87,58.21,57.96,57.88,57.91,57.91,57.95,57.97,57.90,57.78,57.65,57.61,57.68,57.70,57.66,57.61,57.58,57.61,57.56,57.41,57.26,57.20,57.13,57.16,57.17,57.11,57.10,57.08,57.03,56.99,57.03,57.04,57.05,57.06,57.06,57.02,56.98,56.98,56.99,56.92,56.84,56.82,56.82,56.80,56.88,56.75,56.66,56.70,56.68,56.71,56.71,56.69,56.67,56.67,56.68,56.64,56.53,56.57,56.57,56.59,56.64,56.62,56.55,56.48,56.40,56.30,56.35,56.36,56.28,56.12,56.08,56.18,56.28,56.34,56.39,56.43,56.46,56.45,56.41,56.53,56.75,56.93,57.01,57.02,57.04,57.05,57.08,57.13,57.20,57.20,57.17,57.15,57.14,57.11,57.11,57.12,57.12,57.15,57.16,57.13,57.06,57.03,57.07,57.09,57.08,57.04,57.00,57.02,57.04,57.01,57.03,57.04,57.06,57.06,57.00,56.97,56.97,56.97,56.96,56.97,57.01,57.06,57.09,57.05,56.97,56.89,56.82,56.72,56.62,56.50,56.38,56.27,56.16,56.05,55.95,55.87,55.78,55.66,55.53,55.41,55.33,55.30,55.27,55.23,55.18,55.12,55.11,55.09,55.04,54.99,54.99,54.98,54.96,54.94,54.93,54.92,54.90,54.88,54.91,54.93,54.88,54.80,54.80,54.83,54.84,54.84,54.88,54.87,54.85,54.86,54.85,54.56,54.28,54.26
58.91,58.91,58.91,58.87,58.85,58.87,58.93,59.00,59.03,59.00,58.94,58.89,58.86,58.82,58.79,58.78,58.78,58.76,58.69,58.60,58.53,58.53,58.52,58.49,58.50,58.61,58.69,58.73,58.74,58.77,58.83,58.89,58.95,59.02,59.02,58.92,58.74,58.55,58.91,59.28,59.48,59.48,59.39,59.12,59.07,59.20,59.40,59.73,60.75,61.83,62.51,62.51,62.39,62.23,61.96,61.27,60.34,59.63,59.20,59.06,59.47,60.14,61.16,62.41,63.43,63.83,64.00,64.03,63.96,63.86,63.80,63.76,63.70,63.65,63.59,63.41,63.17,63.12,63.12,63.05,62.64,61.60,60.07,58.94,58.26,58.01,57.99,57.95,57.98,57.98,57.84,57.76,57.71,57.69,57.70,57.70,57.69,57.69,57.69,57.66,57.62,57.47,57.30,57.21,57.15,57.18,57.18,57.12,57.10,57.05,56.98,56.92,56.94,57.04,57.04,57.02,57.01,57.00,57.03,57.03,56.99,56.92,56.86,56.84,56.84,56.80,56.88,56.77,56.68,56.69,56.65,56.72,56.73,56.69,56.65,56.64,56.65,56.64,56.57,56.58,56.63,56.67,56.68,56.65,56.58,56.52,56.48,56.45,56.47,56.47,56.38,56.20,56.12,56.20,56.36,56.54,56.64,56.65,56.72,56.76,56.70,56.79,56.89,56.98,57.05,57.05,57.08,57.10,57.11,57.15,57.16,57.16,57.17,57.19,57.18,57.13,57.12,57.15,57.15,57.18,57.16,57.12,57.08,57.13,57.16,57.14,57.10,57.08,57.05,57.02,57.01,57.03,57.07,57.07,57.06,57.06,56.98,56.94,56.93,56.95,56.94,56.93,56.95,57.00,57.06,57.04,56.95,56.85,56.78,56.69,56.58,56.40,56.22,56.11,56.04,55.98,55.91,55.83,55.75,55.66,55.57,55.48,55.43,55.39,55.35,55.27,55.16,55.11,55.09,55.09,55.08,55.04,55.00,54.97,54.95,54.93,54.94,54.94,54.91,54.86,54.90,54.95,54.93,54.85,54.81,54.80,54.75,54.74,54.83,54.90,54.94,54.98,54.95,54.69,54.48,54.41
58.70,58.77,58.84,58.87,58.91,58.97,59.06,59.14,59.15,59.11,59.04,59.00,58.97,58.93,58.89,58.88,58.90,58.90,58.86,58.79,58.70,58.65,58.58,58.53,58.51,58.56,58.58,58.58,58.57,58.58,58.63,58.67,58.72,58.79,58.79,58.71,58.58,58.49,58.99,59.38,59.56,59.52,59.46,59.17,59.06,59.17,59.39,59.65,60.46,61.42,62.18,62.42,62.45,62.40,62.26,61.87,61.14,60.43,59.82,59.40,59.22,59.37,60.21,61.68,62.84,63.48,63.84,63.99,63.98,63.89,63.82,63.76,63.71,63.68,63.64,63.53,63.36,63.15,63.06,63.06,62.94,62.44,61.26,59.98,58.92,58.24,58.07,58.00,57.97,57.92,57.80,57.77,57.75,57.73,57.73,57.73,57.74,57.76,57.76,57.66,57.64,57.54,57.38,57.22,57.18,57.21,57.19,57.11,57.08,57.05,57.00,56.96,56.97,57.04,57.06,57.05,57.00,57.00,57.02,57.02,56.99,56.92,56.86,56.85,56.85,56.83,56.86,56.76,56.68,56.70,56.67,56.71,56.72,56.69,56.67,56.67,56.65,56.62,56.61,56.64,56.68,56.72,56.71,56.63,56.58,56.57,56.56,56.54,56.55,56.55,56.48,56.37,56.56,56.60,56.71,56.87,56.94,56.95,56.98,56.98,56.91,56.93,56.98,57.04,57.08,57.08,57.09,57.11,57.13,57.18,57.16,57.12,57.11,57.13,57.15,57.12,57.12,57.13,57.11,57.13,57.11,57.09,57.10,57.13,57.14,57.11,57.06,57.05,57.04,57.03,57.03,57.05,57.06,57.05,57.04,57.03,56.98,56.93,56.91,56.93,56.92,56.91,56.92,56.95,56.97,56.94,56.87,56.80,56.73,56.62,56.41,56.18,56.00,55.94,55.91,55.89,55.85,55.81,55.75,55.67,55.60,55.54,55.51,55.47,55.38,55.26,55.13,55.10,55.09,55.09,55.09,55.02,54.90,54.82,54.79,54.84,54.92,54.96,54.94,54.87,54.86,54.94,54.96,54.90,54.83,54.82,54.75,54.70,54.73,54.71,54.79,54.83,54.76,54.57,54.53,54.49
58.63,58.71,58.76,58.84,58.97,59.10,59.19,59.27,59.26,59.21,59.15,59.12,59.08,59.04,59.01,58.98,59.01,59.03,59.03,58.99,58.90,58.81,58.72,58.64,58.59,58.57,58.54,58.50,58.46,58.46,58.48,58.50,58.52,58.56,58.56,58.50,58.44,58.44,59.07,59.51,59.67,59.58,59.54,59.23,59.08,59.14,59.38,59.59,60.16,60.93,61.70,62.15,62.28,62.25,62.15,62.07,61.56,60.94,60.32,59.78,59.12,58.82,59.47,61.00,62.17,63.03,63.60,63.91,63.99,63.92,63.84,63.77,63.72,63.71,63.67,63.63,63.54,63.23,63.04,63.04,63.09,63.05,62.29,60.97,59.59,58.49,58.14,58.04,57.96,57.88,57.81,57.82,57.80,57.78,57.78,57.78,57.80,57.83,57.83,57.69,57.69,57.63,57.48,57.26,57.24,57.23,57.19,57.10,57.05,57.05,57.04,57.01,57.00,57.03,57.07,57.07,57.01,57.00,57.01,57.01,57.00,56.92,56.87,56.86,56.87,56.88,56.85,56.76,56.70,56.71,56.71,56.70,56.70,56.70,56.70,56.70,56.65,56.61,56.65,56.69,56.72,56.74,56.73,56.62,56.60,56.62,56.64,56.60,56.61,56.62,56.57,56.55,56.98,56.99,57.04,57.15,57.18,57.20,57.17,57.12,57.06,57.03,57.05,57.08,57.10,57.10,57.11,57.11,57.14,57.20,57.18,57.10,57.04,57.06,57.10,57.10,57.10,57.10,57.06,57.08,57.06,57.05,57.10,57.11,57.10,57.06,57.01,57.01,57.02,57.05,57.07,57.08,57.04,57.01,57.00,57.01,56.98,56.93,56.91,56.91,56.91,56.90,56.90,56.90,56.89,56.84,56.79,56.75,56.70,56.60,56.30,56.02,55.84,55.81,55.81,55.81,55.80,55.78,55.75,55.68,55.62,55.58,55.58,55.52,55.38,55.23,55.13,55.13,55.11,55.08,55.04,54.95,54.77,54.64,54.59,54.68,54.82,54.91,54.93,54.90,54.82,54.91,54.96,54.92,54.85,54.84,54.79,54.72,54.68,54.59,54.66,54.67,54.55,54.43,54.53,54.54
59.10,58.91,58.66,58.71,58.98,59.23,59.32,59.35,59.32,59.28,59.24,59.22,59.19,59.15,59.12,59.11,59.11,59.12,59.11,59.09,59.04,58.97,58.87,58.77,58.71,58.69,58.62,58.55,58.51,58.51,58.52,58.52,58.52,58.50,58.45,58.43,58.42,58.46,59.12,59.60,59.78,59.68,59.67,59.35,59.15,59.16,59.35,59.50,59.82,60.31,60.93,61.43,61.49,61.36,61.21,61.29,60.82,60.41,60.09,59.81,59.25,59.01,59.41,60.40,61.34,62.38,63.22,63.78,63.97,63.96,63.91,63.83,63.77,63.72,63.71,63.67,63.61,63.49,63.26,63.17,63.17,63.15,62.81,61.57,60.03,58.68,58.21,58.06,58.00,57.98,57.96,57.97,57.92,57.87,57.89,57.90,57.92,57.93,57.93,57.87,57.85,57.77,57.60,57.36,57.37,57.26,57.14,57.05,57.02,57.06,57.06,57.02,57.00,57.05,57.06,57.05,57.00,57.00,57.03,57.06,57.04,56.92,56.88,56.88,56.91,56.95,56.89,56.81,56.76,56.76,56.76,56.72,56.70,56.70,56.70,56.70,56.65,56.62,56.68,56.70,56.71,56.71,56.71,56.67,56.67,56.70,56.71,56.60,56.65,56.63,56.62,56.69,57.05,57.12,57.15,57.20,57.25,57.21,57.15,57.11,57.09,57.08,57.08,57.10,57.10,57.11,57.15,57.14,57.13,57.20,57.18,57.12,57.05,57.02,57.04,57.08,57.10,57.10,57.08,57.04,57.02,57.02,57.04,57.08,57.05,57.01,56.98,56.95,57.00,57.06,57.12,57.15,57.07,56.99,56.97,57.00,56.99,56.97,56.93,56.90,56.90,56.90,56.90,56.89,56.86,56.79,56.74,56.73,56.76,56.75,56.48,56.16,55.90,55.81,55.80,55.79,55.76,55.73,55.71,55.67,55.61,55.57,55.59,55.46,55.29,55.19,55.22,55.25,55.18,55.05,54.88,54.76,54.60,54.45,54.35,54.36,54.46,54.61,54.78,54.91,54.83,54.85,54.89,54.89,54.82,54.84,54.85,54.84,54.83,54.80,54.76,54.66,54.51,54.42,54.46,54.51
59.40,59.21,58.93,58.85,58.98,59.13,59.21,59.37,59.37,59.33,59.28,59.27,59.26,59.23,59.20,59.18,59.20,59.19,59.18,59.15,59.11,59.06,58.96,58.85,58.80,58.78,58.69,58.61,58.59,58.59,58.57,58.55,58.53,58.51,58.47,58.44,58.42,58.44,59.14,59.66,59.86,59.76,59.74,59.45,59.24,59.19,59.35,59.48,59.64,59.90,60.28,60.62,60.59,60.43,60.27,60.28,60.07,59.88,59.79,59.83,59.53,59.21,59.27,59.82,60.63,61.76,62.81,63.58,63.91,63.87,63.80,63.76,63.76,63.73,63.72,63.68,63.63,63.59,63.43,63.31,63.25,63.21,62.66,61.25,59.74,58.59,58.23,58.10,58.04,58.03,58.07,58.06,58.02,57.99,58.03,58.02,58.00,57.99,57.98,57.96,57.95,57.87,57.76,57.63,57.68,57.48,57.24,57.07,57.01,57.06,57.06,57.02,57.00,57.00,57.00,56.98,56.96,56.93,56.95,56.97,56.95,56.87,56.85,56.85,56.87,56.91,56.86,56.80,56.75,56.75,56.75,56.72,56.70,56.70,56.70,56.70,56.65,56.63,56.69,56.67,56.68,56.70,56.70,56.69,56.69,56.71,56.70,56.59,56.65,56.52,56.50,56.75,57.07,57.17,57.20,57.22,57.28,57.22,57.16,57.13,57.11,57.12,57.11,57.10,57.11,57.14,57.18,57.17,57.16,57.20,57.18,57.12,57.05,57.02,57.05,57.08,57.08,57.06,57.05,57.02,57.02,57.03,57.02,57.04,57.02,57.00,56.99,56.96,57.00,57.05,57.09,57.14,57.09,57.02,56.98,56.97,56.96,56.95,56.92,56.90,56.90,56.88,56.86,56.83,56.81,56.75,56.74,56.77,56.83,56.84,56.63,56.34,56.05,55.87,55.83,55.81,55.79,55.76,55.74,55.73,55.71,55.67,55.60,55.32,55.08,55.00,55.17,55.20,55.07,54.86,54.64,54.53,54.43,54.34,54.27,54.26,54.32,54.45,54.65,54.86,54.86,54.84,54.85,54.87,54.80,54.83,54.86,54.88,54.86,54.86,54.81,54.73,54.62,54.53,54.50,54.51
59.60,59.55,59.38,59.15,58.98,58.91,58.96,59.35,59.41,59.36,59.30,59.30,59.30,59.28,59.25,59.23,59.26,59.25,59.22,59.19,59.15,59.11,59.02,58.92,58.87,58.85,58.76,58.69,58.68,58.68,58.63,58.58,58.56,58.56,58.55,58.51,58.45,58.41,59.14,59.70,59.92,59.82,59.80,59.54,59.32,59.23,59.37,59.51,59.55,59.60,59.72,59.79,59.67,59.51,59.35,59.17,59.33,59.36,59.47,59.85,59.89,59.42,59.11,59.27,60.01,61.17,62.36,63.33,63.82,63.71,63.61,63.60,63.72,63.73,63.72,63.68,63.63,63.60,63.55,63.44,63.33,63.21,62.10,60.43,59.04,58.34,58.24,58.17,58.09,58.05,58.15,58.13,58.11,58.12,58.17,58.12,58.06,58.01,58.00,58.00,58.00,57.95,57.92,57.98,58.05,57.79,57.44,57.14,57.03,57.06,57.05,57.01,57.00,56.93,56.90,56.90,56.89,56.83,56.81,56.81,56.80,56.80,56.80,56.80,56.80,56.80,56.80,56.75,56.71,56.70,56.70,56.71,56.71,56.71,56.70,56.70,56.65,56.63,56.69,56.62,56.65,56.69,56.70,56.69,56.69,56.68,56.64,56.57,56.63,56.35,56.32,56.76,57.07,57.17,57.20,57.22,57.28,57.22,57.19,57.16,57.12,57.16,57.13,57.10,57.12,57.19,57.20,57.20,57.20,57.20,57.17,57.11,57.06,57.04,57.09,57.10,57.06,57.00,57.00,57.02,57.04,57.05,57.02,57.00,57.00,57.00,57.01,57.02,57.02,57.02,57.04,57.10,57.10,57.08,57.01,56.92,56.90,56.90,56.90,56.90,56.89,56.85,56.80,56.76,56.75,56.72,56.75,56.83,56.90,56.88,56.74,56.52,56.24,55.97,55.88,55.85,55.84,55.83,55.80,55.84,55.88,55.84,55.63,55.16,54.81,54.74,55.03,55.04,54.86,54.61,54.37,54.28,54.27,54.28,54.30,54.28,54.30,54.37,54.53,54.79,54.89,54.84,54.83,54.86,54.80,54.82,54.85,54.86,54.82,54.82,54.83,54.83,54.80,54.71,54.59,54.53
59.51,59.49,59.41,59.33,59.26,59.15,59.01,59.13,59.34,59.38,59.29,59.24,59.26,59.26,59.25,59.21,59.22,59.20,59.16,59.10,59.09,59.07,59.01,58.92,58.86,58.82,58.77,58.73,58.73,58.75,58.72,58.68,58.65,58.65,58.65,58.60,58.50,58.42,59.07,59.66,59.96,59.94,59.90,59.63,59.36,59.22,59.34,59.50,59.52,59.51,59.51,59.56,59.43,59.24,58.99,58.67,58.80,59.10,59.47,59.83,59.95,59.75,59.40,59.13,59.62,60.70,61.91,62.99,63.67,63.78,63.62,63.48,63.57,63.72,63.73,63.69,63.64,63.65,63.58,63.48,63.17,62.47,60.96,59.67,58.79,58.43,58.66,58.64,58.40,58.14,58.21,58.22,58.20,58.18,58.18,58.13,58.09,58.06,58.04,58.00,57.91,57.85,57.83,57.85,57.91,57.81,57.63,57.39,57.08,57.03,57.00,56.96,56.99,56.89,56.87,56.90,56.90,56.87,56.90,56.90,56.87,56.82,56.84,56.82,56.80,56.80,56.80,56.77,56.73,56.70,56.70,56.75,56.76,56.74,56.70,56.70,56.65,56.62,56.67,56.60,56.60,56.62,56.64,56.65,56.64,56.63,56.61,56.57,56.68,56.75,56.85,57.01,57.15,57.19,57.21,57.23,57.25,57.23,57.19,57.15,57.15,57.15,57.12,57.11,57.15,57.20,57.20,57.20,57.20,57.19,57.13,57.08,57.06,57.07,57.15,57.17,57.11,57.02,57.01,57.03,57.03,57.03,57.03,57.01,57.00,57.01,57.03,57.07,57.09,57.07,57.05,57.07,57.09,57.07,57.02,56.95,56.91,56.90,56.90,56.89,56.85,56.81,56.77,56.74,56.75,56.75,56.79,56.79,56.74,56.66,56.55,56.41,56.23,56.07,55.96,55.90,55.87,55.86,55.86,55.91,55.97,55.99,55.85,55.44,55.01,54.72,54.69,54.67,54.56,54.44,54.34,54.29,54.29,54.29,54.30,54.28,54.29,54.33,54.48,54.75,54.92,54.89,54.88,54.89,54.82,54.83,54.87,54.90,54.85,54.75,54.75,54.79,54.84,54.76,54.66,54.61
59.38,59.39,59.38,59.40,59.40,59.29,59.08,59.06,59.20,59.17,59.03,59.03,59.17,59.23,59.24,59.21,59.22,59.19,59.14,59.07,59.05,59.04,59.00,58.95,58.90,58.86,58.82,58.80,58.80,58.83,58.80,58.76,58.72,58.70,58.69,58.63,58.52,58.43,59.06,59.68,60.04,60.07,60.01,59.76,59.43,59.18,59.25,59.44,59.48,59.43,59.37,59.35,59.16,58.93,58.70,58.46,58.62,58.99,59.42,59.76,59.99,60.00,59.64,59.10,59.36,60.30,61.49,62.66,63.52,63.80,63.69,63.46,63.36,63.57,63.68,63.70,63.66,63.66,63.59,63.36,62.74,61.52,60.00,59.12,58.76,58.90,59.64,59.69,59.23,58.60,58.29,58.21,58.20,58.21,58.19,58.14,58.10,58.06,58.01,57.96,57.84,57.78,57.76,57.75,57.78,57.79,57.73,57.56,57.12,57.01,56.98,56.96,56.97,56.85,56.85,56.88,56.90,56.90,56.93,56.95,56.93,56.86,56.85,56.83,56.81,56.80,56.80,56.78,56.75,56.73,56.72,56.77,56.79,56.75,56.70,56.70,56.65,56.61,56.63,56.59,56.58,56.60,56.64,56.71,56.70,56.71,56.72,56.72,56.83,57.03,57.16,57.16,57.21,57.21,57.23,57.26,57.26,57.25,57.21,57.17,57.16,57.16,57.13,57.14,57.17,57.20,57.20,57.19,57.18,57.17,57.11,57.08,57.07,57.09,57.18,57.19,57.13,57.04,57.01,57.04,57.03,57.01,57.03,57.00,57.00,57.01,57.03,57.11,57.14,57.13,57.09,57.06,57.07,57.04,57.00,56.95,56.91,56.90,56.88,56.85,56.80,56.77,56.75,56.76,56.79,56.80,56.81,56.73,56.59,56.47,56.39,56.30,56.19,56.09,56.00,55.94,55.91,55.90,55.91,55.95,56.02,56.08,56.02,55.74,55.35,54.94,54.62,54.47,54.38,54.33,54.31,54.30,54.30,54.30,54.29,54.27,54.29,54.32,54.46,54.72,54.94,54.93,54.92,54.93,54.87,54.84,54.88,54.92,54.89,54.77,54.75,54.80,54.86,54.78,54.69,54.65
59.19,59.22,59.29,59.35,59.36,59.31,59.18,59.16,58.97,58.68,58.47,58.64,59.00,59.19,59.24,59.23,59.25,59.23,59.17,59.10,59.05,59.01,58.99,58.99,59.00,58.97,58.94,58.91,58.90,58.90,58.87,58.81,58.75,58.71,58.68,58.59,58.49,58.45,59.10,59.76,60.16,60.23,60.14,59.93,59.52,59.12,59.09,59.33,59.40,59.38,59.30,59.16,58.83,58.57,58.47,58.58,58.84,59.07,59.31,59.63,59.99,60.14,59.84,59.22,59.25,59.99,61.09,62.32,63.38,63.77,63.84,63.56,63.05,63.26,63.55,63.70,63.70,63.64,63.57,63.05,61.96,60.33,59.27,58.83,59.01,59.81,61.31,61.44,60.69,59.49,58.39,58.10,58.10,58.17,58.17,58.13,58.07,57.98,57.90,57.87,57.80,57.74,57.70,57.67,57.67,57.71,57.74,57.65,57.13,56.99,56.99,57.01,56.93,56.84,56.83,56.86,56.89,56.90,56.90,56.94,56.97,56.91,56.84,56.83,56.83,56.80,56.80,56.78,56.77,56.79,56.76,56.78,56.78,56.75,56.70,56.70,56.65,56.59,56.56,56.60,56.61,56.64,56.72,56.89,56.91,56.96,57.02,57.07,57.11,57.16,57.19,57.20,57.25,57.22,57.25,57.29,57.29,57.29,57.27,57.22,57.17,57.19,57.18,57.18,57.20,57.20,57.19,57.17,57.14,57.13,57.11,57.09,57.08,57.09,57.16,57.16,57.12,57.07,57.02,57.06,57.04,57.00,57.00,57.00,57.00,57.01,57.03,57.11,57.18,57.20,57.16,57.06,57.03,57.00,56.97,56.92,56.90,56.89,56.85,56.79,56.73,56.74,56.77,56.81,56.87,56.87,56.82,56.67,56.45,56.32,56.26,56.20,56.12,56.02,56.00,55.98,55.97,55.97,55.95,55.96,56.02,56.09,56.11,56.05,55.84,55.44,54.89,54.47,54.33,54.30,54.30,54.30,54.30,54.30,54.29,54.26,54.31,54.36,54.48,54.69,54.96,54.97,54.96,54.98,54.93,54.87,54.88,54.91,54.94,54.87,54.86,54.87,54.88,54.77,54.68,54.67
59.17,59.21,59.24,59.25,59.26,59.25,59.19,59.20,59.10,58.96,58.81,58.77,58.88,59.05,59.18,59.17,59.14,59.11,59.08,59.05,59.02,58.98,58.97,58.98,59.02,59.02,59.00,58.96,58.93,58.92,58.89,58.84,58.79,58.75,58.72,58.64,58.54,58.48,59.04,59.73,60.23,60.39,60.30,60.14,59.71,59.23,59.03,59.24,59.33,59.31,59.18,58.97,58.63,58.42,58.43,58.71,59.01,59.20,59.36,59.60,59.92,60.13,59.93,59.39,59.23,59.80,60.83,62.07,63.23,63.69,63.83,63.56,62.90,62.75,63.13,63.50,63.69,63.66,63.24,62.19,60.81,59.48,58.94,59.05,59.80,61.05,62.27,62.37,61.77,60.67,59.27,58.41,58.10,58.07,58.09,58.11,58.05,57.96,57.89,57.87,57.83,57.79,57.73,57.68,57.66,57.71,57.77,57.72,57.20,57.02,56.99,57.00,56.87,56.82,56.81,56.83,56.86,56.89,56.90,56.92,56.94,56.87,56.82,56.82,56.83,56.80,56.83,56.83,56.82,56.81,56.79,56.79,56.77,56.74,56.74,56.78,56.76,56.73,56.74,56.82,56.83,56.87,56.95,57.06,57.08,57.10,57.14,57.16,57.18,57.19,57.20,57.21,57.27,57.26,57.27,57.30,57.30,57.30,57.26,57.21,57.18,57.16,57.17,57.19,57.20,57.20,57.19,57.15,57.11,57.11,57.10,57.09,57.07,57.05,57.08,57.08,57.08,57.07,57.01,57.00,57.00,57.00,57.00,57.00,57.00,57.01,57.03,57.11,57.19,57.23,57.23,57.15,57.03,56.96,56.93,56.91,56.89,56.85,56.79,56.73,56.69,56.75,56.78,56.77,56.73,56.64,56.58,56.48,56.33,56.23,56.18,56.14,56.10,56.06,56.05,56.04,56.02,55.99,55.98,55.98,56.02,56.09,56.12,56.02,55.83,55.58,55.26,54.90,54.61,54.42,54.34,54.32,54.31,54.31,54.32,54.34,54.36,54.39,54.52,54.76,54.96,54.94,54.95,55.01,54.98,54.91,54.92,54.93,54.85,54.73,54.74,54.80,54.83,54.76,54.69,54.67
59.20,59.26,59.22,59.16,59.16,59.18,59.18,59.21,59.24,59.25,59.19,58.96,58.85,58.97,59.12,59.11,59.05,59.02,59.01,59.01,59.01,58.97,58.95,58.96,59.02,59.04,59.01,58.97,58.93,58.92,58.89,58.85,58.81,58.77,58.76,58.69,58.59,58.51,58.99,59.71,60.28,60.54,60.45,60.34,59.94,59.39,59.00,59.16,59.24,59.21,59.04,58.81,58.56,58.45,58.53,58.87,59.15,59.30,59.40,59.56,59.78,59.99,59.90,59.50,59.22,59.66,60.61,61.86,63.11,63.61,63.82,63.55,62.76,62.20,62.61,63.17,63.56,63.55,62.68,61.22,59.75,58.87,58.84,59.52,60.74,62.19,62.99,63.02,62.62,61.76,60.35,58.98,58.26,58.00,58.00,58.09,58.05,57.98,57.92,57.90,57.89,57.84,57.78,57.73,57.71,57.75,57.80,57.79,57.35,57.15,57.08,57.05,56.91,56.87,56.89,56.90,56.86,56.90,56.90,56.91,56.92,56.85,56.82,56.82,56.83,56.82,56.86,56.88,56.86,56.83,56.82,56.82,56.78,56.75,56.80,56.89,56.91,56.91,56.94,57.03,57.05,57.09,57.16,57.18,57.20,57.20,57.20,57.20,57.21,57.21,57.20,57.22,57.29,57.29,57.30,57.30,57.30,57.29,57.25,57.20,57.19,57.14,57.16,57.18,57.19,57.20,57.19,57.15,57.10,57.10,57.10,57.09,57.06,57.01,57.01,57.01,57.04,57.05,56.98,56.94,56.96,56.99,57.00,57.00,57.00,57.00,57.01,57.08,57.16,57.22,57.23,57.16,57.01,56.93,56.90,56.89,56.86,56.80,56.73,56.68,56.66,56.74,56.76,56.70,56.57,56.44,56.38,56.33,56.25,56.17,56.12,56.10,56.11,56.11,56.12,56.10,56.06,56.02,56.02,56.02,56.04,56.07,56.09,55.92,55.75,55.63,55.55,55.33,54.98,54.70,54.55,54.47,54.39,54.37,54.38,54.40,54.39,54.41,54.54,54.82,54.98,54.93,54.96,55.05,55.01,54.94,54.96,54.96,54.81,54.63,54.64,54.71,54.78,54.75,54.69,54.67
59.30,59.37,59.29,59.15,59.10,59.11,59.16,59.21,59.25,59.26,59.22,59.08,59.04,59.07,59.10,59.09,59.08,59.06,59.05,59.05,59.05,58.98,58.94,58.94,58.97,58.99,58.94,58.89,58.86,58.88,58.87,58.82,58.77,58.77,58.78,58.73,58.64,58.57,59.00,59.74,60.36,60.66,60.57,60.51,60.17,59.62,59.05,59.09,59.10,59.02,58.83,58.77,58.82,58.88,58.96,59.10,59.23,59.31,59.38,59.46,59.46,59.54,59.55,59.42,59.22,59.60,60.48,61.70,63.03,63.58,63.86,63.58,62.62,61.61,61.94,62.61,63.13,63.02,61.61,60.18,59.13,58.76,59.19,60.46,61.86,62.94,63.30,63.24,62.99,62.50,61.62,60.08,58.84,58.08,57.90,58.08,58.10,58.07,58.03,57.98,57.97,57.90,57.84,57.90,57.86,57.86,57.87,57.87,57.73,57.55,57.41,57.30,57.20,57.08,57.21,57.26,57.01,56.98,56.93,56.93,56.96,56.90,56.88,56.88,56.88,56.88,56.89,56.90,56.87,56.82,56.87,56.88,56.84,56.80,56.87,57.06,57.12,57.11,57.07,57.15,57.16,57.17,57.19,57.20,57.20,57.20,57.20,57.21,57.26,57.23,57.20,57.22,57.28,57.30,57.30,57.30,57.30,57.29,57.24,57.20,57.20,57.18,57.14,57.13,57.15,57.20,57.19,57.15,57.10,57.10,57.10,57.09,57.06,57.01,57.01,57.01,57.00,56.98,56.92,56.92,56.93,56.96,57.00,57.00,56.99,56.96,56.93,56.98,57.06,57.09,57.06,56.97,56.93,56.90,56.88,56.85,56.78,56.72,56.69,56.68,56.67,56.68,56.66,56.60,56.47,56.45,56.38,56.30,56.21,56.13,56.12,56.12,56.14,56.16,56.18,56.16,56.13,56.08,56.08,56.08,56.08,56.05,55.97,55.83,55.69,55.61,55.59,55.53,55.45,55.35,55.22,54.95,54.69,54.55,54.49,54.40,54.36,54.36,54.50,54.80,55.02,55.01,55.02,55.08,55.01,54.94,54.97,55.01,54.95,54.75,54.64,54.65,54.74,54.74,54.69,54.64
59.37,59.44,59.37,59.23,59.16,59.13,59.14,59.15,59.19,59.21,59.19,59.13,59.12,59.11,59.10,59.09,59.10,59.10,59.10,59.10,59.08,58.95,58.80,58.68,58.65,58.74,58.80,58.82,58.80,58.83,58.83,58.80,58.75,58.74,58.76,58.71,58.65,58.62,58.95,59.65,60.32,60.73,60.70,60.65,60.37,59.86,59.20,59.01,58.96,58.96,58.95,59.02,59.14,59.23,59.26,59.29,59.34,59.35,59.35,59.36,59.33,59.33,59.34,59.32,59.20,59.63,60.50,61.68,62.96,63.54,63.83,63.56,62.59,61.43,61.37,61.84,62.30,61.94,60.54,59.45,58.90,58.99,60.04,61.47,62.64,63.28,63.41,63.33,63.17,62.89,62.40,61.13,59.79,58.68,58.06,58.06,58.12,58.14,58.10,58.05,58.02,57.97,57.95,58.00,57.95,57.92,57.91,57.92,57.88,57.74,57.61,57.50,57.43,57.32,57.41,57.43,57.17,57.04,56.95,56.94,56.98,56.92,56.88,56.88,56.90,56.93,56.94,56.92,56.89,56.85,56.89,56.89,56.84,56.80,56.93,57.10,57.18,57.18,57.15,57.19,57.20,57.20,57.20,57.20,57.20,57.21,57.23,57.25,57.26,57.24,57.22,57.25,57.26,57.29,57.30,57.30,57.31,57.30,57.25,57.21,57.20,57.19,57.15,57.13,57.16,57.20,57.19,57.15,57.10,57.10,57.10,57.10,57.08,57.05,57.04,57.02,57.00,56.97,56.92,56.93,56.94,56.95,56.98,56.97,56.93,56.87,56.83,56.88,56.94,56.96,56.94,56.89,56.89,56.86,56.83,56.78,56.68,56.63,56.61,56.60,56.59,56.55,56.53,56.49,56.43,56.40,56.33,56.25,56.18,56.15,56.15,56.16,56.16,56.18,56.19,56.19,56.15,56.11,56.10,56.10,56.07,55.99,55.86,55.76,55.67,55.61,55.60,55.60,55.60,55.57,55.49,55.28,55.09,54.94,54.82,54.65,54.54,54.46,54.54,54.81,55.02,55.03,55.04,55.09,55.03,54.94,54.96,55.01,55.03,54.83,54.66,54.61,54.70,54.71,54.64,54.58
59.42,59.48,59.45,59.35,59.27,59.19,59.12,59.06,59.10,59.12,59.13,59.14,59.15,59.12,59.10,59.10,59.11,59.13,59.15,59.14,59.10,58.90,58.61,58.34,58.22,58.41,58.62,58.74,58.74,58.78,58.79,58.77,58.74,58.70,58.71,58.68,58.65,58.66,58.87,59.51,60.23,60.78,60.85,60.79,60.55,60.09,59.37,58.93,58.85,58.98,59.20,59.37,59.45,59.48,59.48,59.45,59.47,59.41,59.34,59.31,59.33,59.26,59.21,59.22,59.17,59.69,60.60,61.73,62.90,63.49,63.77,63.51,62.61,61.43,60.87,60.98,61.27,60.61,59.50,58.90,58.89,59.45,61.14,62.47,63.22,63.41,63.40,63.35,63.25,63.11,62.92,62.12,60.90,59.55,58.40,58.07,58.13,58.18,58.13,58.10,58.06,58.06,58.08,58.07,58.01,57.95,57.92,57.94,57.90,57.81,57.73,57.67,57.61,57.54,57.54,57.50,57.33,57.09,56.96,56.94,56.98,56.92,56.86,56.85,56.89,56.97,56.99,56.95,56.90,56.90,56.90,56.88,56.81,56.78,56.98,57.07,57.15,57.20,57.20,57.20,57.20,57.20,57.20,57.20,57.20,57.23,57.27,57.30,57.25,57.23,57.26,57.29,57.24,57.28,57.30,57.31,57.33,57.31,57.27,57.22,57.20,57.19,57.16,57.16,57.20,57.20,57.19,57.15,57.10,57.10,57.10,57.10,57.10,57.10,57.09,57.05,57.02,56.98,56.94,56.95,56.96,56.96,56.95,56.92,56.84,56.75,56.71,56.78,56.81,56.83,56.85,56.86,56.87,56.83,56.76,56.69,56.57,56.52,56.50,56.49,56.47,56.41,56.38,56.39,56.42,56.34,56.26,56.20,56.17,56.20,56.20,56.19,56.18,56.17,56.19,56.19,56.16,56.13,56.10,56.08,56.02,55.91,55.77,55.70,55.66,55.62,55.60,55.60,55.60,55.59,55.57,55.53,55.50,55.40,55.24,55.01,54.81,54.65,54.66,54.87,55.02,55.02,55.05,55.09,55.05,54.95,54.94,55.00,55.06,54.91,54.69,54.60,54.66,54.68,54.59,54.53
59.39,59.52,59.54,59.44,59.28,59.14,59.05,58.98,59.00,59.03,59.07,59.14,59.15,59.12,59.10,59.10,59.12,59.16,59.17,59.14,59.10,58.97,58.69,58.37,58.15,58.26,58.40,58.50,58.53,58.60,58.67,58.71,58.72,58.71,58.69,58.66,58.64,58.66,58.80,59.45,60.26,60.93,61.06,61.00,60.67,60.09,59.31,59.02,59.09,59.24,59.25,59.24,59.22,59.27,59.40,59.56,59.65,59.68,59.70,59.73,59.66,59.57,59.42,59.21,59.08,59.65,60.63,61.83,63.00,63.55,63.73,63.42,62.53,61.25,60.56,60.29,60.13,59.41,58.85,58.78,59.36,60.71,62.23,63.05,63.41,63.45,63.40,63.34,63.29,63.22,63.11,62.62,61.79,60.67,59.39,58.43,58.14,58.09,58.10,58.10,58.08,58.05,58.01,58.00,57.95,57.91,57.87,57.83,57.81,57.72,57.65,57.62,57.58,57.54,57.53,57.49,57.36,57.08,56.96,56.95,56.98,56.92,56.91,56.89,56.89,56.90,56.95,56.90,56.86,56.89,56.90,56.86,56.79,56.79,56.95,57.06,57.13,57.18,57.20,57.20,57.20,57.20,57.20,57.20,57.20,57.21,57.24,57.30,57.28,57.28,57.29,57.30,57.28,57.29,57.30,57.31,57.34,57.31,57.28,57.25,57.20,57.20,57.19,57.19,57.20,57.20,57.20,57.17,57.14,57.14,57.14,57.11,57.10,57.10,57.10,57.08,57.04,56.99,56.97,56.94,56.93,56.91,56.81,56.74,56.63,56.52,56.45,56.55,56.61,56.68,56.74,56.75,56.79,56.77,56.73,56.68,56.59,56.50,56.42,56.37,56.35,56.36,56.38,56.39,56.38,56.30,56.23,56.19,56.18,56.24,56.21,56.20,56.19,56.19,56.20,56.19,56.16,56.12,56.09,56.02,55.91,55.79,55.72,55.70,55.68,55.66,55.63,55.61,55.59,55.56,55.53,55.51,55.50,55.47,55.40,55.31,55.16,55.05,55.04,55.13,55.11,55.11,55.13,55.15,55.08,54.98,54.95,54.99,55.08,55.01,54.85,54.73,54.68,54.67,54.60,54.56
59.37,59.51,59.54,59.44,59.26,59.11,59.02,58.90,58.82,58.85,58.95,59.06,59.10,59.11,59.10,59.10,59.13,59.17,59.17,59.14,59.10,58.99,58.75,58.48,58.34,58.43,58.45,58.45,58.46,58.47,58.53,58.62,58.69,58.70,58.68,58.66,58.65,58.68,58.76,59.37,60.21,61.01,61.24,61.18,60.88,60.38,59.72,59.38,59.37,59.45,59.44,59.45,59.40,59.40,59.47,59.64,59.76,59.82,59.87,59.93,59.87,59.80,59.56,59.17,58.97,59.66,60.78,62.05,63.15,63.61,63.68,63.29,62.38,61.04,60.18,59.65,59.25,58.67,58.57,59.04,60.14,61.86,63.00,63.43,63.51,63.46,63.39,63.34,63.31,63.28,63.22,62.96,62.48,61.67,60.51,59.17,58.45,58.12,58.05,58.09,58.10,58.05,57.98,57.96,57.92,57.89,57.84,57.79,57.77,57.69,57.63,57.60,57.56,57.57,57.54,57.48,57.37,57.05,56.96,56.96,57.00,56.97,57.03,57.04,57.00,56.93,56.95,56.89,56.85,56.89,56.88,56.83,56.79,56.79,56.92,57.05,57.11,57.15,57.20,57.20,57.21,57.21,57.20,57.22,57.22,57.22,57.24,57.30,57.30,57.30,57.31,57.32,57.32,57.32,57.32,57.33,57.35,57.31,57.29,57.26,57.20,57.20,57.20,57.20,57.20,57.20,57.20,57.19,57.17,57.17,57.17,57.14,57.11,57.10,57.10,57.09,57.05,57.00,57.00,56.93,56.88,56.81,56.65,56.52,56.47,56.41,56.37,56.46,56.55,56.62,56.67,56.66,56.71,56.72,56.70,56.65,56.60,56.50,56.41,56.35,56.31,56.35,56.38,56.38,56.35,56.29,56.24,56.20,56.19,56.24,56.21,56.18,56.17,56.17,56.17,56.16,56.14,56.11,56.05,55.93,55.80,55.72,55.70,55.70,55.70,55.69,55.66,55.63,55.59,55.55,55.51,55.50,55.50,55.49,55.46,55.41,55.33,55.28,55.27,55.28,55.16,55.14,55.17,55.19,55.10,55.02,54.98,55.00,55.09,55.08,54.94,54.77,54.65,54.66,54.63,54.60
59.35,59.45,59.45,59.36,59.20,59.09,59.03,58.80,58.58,58.59,58.76,58.90,59.00,59.06,59.10,59.10,59.13,59.16,59.15,59.12,59.10,58.97,58.80,58.69,58.82,58.92,58.79,58.62,58.51,58.39,58.38,58.49,58.64,58.64,58.68,58.69,58.70,58.72,58.74,59.25,60.09,61.02,61.39,61.33,61.18,60.96,60.61,60.03,59.69,59.61,59.78,60.03,60.02,59.87,59.71,59.70,59.80,59.82,59.82,59.87,59.94,59.94,59.63,59.08,58.85,59.71,61.04,62.42,63.36,63.68,63.63,63.12,62.13,60.80,59.75,59.04,58.63,58.40,58.66,59.69,61.22,62.88,63.45,63.58,63.53,63.43,63.38,63.33,63.31,63.29,63.26,63.14,62.96,62.55,61.77,60.31,59.05,58.27,57.99,58.06,58.11,58.07,57.99,57.96,57.92,57.89,57.85,57.82,57.78,57.74,57.68,57.61,57.57,57.62,57.58,57.47,57.33,57.02,56.94,56.98,57.05,57.08,57.23,57.30,57.25,57.08,57.00,56.90,56.87,56.89,56.84,56.81,56.79,56.79,56.89,57.04,57.10,57.13,57.20,57.20,57.24,57.24,57.21,57.26,57.27,57.27,57.27,57.30,57.30,57.30,57.33,57.37,57.37,57.37,57.37,57.37,57.37,57.32,57.29,57.26,57.20,57.20,57.20,57.20,57.20,57.20,57.20,57.20,57.20,57.20,57.20,57.18,57.14,57.10,57.10,57.09,57.06,57.02,57.05,56.93,56.80,56.66,56.47,56.27,56.34,56.43,56.47,56.51,56.62,56.67,56.65,56.61,56.63,56.66,56.66,56.61,56.59,56.53,56.48,56.44,56.38,56.38,56.38,56.36,56.31,56.30,56.28,56.24,56.20,56.20,56.18,56.15,56.11,56.11,56.11,56.11,56.10,56.09,55.99,55.82,55.72,55.70,55.70,55.70,55.70,55.70,55.69,55.66,55.60,55.54,55.50,55.50,55.50,55.47,55.40,55.31,55.30,55.32,55.34,55.33,55.15,55.12,55.18,55.23,55.11,55.06,55.04,55.05,55.10,55.10,54.93,54.72,54.57,54.64,54.68,54.63
59.33,59.38,59.39,59.31,59.18,59.06,58.96,58.75,58.59,58.57,58.63,58.66,58.74,58.85,58.98,59.10,59.15,59.18,59.17,59.14,59.10,58.99,58.87,58.85,59.00,59.07,59.01,58.91,58.81,58.62,58.48,58.45,58.50,58.52,58.57,58.59,58.62,58.69,58.76,59.07,59.81,60.87,61.53,61.54,61.45,61.31,61.11,60.61,60.10,59.74,59.62,59.75,59.86,59.86,59.78,59.69,59.78,59.88,59.98,60.05,60.13,59.90,59.55,59.27,59.46,60.43,61.66,62.82,63.51,63.73,63.55,62.89,61.77,60.46,59.49,58.82,58.46,58.38,58.96,60.11,61.52,62.83,63.38,63.57,63.56,63.47,63.41,63.37,63.34,63.30,63.28,63.20,63.10,62.89,62.47,61.48,60.18,59.00,58.18,57.95,58.02,58.05,58.03,57.99,57.96,57.94,57.93,57.91,57.85,57.80,57.73,57.64,57.56,57.54,57.50,57.41,57.29,57.22,57.21,57.24,57.28,57.31,57.38,57.42,57.37,57.17,57.04,56.93,56.89,56.89,56.83,56.81,56.79,56.81,56.89,57.04,57.10,57.11,57.15,57.19,57.22,57.24,57.26,57.28,57.25,57.26,57.29,57.30,57.30,57.33,57.37,57.39,57.39,57.35,57.36,57.39,57.39,57.36,57.32,57.28,57.25,57.21,57.20,57.20,57.20,57.20,57.20,57.20,57.20,57.20,57.20,57.18,57.15,57.10,57.10,57.09,57.04,56.98,56.93,56.76,56.62,56.49,56.36,56.23,56.32,56.42,56.45,56.52,56.67,56.73,56.73,56.71,56.69,56.71,56.72,56.67,56.64,56.60,56.58,56.59,56.56,56.51,56.43,56.35,56.33,56.28,56.29,56.31,56.31,56.30,56.25,56.20,56.16,56.16,56.15,56.12,56.04,55.93,55.83,55.74,55.71,55.71,55.70,55.69,55.69,55.68,55.67,55.63,55.59,55.54,55.50,55.49,55.48,55.44,55.39,55.33,55.32,55.33,55.32,55.26,55.11,55.10,55.13,55.16,55.08,55.05,55.03,55.05,55.12,55.15,55.01,54.81,54.61,54.63,54.68,54.67
59.32,59.32,59.34,59.27,59.15,59.02,58.91,58.74,58.67,58.63,58.61,58.55,58.57,58.66,58.81,59.03,59.14,59.18,59.18,59.15,59.11,59.02,58.96,58.98,59.12,59.15,59.15,59.12,59.05,58.86,58.66,58.53,58.49,58.48,58.45,58.43,58.47,58.63,58.76,58.91,59.53,60.62,61.58,61.73,61.70,61.62,61.51,61.17,60.61,60.04,59.62,59.55,59.64,59.70,59.67,59.59,59.67,59.79,59.90,59.96,60.03,59.75,59.53,59.61,60.19,61.24,62.33,63.22,63.65,63.76,63.41,62.57,61.31,60.03,59.19,58.65,58.36,58.36,59.11,60.23,61.44,62.45,63.06,63.39,63.52,63.51,63.45,63.42,63.38,63.33,63.28,63.23,63.18,63.10,62.95,62.43,61.28,59.92,58.65,57.99,57.97,58.02,58.04,57.97,57.98,57.98,57.98,57.96,57.88,57.79,57.70,57.61,57.53,57.48,57.44,57.39,57.31,57.41,57.44,57.45,57.47,57.48,57.51,57.51,57.44,57.26,57.11,57.01,56.94,56.91,56.83,56.81,56.81,56.82,56.84,57.02,57.10,57.12,57.12,57.19,57.20,57.24,57.30,57.30,57.24,57.26,57.30,57.32,57.32,57.36,57.39,57.39,57.40,57.35,57.35,57.40,57.40,57.38,57.35,57.31,57.29,57.23,57.22,57.21,57.20,57.20,57.20,57.20,57.20,57.21,57.19,57.17,57.14,57.09,57.09,57.06,56.99,56.88,56.73,56.52,56.35,56.23,56.17,56.15,56.27,56.37,56.41,56.48,56.63,56.73,56.77,56.78,56.74,56.76,56.77,56.74,56.69,56.66,56.67,56.70,56.68,56.59,56.45,56.34,56.34,56.27,56.31,56.37,56.40,56.37,56.29,56.23,56.20,56.21,56.19,56.13,56.00,55.81,55.72,55.70,55.71,55.73,55.70,55.69,55.68,55.65,55.62,55.60,55.58,55.55,55.50,55.47,55.45,55.41,55.38,55.35,55.32,55.33,55.30,55.20,55.08,55.08,55.11,55.12,55.07,55.04,55.03,55.07,55.16,55.20,55.12,54.95,54.71,54.62,54.69,54.75
59.30,59.32,59.32,59.25,59.11,59.00,58.93,58.84,58.83,58.84,58.84,58.76,58.62,58.54,58.59,58.80,59.07,59.13,59.14,59.15,59.14,59.09,59.06,59.07,59.13,59.17,59.16,59.13,59.09,59.04,58.94,58.86,58.79,58.67,58.34,58.16,58.21,58.52,58.72,58.82,59.28,60.22,61.42,61.83,61.91,61.85,61.78,61.69,61.31,60.74,60.13,59.78,59.50,59.31,59.22,59.29,59.38,59.31,59.19,59.14,59.24,59.37,59.69,60.24,61.01,62.10,63.01,63.60,63.81,63.75,63.14,62.06,60.65,59.39,58.76,58.45,58.33,58.32,58.83,59.69,60.70,61.63,62.30,62.90,63.33,63.53,63.51,63.49,63.45,63.38,63.26,63.22,63.22,63.20,63.09,62.85,62.19,61.10,59.72,58.41,58.04,57.96,57.94,57.81,57.91,57.96,57.96,57.91,57.79,57.61,57.48,57.43,57.50,57.51,57.49,57.50,57.52,57.50,57.46,57.46,57.50,57.52,57.56,57.54,57.48,57.37,57.29,57.18,57.07,56.98,56.88,56.82,56.83,56.83,56.66,56.97,57.12,57.17,57.18,57.21,57.22,57.25,57.30,57.30,57.29,57.29,57.32,57.38,57.38,57.39,57.38,57.34,57.39,57.39,57.39,57.40,57.40,57.36,57.36,57.35,57.30,57.28,57.28,57.25,57.20,57.20,57.20,57.20,57.22,57.25,57.16,57.13,57.10,57.07,57.06,56.97,56.83,56.66,56.43,56.19,55.93,55.75,55.77,55.92,56.11,56.26,56.34,56.32,56.39,56.53,56.67,56.74,56.74,56.78,56.81,56.80,56.72,56.71,56.71,56.69,56.65,56.51,56.41,56.34,56.32,56.32,56.36,56.39,56.39,56.36,56.26,56.20,56.19,56.22,56.19,56.12,56.01,55.86,55.78,55.73,55.73,55.75,55.72,55.69,55.65,55.60,55.55,55.57,55.57,55.54,55.47,55.42,55.40,55.37,55.33,55.29,55.28,55.30,55.29,55.20,55.06,55.07,55.12,55.14,55.10,55.06,55.06,55.11,55.21,55.25,55.27,55.17,54.90,54.61,54.73,54.93
59.13,59.22,59.25,59.16,59.05,58.97,58.97,58.93,58.93,58.96,58.97,58.94,58.84,58.76,58.73,58.76,58.85,58.94,59.03,59.09,59.10,59.01,58.93,58.92,59.01,59.06,59.08,59.08,59.09,59.07,59.03,59.00,58.94,58.82,58.57,58.45,58.42,58.44,58.54,58.70,59.05,59.69,60.80,61.55,61.92,62.02,62.01,61.98,61.79,61.43,60.92,60.45,60.02,59.69,59.50,59.48,59.50,59.41,59.32,59.35,59.53,59.88,60.42,61.14,61.98,62.80,63.40,63.72,63.70,63.39,62.70,61.63,60.25,59.06,58.58,58.45,58.51,58.54,58.74,59.24,59.96,60.80,61.56,62.31,62.92,63.34,63.46,63.48,63.45,63.39,63.30,63.26,63.25,63.22,63.16,63.03,62.67,61.93,60.81,59.41,58.55,58.10,57.90,57.78,57.86,57.89,57.88,57.86,57.78,57.64,57.54,57.52,57.59,57.60,57.56,57.55,57.59,57.56,57.53,57.52,57.55,57.57,57.59,57.55,57.49,57.42,57.38,57.31,57.24,57.17,56.99,56.83,56.79,56.77,56.58,56.93,57.11,57.17,57.20,57.23,57.25,57.27,57.28,57.28,57.29,57.30,57.32,57.40,57.40,57.40,57.39,57.36,57.39,57.40,57.40,57.40,57.38,57.37,57.38,57.36,57.30,57.30,57.30,57.27,57.22,57.20,57.20,57.20,57.21,57.23,57.17,57.11,57.06,57.02,56.94,56.79,56.58,56.33,56.11,55.90,55.70,55.59,55.64,55.75,55.87,56.00,56.12,56.14,56.18,56.31,56.46,56.52,56.58,56.61,56.65,56.70,56.69,56.70,56.70,56.68,56.60,56.43,56.33,56.29,56.28,56.32,56.37,56.37,56.33,56.25,56.17,56.14,56.19,56.28,56.23,56.18,56.11,56.00,55.91,55.84,55.84,55.90,55.96,55.89,55.82,55.77,55.75,55.74,55.62,55.49,55.42,55.36,55.33,55.30,55.27,55.24,55.25,55.30,55.30,55.22,55.09,55.11,55.16,55.18,55.13,55.11,55.11,55.14,55.18,55.21,55.30,55.27,55.08,54.82,54.93,55.12
58.92,59.09,59.16,59.05,58.97,58.95,58.99,59.00,59.00,59.02,59.05,59.09,59.09,59.08,58.99,58.79,58.61,58.72,58.89,59.01,59.03,58.88,58.75,58.71,58.85,58.90,58.94,59.00,59.05,59.04,59.03,59.03,59.02,58.95,58.91,58.91,58.78,58.43,58.37,58.59,58.84,59.15,60.02,61.09,61.80,62.13,62.21,62.17,62.16,62.06,61.78,61.28,60.82,60.44,60.15,59.96,59.88,59.84,59.88,60.04,60.33,60.79,61.39,62.12,62.95,63.38,63.64,63.69,63.43,62.86,62.15,61.16,59.90,58.85,58.50,58.54,58.76,58.86,58.77,58.88,59.27,60.00,60.83,61.65,62.40,63.01,63.33,63.42,63.43,63.40,63.35,63.32,63.26,63.22,63.19,63.10,62.94,62.57,61.87,60.65,59.31,58.40,57.92,57.80,57.83,57.81,57.80,57.82,57.81,57.74,57.70,57.72,57.74,57.72,57.64,57.57,57.59,57.60,57.60,57.59,57.60,57.61,57.60,57.55,57.49,57.43,57.42,57.39,57.37,57.34,57.08,56.81,56.70,56.68,56.55,56.90,57.09,57.16,57.21,57.25,57.28,57.28,57.26,57.26,57.29,57.30,57.32,57.40,57.40,57.40,57.40,57.40,57.40,57.40,57.40,57.39,57.35,57.39,57.40,57.36,57.30,57.30,57.30,57.28,57.24,57.20,57.20,57.20,57.20,57.20,57.18,57.10,57.01,56.94,56.77,56.59,56.29,55.97,55.79,55.64,55.57,55.57,55.62,55.63,55.64,55.71,55.86,55.96,55.98,56.07,56.19,56.24,56.34,56.38,56.43,56.52,56.61,56.65,56.67,56.65,56.54,56.34,56.24,56.22,56.22,56.30,56.35,56.34,56.25,56.12,56.06,56.09,56.18,56.34,56.29,56.26,56.22,56.15,56.05,55.97,55.97,56.07,56.27,56.17,56.09,56.07,56.09,56.01,55.71,55.46,55.36,55.30,55.26,55.23,55.21,55.20,55.23,55.29,55.31,55.24,55.13,55.17,55.22,55.22,55.17,55.16,55.17,55.16,55.14,55.16,55.27,55.32,55.25,55.11,55.18,55.29
58.91,59.08,59.06,58.96,58.90,58.88,58.91,59.01,59.04,59.03,59.01,59.02,59.04,59.06,58.99,58.79,58.63,58.76,58.86,58.85,58.90,58.91,58.89,58.87,58.89,58.82,58.76,58.76,58.84,58.94,58.94,58.95,58.96,58.94,58.93,58.92,58.87,58.73,58.69,58.73,58.79,58.93,59.47,60.43,61.33,62.01,62.34,62.38,62.38,62.32,62.20,62.01,61.75,61.50,61.28,61.13,61.03,60.95,60.96,61.14,61.51,61.91,62.38,62.90,63.41,63.59,63.56,63.32,62.80,62.05,61.14,60.15,59.17,58.61,58.51,58.67,58.93,59.07,59.07,59.03,59.07,59.37,60.09,60.89,61.68,62.37,62.92,63.26,63.42,63.43,63.39,63.34,63.28,63.24,63.20,63.14,63.05,62.87,62.49,61.76,60.55,59.33,58.35,57.83,57.87,57.87,57.87,57.87,57.85,57.80,57.78,57.80,57.79,57.73,57.67,57.62,57.60,57.60,57.58,57.55,57.53,57.54,57.55,57.51,57.43,57.32,57.22,57.12,57.04,56.97,56.79,56.64,56.57,56.55,56.50,56.86,57.09,57.19,57.24,57.22,57.24,57.24,57.23,57.26,57.29,57.30,57.32,57.40,57.40,57.40,57.40,57.40,57.40,57.40,57.40,57.39,57.37,57.39,57.40,57.37,57.30,57.30,57.30,57.29,57.27,57.21,57.20,57.20,57.20,57.19,57.15,57.08,56.95,56.75,56.63,56.37,56.03,55.73,55.66,55.61,55.59,55.60,55.65,55.62,55.61,55.64,55.71,55.77,55.79,55.86,55.95,56.01,56.15,56.20,56.25,56.35,56.44,56.50,56.54,56.54,56.44,56.28,56.20,56.16,56.11,56.20,56.29,56.30,56.21,56.05,56.04,56.12,56.24,56.36,56.29,56.24,56.20,56.16,56.07,55.98,55.95,56.04,56.33,56.45,56.49,56.51,56.56,56.44,56.03,55.61,55.33,55.24,55.22,55.21,55.20,55.20,55.23,55.28,55.29,55.23,55.17,55.23,55.26,55.24,55.17,55.15,55.17,55.20,55.21,55.20,55.22,55.28,55.33,55.22,55.20,55.29
58.90,59.04,58.99,58.89,58.84,58.83,58.87,58.99,59.05,59.04,58.98,58.97,59.01,59.03,58.98,58.81,58.70,58.84,58.91,58.84,58.84,58.88,58.91,58.90,58.89,58.81,58.74,58.72,58.78,58.87,58.86,58.84,58.83,58.84,58.86,58.89,58.89,58.86,58.84,58.80,58.77,58.81,59.07,59.82,60.75,61.67,62.32,62.53,62.58,62.55,62.52,62.51,62.40,62.28,62.15,62.07,62.01,61.95,61.97,62.12,62.44,62.75,63.06,63.34,63.58,63.53,63.25,62.75,62.05,61.20,60.25,59.36,58.69,58.47,58.53,58.75,59.03,59.16,59.24,59.18,59.08,59.06,59.45,60.16,60.97,61.72,62.42,62.97,63.31,63.44,63.42,63.36,63.31,63.26,63.21,63.18,63.12,63.04,62.88,62.51,61.58,60.35,59.11,58.15,57.95,57.90,57.90,57.90,57.88,57.85,57.83,57.83,57.81,57.76,57.69,57.64,57.61,57.60,57.58,57.53,57.45,57.38,57.33,57.28,57.20,57.08,56.99,56.90,56.80,56.70,56.60,56.53,56.50,56.49,56.45,56.84,57.07,57.19,57.24,57.21,57.21,57.21,57.21,57.25,57.29,57.30,57.32,57.37,57.39,57.40,57.39,57.37,57.40,57.40,57.40,57.40,57.38,57.37,57.37,57.35,57.30,57.30,57.30,57.30,57.28,57.23,57.21,57.20,57.19,57.15,57.06,56.94,56.73,56.48,56.39,56.18,55.94,55.76,55.78,55.69,55.64,55.63,55.65,55.64,55.63,55.64,55.66,55.68,55.69,55.71,55.74,55.75,55.89,55.92,55.94,56.01,56.14,56.28,56.36,56.34,56.28,56.23,56.15,56.05,55.95,56.06,56.16,56.18,56.11,55.98,56.00,56.10,56.22,56.31,56.28,56.23,56.20,56.16,56.07,55.96,55.92,56.00,56.31,56.49,56.55,56.57,56.62,56.49,56.07,55.62,55.30,55.23,55.22,55.21,55.19,55.17,55.23,55.29,55.30,55.22,55.22,55.29,55.30,55.26,55.22,55.23,55.25,55.27,55.28,55.22,55.20,55.26,55.35,55.28,55.22,55.27
58.90,58.98,58.92,58.85,58.80,58.79,58.85,58.95,59.04,59.03,58.96,58.94,58.99,59.00,58.96,58.85,58.82,58.97,59.04,58.96,58.85,58.80,58.80,58.83,58.85,58.86,58.86,58.85,58.84,58.84,58.79,58.72,58.65,58.64,58.72,58.80,58.84,58.84,58.84,58.82,58.79,58.78,58.81,59.25,60.08,61.13,62.15,62.62,62.76,62.75,62.75,62.79,62.80,62.80,62.80,62.81,62.84,62.87,62.90,62.97,63.14,63.33,63.44,63.47,63.47,63.21,62.70,61.99,61.19,60.30,59.45,58.80,58.46,58.42,58.56,58.80,59.04,59.12,59.28,59.34,59.26,59.04,58.90,59.46,60.27,61.07,61.83,62.54,63.10,63.43,63.45,63.39,63.35,63.29,63.23,63.20,63.15,63.10,63.05,62.93,62.41,61.46,60.17,58.73,58.06,57.88,57.88,57.90,57.90,57.88,57.85,57.81,57.80,57.78,57.71,57.63,57.60,57.60,57.59,57.52,57.38,57.16,56.96,56.87,56.81,56.72,56.73,56.71,56.64,56.53,56.51,56.50,56.50,56.48,56.41,56.82,57.04,57.14,57.21,57.20,57.20,57.20,57.20,57.21,57.27,57.30,57.30,57.32,57.38,57.40,57.37,57.32,57.39,57.40,57.40,57.40,57.40,57.34,57.31,57.30,57.30,57.30,57.30,57.30,57.30,57.29,57.23,57.20,57.17,57.08,56.93,56.67,56.37,56.11,56.04,56.01,56.00,56.03,56.12,55.87,55.73,55.67,55.63,55.68,55.70,55.70,55.70,55.70,55.69,55.63,55.55,55.46,55.58,55.56,55.51,55.51,55.72,56.02,56.13,56.07,56.08,56.19,56.09,55.90,55.74,55.88,55.97,56.00,55.97,55.91,55.94,56.03,56.14,56.21,56.24,56.22,56.19,56.16,56.05,55.92,55.88,55.97,56.22,56.31,56.30,56.28,56.30,56.19,55.85,55.51,55.28,55.25,55.26,55.23,55.17,55.11,55.23,55.33,55.34,55.24,55.29,55.35,55.34,55.29,55.32,55.38,55.40,55.38,55.35,55.24,55.21,55.25,55.31,55.29,55.25,55.26
58.81,58.85,58.82,58.77,58.75,58.75,58.79,58.87,58.94,58.94,58.89,58.87,58.88,58.91,58.88,58.76,58.72,58.94,59.08,59.03,58.94,58.85,58.81,58.81,58.80,58.79,58.80,58.81,58.83,58.84,58.84,58.79,58.72,58.68,58.72,58.74,58.74,58.72,58.74,58.75,58.76,58.77,58.77,58.95,59.48,60.31,61.37,62.18,62.67,62.90,62.96,62.97,62.98,62.98,62.98,63.00,63.06,63.10,63.11,63.10,63.16,63.12,62.97,62.75,62.63,62.33,61.82,61.14,60.38,59.61,58.99,58.67,58.70,58.75,58.72,58.75,58.85,58.92,59.04,59.10,59.08,59.00,58.81,59.03,59.54,60.25,61.05,61.81,62.49,63.03,63.36,63.40,63.36,63.31,63.27,63.22,63.18,63.16,63.13,63.02,62.75,62.21,61.28,59.93,58.75,58.09,57.82,57.83,57.92,57.91,57.89,57.82,57.66,57.40,57.26,57.21,57.23,57.17,57.17,57.11,56.98,56.84,56.81,56.78,56.74,56.70,56.70,56.67,56.62,56.57,56.56,56.53,56.53,56.56,56.56,56.86,57.06,57.17,57.20,57.20,57.20,57.20,57.20,57.20,57.27,57.30,57.30,57.31,57.37,57.36,57.33,57.31,57.38,57.36,57.36,57.39,57.39,57.33,57.30,57.30,57.29,57.29,57.29,57.27,57.24,57.24,57.21,57.15,57.04,56.88,56.69,56.41,56.17,56.03,56.00,56.00,56.00,56.02,56.07,55.97,55.87,55.79,55.77,55.73,55.72,55.71,55.69,55.66,55.66,55.64,55.60,55.51,55.62,55.62,55.57,55.53,55.61,55.81,55.91,55.91,56.02,56.00,55.78,55.56,55.55,55.69,55.79,55.83,55.82,55.77,55.80,55.88,55.95,55.99,56.07,56.09,56.09,56.07,55.98,55.86,55.82,55.90,56.09,56.12,56.09,56.05,56.06,55.98,55.75,55.51,55.35,55.34,55.34,55.30,55.25,55.19,55.26,55.34,55.37,55.32,55.39,55.42,55.39,55.33,55.36,55.43,55.46,55.44,55.40,55.31,55.28,55.28,55.30,55.29,55.25,55.22
58.73,58.73,58.71,58.68,58.68,58.68,58.71,58.75,58.80,58.80,58.77,58.76,58.76,58.80,58.79,58.69,58.68,58.92,59.08,59.07,59.00,58.87,58.81,58.79,58.79,58.75,58.75,58.78,58.80,58.83,58.86,58.84,58.78,58.74,58.74,58.72,58.69,58.65,58.66,58.69,58.72,58.76,58.75,58.75,58.99,59.55,60.45,61.53,62.36,62.88,63.08,63.12,63.13,63.12,63.12,63.14,63.17,63.16,63.09,62.98,62.86,62.64,62.35,62.05,61.93,61.64,61.12,60.43,59.67,59.07,58.78,58.84,59.20,59.34,59.25,59.17,59.16,59.16,59.20,59.22,59.21,59.16,58.95,58.87,59.04,59.52,60.25,60.99,61.75,62.49,63.12,63.32,63.36,63.33,63.30,63.24,63.21,63.20,63.17,63.07,62.97,62.74,62.18,61.09,59.66,58.56,57.94,57.81,57.92,57.92,57.90,57.81,57.49,57.11,56.95,56.94,56.98,56.89,56.86,56.81,56.70,56.63,56.72,56.73,56.70,56.69,56.70,56.66,56.63,56.61,56.63,56.59,56.60,56.63,56.64,56.88,57.07,57.18,57.20,57.20,57.20,57.20,57.20,57.21,57.27,57.30,57.30,57.30,57.34,57.32,57.30,57.31,57.36,57.32,57.33,57.37,57.36,57.32,57.30,57.28,57.26,57.26,57.27,57.25,57.20,57.19,57.16,57.05,56.87,56.67,56.46,56.21,56.04,56.00,56.00,56.00,56.00,56.00,56.01,56.03,55.95,55.87,55.88,55.78,55.76,55.74,55.70,55.66,55.66,55.66,55.64,55.57,55.66,55.66,55.63,55.58,55.57,55.70,55.78,55.84,55.95,55.78,55.50,55.31,55.40,55.52,55.60,55.63,55.61,55.58,55.62,55.68,55.74,55.76,55.84,55.88,55.90,55.89,55.84,55.76,55.76,55.83,55.94,55.93,55.89,55.86,55.85,55.81,55.67,55.53,55.43,55.44,55.42,55.38,55.34,55.28,55.30,55.35,55.38,55.40,55.46,55.45,55.42,55.38,55.41,55.48,55.51,55.50,55.46,55.39,55.34,55.30,55.27,55.25,55.22,55.18
58.67,58.67,58.61,58.56,58.56,58.58,58.59,58.57,58.57,58.58,58.57,58.59,58.63,58.65,58.65,58.66,58.76,58.92,59.03,59.04,58.99,58.84,58.78,58.80,58.85,58.80,58.79,58.79,58.77,58.77,58.80,58.81,58.80,58.79,58.79,58.78,58.76,58.69,58.63,58.64,58.69,58.75,58.75,58.70,58.72,58.91,59.37,60.54,61.64,62.51,63.04,63.24,63.26,63.25,63.25,63.30,63.17,62.97,62.72,62.46,62.05,61.77,61.58,61.51,61.65,61.42,60.84,60.01,59.14,58.79,59.01,59.55,60.15,60.35,60.49,60.56,60.52,60.27,60.21,60.16,60.03,59.75,59.51,59.21,59.01,59.03,59.47,60.04,60.82,61.73,62.57,63.08,63.32,63.38,63.32,63.25,63.22,63.19,63.14,63.10,63.01,62.90,62.64,62.06,60.91,59.55,58.46,57.88,57.86,57.87,57.88,57.75,57.30,57.07,57.00,57.01,57.03,56.99,56.88,56.77,56.69,56.66,56.71,56.71,56.68,56.68,56.69,56.69,56.67,56.64,56.69,56.70,56.70,56.68,56.55,56.82,57.03,57.15,57.20,57.20,57.20,57.20,57.21,57.23,57.28,57.30,57.30,57.30,57.28,57.29,57.30,57.30,57.31,57.30,57.32,57.34,57.31,57.30,57.28,57.25,57.21,57.21,57.24,57.24,57.19,57.16,57.07,56.87,56.63,56.49,56.26,56.11,56.03,56.00,56.00,56.00,56.00,56.00,56.00,55.99,55.90,55.84,55.89,55.85,55.85,55.81,55.74,55.74,55.75,55.69,55.61,55.60,55.64,55.63,55.61,55.60,55.62,55.75,55.86,55.91,55.84,55.52,55.33,55.27,55.30,55.37,55.39,55.36,55.30,55.29,55.33,55.41,55.48,55.51,55.53,55.53,55.53,55.55,55.55,55.61,55.69,55.75,55.75,55.75,55.72,55.70,55.69,55.68,55.60,55.53,55.50,55.53,55.50,55.47,55.43,55.39,55.36,55.35,55.37,55.43,55.45,55.42,55.41,55.44,55.51,55.56,55.57,55.56,55.54,55.48,55.38,55.26,55.17,55.15,55.13,55.11
58.62,58.63,58.60,58.56,58.56,58.58,58.62,58.59,58.59,58.59,58.59,58.63,58.64,58.63,58.62,58.64,58.71,58.81,58.88,58.91,58.88,58.77,58.76,58.83,58.87,58.83,58.79,58.77,58.76,58.76,58.77,58.78,58.80,58.80,58.80,58.80,58.78,58.73,58.65,58.66,58.71,58.76,58.76,58.71,58.68,58.73,58.91,59.59,60.47,61.35,62.11,62.59,62.90,63.13,63.31,63.43,63.37,63.25,63.09,62.90,62.57,62.35,62.26,62.30,62.43,62.15,61.25,60.01,58.88,59.17,60.02,60.95,61.59,61.73,61.80,61.83,61.79,61.57,61.43,61.34,61.20,60.91,60.58,60.21,59.88,59.67,59.67,59.80,60.24,60.92,61.73,62.45,62.97,63.26,63.33,63.29,63.24,63.20,63.17,63.13,63.06,62.99,62.85,62.56,61.88,60.76,59.52,58.44,58.00,57.85,57.82,57.77,57.54,57.42,57.40,57.43,57.42,57.19,56.97,56.84,56.79,56.76,56.77,56.74,56.69,56.67,56.71,56.71,56.69,56.68,56.74,56.76,56.77,56.73,56.53,56.83,57.04,57.17,57.22,57.23,57.23,57.23,57.23,57.26,57.29,57.30,57.29,57.27,57.24,57.27,57.30,57.30,57.30,57.30,57.32,57.33,57.30,57.30,57.27,57.22,57.20,57.20,57.22,57.20,57.14,57.01,56.88,56.67,56.45,56.37,56.23,56.12,56.05,56.02,56.00,56.00,56.00,56.00,56.00,55.96,55.89,55.86,55.89,55.88,55.86,55.84,55.81,55.81,55.81,55.70,55.58,55.57,55.59,55.59,55.59,55.59,55.66,55.75,55.84,55.86,55.64,55.41,55.30,55.28,55.29,55.33,55.31,55.24,55.14,55.17,55.19,55.24,55.30,55.35,55.37,55.36,55.35,55.36,55.39,55.46,55.52,55.53,55.49,55.48,55.49,55.50,55.48,55.49,55.43,55.38,55.37,55.40,55.36,55.33,55.33,55.34,55.35,55.36,55.39,55.46,55.46,55.42,55.43,55.47,55.49,55.43,55.37,55.31,55.31,55.33,55.32,55.26,55.17,55.12,55.12,55.12
58.58,58.62,58.64,58.61,58.60,58.64,58.70,58.68,58.69,58.69,58.69,58.73,58.71,58.67,58.64,58.63,58.65,58.68,58.72,58.77,58.75,58.70,58.75,58.85,58.88,58.84,58.78,58.75,58.77,58.77,58.75,58.76,58.79,58.79,58.78,58.79,58.79,58.76,58.69,58.69,58.74,58.78,58.76,58.73,58.71,58.70,58.71,58.79,59.27,60.01,60.88,61.59,62.22,62.76,63.18,63.44,63.52,63.58,63.60,63.55,63.43,63.33,63.32,63.41,63.43,62.98,61.71,60.06,58.81,59.84,61.26,62.47,63.04,63.07,63.00,62.94,62.91,62.82,62.63,62.53,62.42,62.19,61.81,61.41,61.07,60.77,60.35,60.01,59.99,60.31,60.91,61.71,62.46,63.02,63.30,63.32,63.27,63.23,63.22,63.15,63.12,63.05,62.96,62.87,62.65,61.94,60.74,59.27,58.32,57.90,57.76,57.79,57.87,57.84,57.86,57.88,57.82,57.37,57.07,56.92,56.89,56.87,56.85,56.79,56.72,56.67,56.73,56.73,56.72,56.72,56.79,56.80,56.82,56.79,56.55,56.86,57.08,57.21,57.25,57.26,57.26,57.26,57.27,57.30,57.30,57.30,57.29,57.24,57.21,57.26,57.30,57.30,57.30,57.30,57.32,57.33,57.29,57.30,57.25,57.21,57.20,57.20,57.20,57.15,57.04,56.80,56.66,56.48,56.32,56.29,56.25,56.16,56.10,56.06,56.01,56.01,56.00,56.00,55.99,55.94,55.91,55.90,55.91,55.90,55.87,55.86,55.88,55.89,55.87,55.74,55.59,55.56,55.56,55.58,55.58,55.58,55.68,55.73,55.79,55.76,55.42,55.35,55.31,55.29,55.30,55.34,55.29,55.18,55.06,55.11,55.12,55.13,55.17,55.22,55.25,55.25,55.24,55.24,55.28,55.32,55.33,55.31,55.23,55.23,55.27,55.31,55.29,55.30,55.25,55.20,55.19,55.21,55.17,55.16,55.19,55.26,55.34,55.37,55.42,55.49,55.46,55.45,55.46,55.49,55.43,55.27,55.11,55.01,55.01,55.12,55.23,55.25,55.19,55.11,55.12,55.13
58.55,58.68,58.73,58.68,58.69,58.74,58.80,58.78,58.77,58.77,58.77,58.78,58.78,58.74,58.70,58.69,58.71,58.72,58.74,58.75,58.75,58.74,58.77,58.82,58.85,58.81,58.77,58.75,58.74,58.73,58.72,58.74,58.76,58.75,58.73,58.73,58.74,58.74,58.67,58.70,58.77,58.82,58.76,58.67,58.64,58.66,58.74,58.74,58.92,59.25,59.69,60.21,60.78,61.41,62.07,62.67,62.98,63.22,63.38,63.48,63.49,63.53,63.59,63.63,63.50,62.46,60.94,59.57,59.23,60.83,62.26,63.20,63.49,63.49,63.43,63.39,63.37,63.33,63.23,63.18,63.14,63.04,62.81,62.53,62.31,62.14,61.84,61.29,60.99,60.92,60.82,61.08,61.65,62.34,62.98,63.28,63.31,63.27,63.23,63.21,63.15,63.07,62.99,62.94,62.83,62.48,61.75,60.59,59.23,58.24,57.77,57.71,57.81,57.86,57.88,57.80,57.56,57.19,56.99,56.91,56.90,56.89,56.85,56.81,56.77,56.75,56.78,56.80,56.81,56.82,56.85,56.82,56.82,56.79,56.64,56.93,57.11,57.20,57.23,57.27,57.29,57.29,57.29,57.30,57.30,57.30,57.29,57.27,57.21,57.26,57.30,57.30,57.30,57.30,57.30,57.30,57.24,57.28,57.28,57.25,57.20,57.20,57.19,57.05,56.78,56.50,56.43,56.36,56.29,56.24,56.27,56.21,56.16,56.13,56.02,56.04,56.03,56.00,56.00,55.98,55.96,55.96,55.97,55.97,55.95,55.95,55.96,55.97,55.95,55.88,55.80,55.78,55.72,55.64,55.60,55.61,55.70,55.75,55.73,55.60,55.29,55.29,55.26,55.23,55.25,55.31,55.31,55.22,55.07,55.06,55.09,55.10,55.09,55.07,55.08,55.10,55.14,55.21,55.22,55.25,55.27,55.27,55.20,55.22,55.25,55.27,55.25,55.26,55.22,55.19,55.17,55.16,55.16,55.20,55.29,55.42,55.36,55.40,55.47,55.51,55.47,55.48,55.50,55.50,55.41,55.23,55.12,55.06,55.04,55.06,55.13,55.18,55.18,55.08,55.07,55.01
58.54,58.72,58.77,58.72,58.74,58.80,58.86,58.85,58.83,58.82,58.81,58.82,58.82,58.77,58.74,58.75,58.79,58.80,58.79,58.78,58.78,58.75,58.75,58.77,58.81,58.79,58.76,58.74,58.71,58.71,58.72,58.73,58.74,58.74,58.71,58.68,58.67,58.66,58.64,58.69,58.76,58.81,58.72,58.61,58.59,58.64,58.72,58.71,58.74,58.83,58.99,59.29,59.66,60.12,60.67,61.28,61.72,62.12,62.48,62.75,62.92,63.11,63.28,63.31,62.96,61.60,60.12,59.22,59.73,61.51,62.75,63.41,63.58,63.58,63.56,63.55,63.54,63.51,63.50,63.50,63.49,63.45,63.34,63.19,63.07,63.01,62.84,62.39,62.10,61.83,61.28,61.02,61.31,61.89,62.54,63.08,63.29,63.32,63.27,63.24,63.18,63.11,63.04,62.99,62.92,62.78,62.39,61.63,60.30,58.96,58.10,57.74,57.76,57.83,57.77,57.58,57.27,57.04,56.92,56.87,56.87,56.87,56.81,56.79,56.79,56.79,56.80,56.84,56.86,56.85,56.88,56.84,56.81,56.78,56.66,56.98,57.14,57.21,57.25,57.29,57.32,57.32,57.30,57.30,57.28,57.28,57.29,57.28,57.24,57.27,57.30,57.30,57.30,57.30,57.28,57.25,57.21,57.25,57.26,57.24,57.19,57.15,57.05,56.82,56.51,56.34,56.32,56.31,56.28,56.24,56.26,56.22,56.19,56.16,56.03,56.04,56.04,56.01,55.99,55.99,55.99,55.99,55.99,55.97,55.94,55.93,55.92,55.90,55.89,55.83,55.77,55.79,55.72,55.63,55.61,55.69,55.76,55.76,55.67,55.51,55.26,55.28,55.27,55.26,55.26,55.31,55.27,55.19,55.08,55.05,55.08,55.07,55.04,54.99,54.99,55.01,55.06,55.13,55.14,55.18,55.20,55.20,55.16,55.18,55.20,55.22,55.21,55.21,55.19,55.17,55.17,55.15,55.17,55.24,55.36,55.48,55.38,55.42,55.49,55.53,55.50,55.51,55.49,55.44,55.31,55.17,55.09,55.05,55.03,54.99,55.01,55.06,55.11,55.08,55.04,54.93
58.54,58.74,58.77,58.73,58.77,58.84,58.90,58.89,58.87,58.85,58.84,58.83,58.83,58.77,58.74,58.80,58.88,58.90,58.87,58.84,58.83,58.73,58.69,58.71,58.76,58.79,58.77,58.72,58.69,58.72,58.74,58.74,58.74,58.77,58.71,58.64,58.57,58.55,58.59,58.67,58.73,58.75,58.65,58.54,58.54,58.61,58.67,58.70,58.70,58.69,58.70,58.73,58.78,58.88,59.05,59.40,59.87,60.44,61.01,61.49,61.82,62.18,62.48,62.55,61.92,60.46,59.25,58.96,60.29,61.94,62.82,63.21,63.36,63.39,63.44,63.46,63.46,63.43,63.51,63.54,63.53,63.51,63.50,63.48,63.47,63.47,63.45,63.36,63.28,63.00,62.19,61.42,61.34,61.62,62.00,62.75,63.22,63.39,63.32,63.24,63.21,63.16,63.09,63.02,62.94,62.86,62.73,62.44,61.51,59.99,58.69,57.88,57.71,57.76,57.55,57.23,56.97,56.91,56.85,56.81,56.80,56.80,56.74,56.75,56.79,56.80,56.80,56.85,56.86,56.82,56.88,56.84,56.80,56.76,56.63,57.01,57.17,57.23,57.29,57.30,57.35,57.36,57.31,57.30,57.23,57.24,57.29,57.29,57.29,57.29,57.30,57.30,57.30,57.29,57.25,57.20,57.20,57.20,57.20,57.19,57.16,57.07,56.79,56.48,56.24,56.30,56.30,56.30,56.30,56.29,56.22,56.21,56.20,56.16,56.03,56.01,56.03,56.04,55.97,55.98,55.98,55.98,55.97,55.91,55.84,55.80,55.78,55.72,55.72,55.64,55.57,55.63,55.60,55.56,55.62,55.80,55.87,55.75,55.62,55.48,55.31,55.30,55.34,55.36,55.32,55.31,55.19,55.10,55.09,55.07,55.08,55.05,55.00,54.97,54.98,54.99,55.01,55.02,55.06,55.11,55.13,55.12,55.10,55.11,55.13,55.15,55.16,55.14,55.14,55.15,55.17,55.16,55.19,55.28,55.40,55.45,55.40,55.43,55.49,55.54,55.55,55.53,55.45,55.31,55.15,55.09,55.04,55.00,54.98,54.91,54.87,54.89,54.99,55.09,55.04,54.88
58.57,58.77,58.79,58.77,58.80,58.85,58.90,58.90,58.89,58.88,58.87,58.85,58.80,58.74,58.75,58.86,58.93,58.97,58.97,58.92,58.89,58.78,58.72,58.71,58.75,58.77,58.74,58.71,58.69,58.71,58.73,58.76,58.80,58.82,58.75,58.66,58.58,58.54,58.59,58.64,58.70,58.74,58.63,58.52,58.49,58.51,58.51,58.47,58.50,58.58,58.70,58.73,58.71,58.70,58.72,58.83,59.02,59.20,59.37,59.56,59.84,60.35,60.66,60.54,59.93,59.24,58.71,58.71,59.73,60.86,61.34,61.46,61.47,61.61,61.76,61.99,62.26,62.41,62.51,62.63,62.71,62.69,62.82,63.02,63.20,63.33,63.36,63.39,63.42,63.35,63.04,62.56,62.29,62.22,62.33,62.65,62.97,63.23,63.37,63.32,63.25,63.19,63.13,63.05,62.99,62.94,62.85,62.60,61.82,60.10,58.74,57.98,57.78,57.76,57.59,57.32,57.04,57.02,57.00,56.93,56.86,56.93,56.86,56.82,56.80,56.80,56.80,56.84,56.87,56.85,56.87,56.82,56.73,56.65,56.69,56.96,57.13,57.23,57.29,57.30,57.32,57.32,57.30,57.30,57.24,57.24,57.25,57.24,57.24,57.26,57.29,57.30,57.28,57.25,57.22,57.20,57.20,57.21,57.21,57.14,56.98,56.75,56.49,56.32,56.27,56.30,56.30,56.30,56.29,56.25,56.22,56.24,56.25,56.21,56.08,56.02,56.00,55.99,55.94,55.95,55.96,55.95,55.93,55.90,55.84,55.80,55.78,55.74,55.77,55.75,55.75,55.88,55.81,55.68,55.65,55.80,55.84,55.72,55.61,55.50,55.33,55.30,55.30,55.32,55.34,55.34,55.23,55.16,55.16,55.15,55.08,55.01,54.96,54.93,54.96,54.98,55.00,55.04,55.05,55.07,55.07,55.05,55.01,55.06,55.12,55.15,55.13,55.13,55.13,55.13,55.14,55.18,55.32,55.41,55.44,55.38,55.42,55.45,55.48,55.49,55.41,55.27,55.17,55.09,54.99,54.99,54.95,54.87,54.78,54.67,54.62,54.69,54.87,55.08,55.04,54.91
58.57,58.75,58.77,58.78,58.81,58.85,58.90,58.90,58.90,58.90,58.89,58.84,58.75,58.72,58.78,58.91,58.96,59.02,59.04,59.01,58.96,58.85,58.78,58.74,58.76,58.76,58.74,58.72,58.72,58.72,58.74,58.79,58.84,58.85,58.78,58.67,58.58,58.55,58.61,58.65,58.71,58.76,58.67,58.55,58.49,58.47,58.43,58.34,58.37,58.49,58.67,58.73,58.70,58.65,58.58,58.53,58.53,58.45,58.36,58.34,58.51,58.97,59.21,59.03,58.57,58.43,58.35,58.47,59.04,59.62,59.79,59.73,59.66,59.85,60.01,60.29,60.66,60.92,61.05,61.25,61.43,61.46,61.69,62.05,62.40,62.68,62.86,63.10,63.30,63.44,63.53,63.34,63.05,62.81,62.73,62.69,62.83,63.06,63.29,63.35,63.28,63.22,63.16,63.09,63.04,62.98,62.82,62.41,61.47,59.78,58.58,58.00,57.83,57.78,57.66,57.47,57.24,57.25,57.23,57.15,57.07,57.21,57.11,56.98,56.89,56.89,56.86,56.86,56.87,56.85,56.85,56.79,56.67,56.58,56.76,56.96,57.12,57.24,57.28,57.30,57.31,57.31,57.30,57.30,57.25,57.23,57.23,57.20,57.20,57.23,57.26,57.28,57.26,57.20,57.17,57.16,57.15,57.16,57.15,57.03,56.76,56.48,56.30,56.25,56.30,56.29,56.29,56.29,56.27,56.21,56.21,56.24,56.25,56.23,56.10,56.04,56.01,56.00,55.97,55.97,55.96,55.94,55.90,55.89,55.85,55.81,55.79,55.77,55.81,55.84,55.89,56.02,55.95,55.79,55.72,55.81,55.79,55.70,55.62,55.55,55.38,55.34,55.33,55.35,55.37,55.37,55.29,55.24,55.24,55.23,55.11,54.99,54.92,54.91,54.95,54.97,55.00,55.04,55.02,55.01,55.00,54.96,54.90,54.95,55.03,55.07,55.05,55.07,55.07,55.06,55.07,55.18,55.39,55.47,55.44,55.36,55.43,55.46,55.48,55.47,55.34,55.13,55.01,54.97,54.92,54.95,54.91,54.82,54.67,54.50,54.44,54.52,54.73,55.00,55.02,54.95
58.49,58.62,58.67,58.76,58.80,58.85,58.90,58.91,58.90,58.90,58.87,58.80,58.69,58.72,58.82,58.94,58.98,59.02,59.06,59.08,59.04,58.97,58.89,58.84,58.80,58.79,58.78,58.77,58.77,58.77,58.78,58.80,58.82,58.85,58.78,58.65,58.56,58.58,58.66,58.72,58.79,58.85,58.80,58.68,58.59,58.54,58.50,58.39,58.38,58.46,58.58,58.68,58.75,58.75,58.68,58.62,58.60,58.52,58.43,58.37,58.38,58.46,58.49,58.45,58.40,58.37,58.31,58.24,58.23,58.24,58.21,58.17,58.14,58.23,58.26,58.33,58.48,58.71,58.86,59.12,59.40,59.60,59.82,60.24,60.72,61.19,61.71,62.32,62.79,63.13,63.40,63.45,63.43,63.34,63.20,62.99,62.89,62.89,63.01,63.30,63.32,63.25,63.17,63.14,63.08,62.95,62.52,61.63,60.06,58.79,58.10,57.87,57.81,57.84,57.78,57.68,57.63,57.68,57.62,57.54,57.53,57.75,57.55,57.30,57.13,57.15,57.03,56.92,56.85,56.81,56.78,56.76,56.64,56.57,56.87,57.03,57.16,57.24,57.26,57.29,57.33,57.33,57.30,57.30,57.26,57.25,57.24,57.20,57.20,57.21,57.22,57.24,57.21,57.14,57.08,57.04,57.00,56.99,56.97,56.82,56.47,56.29,56.30,56.32,56.29,56.25,56.25,56.25,56.23,56.17,56.19,56.17,56.17,56.19,56.07,56.06,56.07,56.10,56.12,56.06,56.01,55.96,55.90,55.90,55.87,55.83,55.80,55.79,55.81,55.87,55.92,55.95,55.93,55.87,55.84,55.85,55.73,55.69,55.68,55.64,55.46,55.46,55.50,55.49,55.40,55.41,55.37,55.35,55.34,55.32,55.18,55.02,54.90,54.93,54.97,54.99,54.99,55.00,54.94,54.91,54.89,54.85,54.75,54.74,54.79,54.85,54.90,54.90,54.90,54.91,54.95,55.13,55.36,55.43,55.39,55.41,55.45,55.46,55.48,55.51,55.42,55.22,55.08,55.03,55.00,54.99,54.98,54.91,54.74,54.46,54.38,54.42,54.53,54.78,54.97,55.01
58.37,58.45,58.53,58.59,58.65,58.75,58.88,58.91,58.91,58.88,58.83,58.72,58.68,58.76,58.88,58.97,59.00,59.03,59.07,59.09,59.06,58.98,58.92,58.88,58.84,58.81,58.79,58.78,58.76,58.74,58.74,58.75,58.78,58.82,58.73,58.61,58.54,58.57,58.64,58.71,58.77,58.81,58.78,58.69,58.61,58.56,58.52,58.46,58.44,58.45,58.49,58.61,58.74,58.77,58.73,58.68,58.66,58.60,58.53,58.47,58.41,58.36,58.34,58.33,58.37,58.38,58.34,58.25,58.14,57.99,57.89,57.83,57.79,57.84,57.85,57.87,57.92,58.04,58.12,58.26,58.42,58.55,58.67,58.95,59.31,59.69,60.17,60.71,61.29,61.89,62.48,62.87,63.17,63.33,63.35,63.25,63.16,63.04,62.96,63.16,63.23,63.25,63.22,63.18,63.07,62.53,61.55,60.24,58.93,58.22,57.90,57.95,58.36,58.57,58.35,57.99,57.71,57.71,57.70,57.71,57.75,57.90,57.79,57.62,57.49,57.51,57.39,57.22,57.11,57.10,57.06,56.96,56.72,56.54,56.81,57.02,57.15,57.22,57.23,57.28,57.32,57.32,57.29,57.27,57.24,57.23,57.22,57.20,57.17,57.12,57.08,57.06,57.02,56.96,56.85,56.72,56.66,56.67,56.72,56.66,56.38,56.28,56.31,56.33,56.29,56.23,56.22,56.22,56.21,56.17,56.10,56.09,56.12,56.14,56.08,56.07,56.07,56.08,56.12,56.06,56.01,55.96,55.89,55.87,55.87,55.87,55.84,55.84,55.85,55.88,55.91,55.91,55.88,55.85,55.84,55.83,55.75,55.71,55.70,55.70,55.61,55.60,55.64,55.65,55.58,55.56,55.54,55.55,55.56,55.52,55.33,55.15,55.05,55.08,55.03,54.99,54.97,54.98,54.93,54.91,54.87,54.80,54.74,54.76,54.75,54.75,54.80,54.81,54.81,54.86,55.01,55.26,55.40,55.45,55.45,55.47,55.44,55.44,55.46,55.49,55.41,55.28,55.19,55.14,55.11,55.10,55.08,55.01,54.82,54.52,54.40,54.39,54.46,54.71,54.95,55.00
58.25,58.28,58.36,58.38,58.45,58.60,58.81,58.89,58.89,58.85,58.78,58.64,58.68,58.81,58.94,59.00,59.02,59.05,59.08,59.09,59.05,58.97,58.92,58.90,58.89,58.85,58.81,58.79,58.76,58.71,58.69,58.69,58.72,58.77,58.68,58.58,58.54,58.56,58.61,58.68,58.73,58.74,58.71,58.65,58.60,58.55,58.52,58.52,58.50,58.46,58.43,58.54,58.69,58.76,58.75,58.71,58.69,58.66,58.62,58.56,58.46,58.39,58.36,58.36,58.38,58.39,58.37,58.32,58.24,58.08,57.95,57.86,57.80,57.82,57.85,57.86,57.87,57.87,57.87,57.87,57.88,57.90,57.89,58.00,58.17,58.38,58.69,59.03,59.60,60.37,61.20,61.92,62.51,62.96,63.24,63.40,63.42,63.25,63.01,63.06,63.16,63.26,63.29,63.18,62.87,61.81,60.34,58.82,58.05,57.85,57.87,58.23,59.20,59.60,59.20,58.46,57.82,57.66,57.68,57.77,57.87,57.90,57.92,57.87,57.81,57.83,57.74,57.55,57.44,57.46,57.42,57.25,56.90,56.58,56.75,56.97,57.10,57.16,57.17,57.23,57.25,57.25,57.23,57.18,57.16,57.14,57.14,57.14,57.09,56.97,56.86,56.81,56.78,56.76,56.62,56.42,56.34,56.38,56.49,56.52,56.35,56.31,56.31,56.31,56.29,56.22,56.20,56.20,56.20,56.19,56.02,56.05,56.10,56.11,56.10,56.09,56.06,56.03,56.09,56.03,56.00,55.96,55.90,55.85,55.88,55.90,55.90,55.90,55.89,55.90,55.90,55.90,55.85,55.82,55.82,55.81,55.79,55.74,55.72,55.74,55.77,55.74,55.76,55.78,55.76,55.71,55.71,55.74,55.77,55.70,55.48,55.33,55.28,55.29,55.16,55.06,55.02,55.05,55.01,55.00,54.93,54.85,54.87,54.90,54.83,54.74,54.75,54.78,54.78,54.89,55.13,55.41,55.43,55.46,55.51,55.50,55.42,55.42,55.44,55.44,55.37,55.32,55.29,55.26,55.22,55.22,55.19,55.10,54.90,54.62,54.47,54.42,54.48,54.74,54.96,54.99
58.19,58.17,58.16,58.15,58.20,58.36,58.61,58.80,58.82,58.78,58.71,58.62,58.72,58.85,58.96,59.02,59.07,59.11,59.13,59.10,59.02,58.95,58.93,58.94,58.94,58.92,58.90,58.88,58.83,58.73,58.64,58.61,58.62,58.67,58.64,58.61,58.59,58.58,58.62,58.70,58.74,58.72,58.67,58.61,58.53,58.46,58.45,58.47,58.50,58.51,58.48,58.47,58.58,58.68,58.71,58.66,58.62,58.58,58.55,58.52,58.45,58.41,58.40,58.40,58.37,58.37,58.36,58.32,58.26,58.13,58.02,57.92,57.84,57.85,57.87,57.89,57.90,57.92,57.92,57.92,57.93,57.95,57.92,57.91,57.90,57.92,58.02,58.14,58.37,58.76,59.33,60.10,60.86,61.61,62.34,63.11,63.34,63.33,63.24,63.32,63.33,63.37,63.33,63.07,61.80,60.24,58.93,58.14,57.88,57.81,58.21,59.14,60.60,61.17,60.67,59.57,58.39,57.78,57.60,57.63,57.74,57.77,57.82,57.82,57.81,57.81,57.75,57.69,57.68,57.70,57.74,57.69,57.40,57.00,56.82,56.86,56.93,56.98,56.98,56.95,56.94,56.91,56.87,56.90,56.86,56.83,56.83,56.83,56.76,56.56,56.41,56.41,56.55,56.66,56.61,56.48,56.45,56.46,56.42,56.36,56.32,56.31,56.31,56.30,56.30,56.28,56.22,56.20,56.20,56.20,56.15,56.15,56.16,56.18,56.17,56.12,56.07,56.03,56.04,56.01,55.97,55.95,55.97,55.95,55.93,55.94,55.98,55.97,55.92,55.91,55.93,55.97,55.95,55.91,55.86,55.82,55.81,55.80,55.79,55.80,55.81,55.82,55.81,55.80,55.79,55.77,55.78,55.78,55.76,55.69,55.60,55.57,55.58,55.58,55.53,55.49,55.48,55.52,55.45,55.33,55.27,55.31,55.47,55.34,55.12,54.91,54.86,54.88,54.96,55.10,55.29,55.36,55.38,55.40,55.40,55.37,55.39,55.42,55.43,55.39,55.35,55.32,55.30,55.29,55.29,55.27,55.22,55.13,54.99,54.75,54.61,54.61,54.75,54.97,55.03,55.00
58.17,58.13,58.08,58.04,58.09,58.23,58.46,58.67,58.70,58.67,58.64,58.62,58.80,58.91,58.98,59.03,59.09,59.13,59.13,59.07,58.97,58.94,58.95,58.97,58.97,58.96,58.95,58.93,58.88,58.73,58.61,58.57,58.58,58.62,58.62,58.62,58.61,58.60,58.63,58.69,58.71,58.67,58.61,58.56,58.48,58.42,58.43,58.48,58.50,58.51,58.50,58.49,58.58,58.67,58.71,58.64,58.60,58.56,58.53,58.50,58.47,58.48,58.47,58.43,58.37,58.37,58.36,58.33,58.28,58.19,58.08,57.97,57.90,57.91,57.93,57.94,57.95,57.99,57.99,58.00,58.01,58.02,57.97,57.89,57.80,57.73,57.73,57.75,57.80,57.95,58.24,58.72,59.33,60.08,60.99,61.97,62.58,62.98,63.23,63.36,63.36,63.23,62.84,62.01,60.38,59.00,58.14,57.84,57.87,58.26,59.09,60.27,61.67,62.12,61.71,60.69,59.36,58.33,57.81,57.61,57.63,57.68,57.72,57.74,57.74,57.74,57.70,57.72,57.75,57.77,57.84,57.82,57.54,57.09,56.73,56.70,56.75,56.81,56.85,56.77,56.76,56.73,56.68,56.74,56.73,56.70,56.67,56.66,56.64,56.51,56.38,56.34,56.47,56.58,56.57,56.50,56.50,56.49,56.42,56.34,56.34,56.34,56.32,56.31,56.30,56.30,56.24,56.21,56.20,56.20,56.20,56.15,56.16,56.23,56.21,56.17,56.14,56.11,56.09,56.05,55.99,55.96,56.00,55.99,55.98,55.99,56.03,56.01,55.97,55.95,55.97,56.01,56.01,55.97,55.92,55.86,55.86,55.86,55.86,55.86,55.85,55.86,55.83,55.81,55.80,55.80,55.82,55.81,55.77,55.69,55.67,55.69,55.71,55.70,55.69,55.69,55.70,55.73,55.65,55.55,55.50,55.55,55.69,55.56,55.36,55.19,55.12,55.14,55.20,55.28,55.35,55.36,55.37,55.36,55.35,55.34,55.39,55.40,55.38,55.34,55.33,55.30,55.29,55.28,55.28,55.25,55.20,55.14,55.06,54.93,54.83,54.83,54.93,55.06,55.05,55.00
58.19,58.15,58.07,58.03,58.08,58.18,58.33,58.52,58.55,58.54,58.55,58.65,58.89,58.99,59.01,59.03,59.10,59.12,59.09,59.02,58.92,58.93,58.97,59.00,59.00,58.99,58.99,58.97,58.90,58.71,58.59,58.56,58.59,58.60,58.60,58.61,58.61,58.60,58.63,58.68,58.67,58.61,58.52,58.50,58.45,58.41,58.44,58.52,58.50,58.47,58.51,58.58,58.65,58.71,58.73,58.65,58.61,58.57,58.53,58.50,58.50,58.56,58.56,58.46,58.37,58.39,58.37,58.33,58.30,58.25,58.12,58.00,57.96,57.99,58.00,58.00,58.01,58.06,58.09,58.10,58.10,58.10,58.04,57.93,57.82,57.74,57.71,57.71,57.71,57.70,57.71,57.66,57.88,58.43,59.33,60.23,61.33,62.34,63.07,63.24,63.28,62.92,61.96,60.30,58.70,58.01,57.80,57.82,57.97,59.06,60.34,61.56,62.52,62.62,62.44,61.80,60.61,59.19,58.21,57.67,57.52,57.63,57.62,57.62,57.63,57.62,57.62,57.66,57.69,57.71,57.78,57.72,57.41,56.95,56.52,56.51,56.56,56.66,56.75,56.66,56.66,56.65,56.62,56.67,56.73,56.68,56.61,56.60,56.66,56.70,56.65,56.51,56.50,56.50,56.50,56.50,56.50,56.48,56.45,56.42,56.40,56.40,56.36,56.32,56.30,56.30,56.25,56.22,56.20,56.20,56.19,56.09,56.10,56.27,56.23,56.24,56.25,56.25,56.22,56.12,56.04,56.00,56.00,56.00,56.02,56.06,56.08,56.04,56.03,56.02,56.01,56.04,56.04,56.03,55.99,55.94,55.94,55.94,55.94,55.92,55.89,55.85,55.83,55.82,55.80,55.81,55.83,55.84,55.79,55.70,55.70,55.72,55.72,55.70,55.71,55.74,55.76,55.75,55.68,55.68,55.65,55.62,55.64,55.61,55.58,55.55,55.50,55.50,55.48,55.42,55.34,55.39,55.38,55.35,55.33,55.38,55.40,55.37,55.32,55.30,55.30,55.29,55.27,55.24,55.21,55.17,55.14,55.13,55.12,55.13,55.11,55.08,55.04,55.04,55.03,55.00
58.19,58.15,58.07,58.04,58.09,58.21,58.36,58.50,58.52,58.52,58.56,58.69,58.91,59.00,59.00,59.01,59.04,59.06,59.06,59.02,58.92,58.93,58.98,59.03,59.06,59.06,59.04,59.01,58.93,58.77,58.66,58.63,58.66,58.64,58.61,58.60,58.60,58.60,58.62,58.66,58.66,58.60,58.53,58.49,58.43,58.38,58.38,58.42,58.46,58.54,58.65,58.66,58.61,58.57,58.57,58.62,58.67,58.63,58.53,58.45,58.48,58.51,58.50,58.43,58.35,58.33,58.30,58.24,58.14,57.98,57.86,57.80,57.80,57.84,57.87,57.91,57.95,58.01,58.03,58.03,58.02,58.03,57.97,57.87,57.80,57.78,57.78,57.78,57.75,57.74,57.75,57.74,57.81,57.99,58.33,58.84,59.64,60.53,61.41,62.08,62.14,61.49,60.32,58.96,58.18,57.88,57.91,58.25,59.14,60.45,61.57,62.33,62.68,62.69,62.59,62.28,61.64,60.47,59.25,58.29,57.71,57.57,57.56,57.61,57.65,57.64,57.64,57.66,57.67,57.69,57.77,57.67,57.36,56.92,56.60,56.57,56.61,56.68,56.72,56.66,56.66,56.64,56.61,56.65,56.66,56.63,56.60,56.60,56.62,56.62,56.58,56.50,56.50,56.50,56.50,56.50,56.50,56.45,56.43,56.43,56.40,56.40,56.38,56.35,56.30,56.30,56.28,56.24,56.21,56.24,56.26,56.21,56.19,56.27,56.30,56.26,56.23,56.22,56.23,56.13,56.04,56.00,56.00,56.01,56.05,56.08,56.09,56.07,56.05,56.04,56.05,56.08,56.08,56.07,56.05,56.01,55.98,55.98,55.97,55.95,55.90,55.88,55.87,55.86,55.83,55.81,55.84,55.84,55.81,55.76,55.75,55.76,55.76,55.75,55.78,55.78,55.76,55.73,55.67,55.63,55.59,55.57,55.61,55.60,55.59,55.55,55.51,55.52,55.46,55.39,55.35,55.36,55.36,55.35,55.34,55.35,55.34,55.29,55.24,55.23,55.24,55.20,55.15,55.12,55.11,55.08,55.07,55.06,55.06,55.05,55.03,55.01,54.99,54.99,55.01,55.01
58.17,58.12,58.06,58.06,58.13,58.25,58.38,58.47,58.48,58.50,58.57,58.74,58.92,58.99,59.00,59.01,59.02,59.04,59.04,59.01,58.94,58.96,59.01,59.06,59.09,59.09,59.07,59.02,58.93,58.80,58.71,58.70,58.72,58.67,58.62,58.59,58.58,58.58,58.59,58.62,58.63,58.60,58.55,58.49,58.42,58.37,58.35,58.37,58.47,58.60,58.72,58.71,58.60,58.50,58.48,58.57,58.66,58.64,58.55,58.47,58.48,58.49,58.47,58.42,58.34,58.30,58.28,58.22,58.04,57.81,57.71,57.68,57.70,57.73,57.77,57.81,57.86,57.94,57.96,57.95,57.95,57.96,57.93,57.87,57.84,57.84,57.85,57.83,57.80,57.78,57.81,57.82,57.79,57.76,57.75,57.93,58.39,59.04,59.84,60.69,60.72,60.03,59.01,58.08,57.86,57.93,58.32,59.09,60.42,61.65,62.46,62.83,62.81,62.75,62.69,62.59,62.35,61.54,60.33,59.15,58.21,57.68,57.56,57.57,57.61,57.63,57.63,57.64,57.63,57.63,57.72,57.62,57.33,56.95,56.71,56.68,56.69,56.72,56.74,56.71,56.70,56.67,56.63,56.65,56.62,56.61,56.61,56.60,56.61,56.60,56.55,56.50,56.50,56.50,56.50,56.50,56.50,56.43,56.42,56.43,56.42,56.40,56.40,56.37,56.32,56.30,56.33,56.30,56.27,56.31,56.36,56.33,56.30,56.32,56.38,56.28,56.21,56.20,56.20,56.11,56.06,56.03,56.02,56.03,56.07,56.10,56.10,56.09,56.05,56.05,56.08,56.10,56.10,56.10,56.09,56.07,56.03,56.00,55.99,55.96,55.92,55.90,55.90,55.88,55.86,55.84,55.85,55.85,55.82,55.79,55.77,55.77,55.78,55.77,55.80,55.77,55.72,55.68,55.62,55.58,55.54,55.53,55.58,55.58,55.58,55.55,55.50,55.48,55.43,55.40,55.40,55.36,55.37,55.36,55.33,55.32,55.31,55.25,55.20,55.18,55.23,55.22,55.18,55.14,55.11,55.10,55.10,55.10,55.08,55.06,55.05,55.06,55.06,55.06,55.10,55.10
58.11,58.06,58.04,58.11,58.21,58.32,58.41,58.43,58.42,58.46,58.57,58.77,58.90,58.97,59.00,59.04,59.06,59.07,59.04,58.99,58.97,59.01,59.05,59.08,59.07,59.08,59.07,59.01,58.89,58.79,58.76,58.76,58.77,58.71,58.64,58.59,58.57,58.55,58.53,58.54,58.57,58.60,58.59,58.53,58.45,58.38,58.35,58.42,58.53,58.63,58.69,58.71,58.64,58.56,58.50,58.51,58.56,58.57,58.58,58.58,58.54,58.50,58.48,58.46,58.36,58.33,58.34,58.30,58.04,57.80,57.71,57.70,57.70,57.71,57.71,57.72,57.74,57.83,57.87,57.88,57.87,57.90,57.94,57.95,57.94,57.93,57.91,57.88,57.85,57.85,57.88,57.86,57.83,57.81,57.79,57.75,57.82,58.05,58.45,58.94,58.87,58.56,58.18,57.91,57.84,58.26,59.21,60.56,61.82,62.52,62.85,62.92,62.87,62.80,62.74,62.67,62.56,62.28,61.45,60.36,59.17,58.08,57.65,57.49,57.48,57.54,57.55,57.58,57.57,57.52,57.59,57.57,57.35,57.04,56.86,56.84,56.80,56.80,56.86,56.81,56.80,56.76,56.67,56.69,56.63,56.63,56.64,56.60,56.65,56.66,56.61,56.51,56.50,56.50,56.50,56.50,56.50,56.43,56.40,56.42,56.46,56.41,56.40,56.39,56.36,56.31,56.39,56.42,56.41,56.44,56.50,56.47,56.43,56.44,56.50,56.27,56.16,56.18,56.13,56.06,56.09,56.12,56.07,56.07,56.09,56.10,56.10,56.09,56.04,56.05,56.10,56.10,56.10,56.10,56.12,56.15,56.07,56.02,55.97,55.94,55.96,55.92,55.90,55.90,55.89,55.88,55.88,55.85,55.80,55.78,55.75,55.76,55.77,55.74,55.76,55.69,55.62,55.60,55.54,55.52,55.51,55.51,55.52,55.53,55.55,55.54,55.45,55.38,55.41,55.47,55.49,55.40,55.39,55.37,55.33,55.28,55.33,55.28,55.21,55.19,55.32,55.41,55.42,55.36,55.27,55.29,55.31,55.30,55.24,55.21,55.24,55.27,55.30,55.34,55.35,55.31
58.03,58.02,58.04,58.12,58.26,58.38,58.45,58.47,58.45,58.50,58.63,58.82,58.89,58.93,58.98,59.05,59.06,59.05,59.01,58.96,58.96,59.01,59.04,59.05,59.02,59.02,59.00,58.94,58.84,58.78,58.78,58.80,58.81,58.76,58.69,58.64,58.59,58.54,58.49,58.47,58.50,58.57,58.60,58.55,58.49,58.42,58.37,58.42,58.48,58.54,58.58,58.66,58.65,58.61,58.56,58.55,58.54,58.56,58.61,58.68,58.64,58.58,58.53,58.51,58.45,58.44,58.46,58.42,58.16,57.87,57.73,57.70,57.70,57.70,57.69,57.67,57.68,57.74,57.79,57.82,57.83,57.84,57.85,57.84,57.84,57.85,57.89,57.90,57.91,57.92,57.92,57.90,57.87,57.84,57.82,57.78,57.78,57.84,57.97,58.16,58.14,58.04,57.87,57.69,58.26,59.33,60.60,61.83,62.61,62.91,63.00,62.96,62.90,62.85,62.78,62.69,62.61,62.52,62.10,61.40,60.40,59.08,58.16,57.65,57.46,57.47,57.53,57.53,57.47,57.37,57.40,57.44,57.35,57.18,57.08,57.07,57.05,57.04,57.08,57.05,57.05,57.00,56.92,56.89,56.80,56.74,56.72,56.70,56.72,56.73,56.72,56.70,56.69,56.72,56.74,56.72,56.65,56.51,56.43,56.41,56.43,56.41,56.46,56.50,56.48,56.45,56.47,56.49,56.53,56.58,56.62,56.60,56.52,56.41,56.33,56.18,56.10,56.09,56.06,56.03,56.08,56.12,56.09,56.09,56.13,56.13,56.11,56.13,56.08,56.08,56.10,56.10,56.10,56.11,56.14,56.18,56.14,56.08,56.03,56.00,56.03,55.95,55.91,55.88,55.85,55.85,55.84,55.81,55.76,55.75,55.71,55.72,55.73,55.68,55.69,55.67,55.63,55.61,55.58,55.60,55.61,55.60,55.60,55.59,55.58,55.53,55.44,55.43,55.48,55.50,55.46,55.43,55.46,55.47,55.46,55.41,55.45,55.40,55.35,55.36,55.48,55.56,55.58,55.55,55.48,55.47,55.50,55.50,55.44,55.37,55.34,55.33,55.35,55.39,55.42,55.40
57.96,57.99,58.05,58.12,58.29,58.44,58.50,58.52,58.50,58.56,58.69,58.86,58.88,58.90,58.95,59.05,59.05,59.02,58.97,58.93,58.93,58.98,59.01,59.00,58.97,58.95,58.94,58.89,58.80,58.77,58.81,58.84,58.85,58.82,58.75,58.68,58.61,58.55,58.45,58.42,58.45,58.53,58.58,58.56,58.52,58.45,58.38,58.40,58.42,58.43,58.46,58.58,58.64,58.63,58.59,58.57,58.54,58.56,58.63,58.71,58.70,58.63,58.57,58.53,58.52,58.52,58.55,58.52,58.29,57.95,57.76,57.70,57.70,57.70,57.68,57.65,57.63,57.66,57.73,57.78,57.80,57.79,57.73,57.69,57.69,57.74,57.82,57.87,57.90,57.91,57.90,57.89,57.88,57.86,57.83,57.83,57.82,57.80,57.76,57.71,57.76,57.80,57.74,57.57,58.75,60.37,61.84,62.81,63.11,63.13,63.07,63.00,62.93,62.89,62.82,62.72,62.64,62.62,62.54,62.24,61.56,60.23,58.91,58.02,57.56,57.44,57.53,57.49,57.37,57.23,57.22,57.29,57.31,57.28,57.26,57.25,57.24,57.24,57.25,57.25,57.26,57.23,57.15,57.05,56.95,56.87,56.82,56.81,56.81,56.81,56.84,56.88,56.88,56.94,56.96,56.92,56.81,56.60,56.49,56.44,56.43,56.43,56.54,56.60,56.59,56.57,56.51,56.54,56.63,56.70,56.71,56.70,56.57,56.31,56.11,56.08,56.05,56.02,56.01,56.02,56.06,56.10,56.10,56.12,56.16,56.16,56.12,56.16,56.12,56.10,56.10,56.11,56.11,56.12,56.16,56.21,56.20,56.18,56.14,56.10,56.13,56.03,55.95,55.89,55.82,55.82,55.81,55.78,55.75,55.74,55.71,55.71,55.71,55.65,55.65,55.67,55.68,55.65,55.67,55.70,55.71,55.70,55.70,55.67,55.62,55.54,55.45,55.52,55.55,55.51,55.43,55.46,55.53,55.58,55.60,55.56,55.56,55.52,55.51,55.54,55.63,55.66,55.68,55.68,55.65,55.62,55.65,55.68,55.63,55.52,55.42,55.36,55.36,55.40,55.45,55.46
57.95,57.98,58.07,58.10,58.27,58.45,58.56,58.56,58.54,58.61,58.75,58.88,58.89,58.93,58.98,59.04,59.04,58.98,58.94,58.93,58.95,58.95,58.95,58.94,58.90,58.90,58.91,58.88,58.79,58.80,58.85,58.88,58.87,58.84,58.77,58.71,58.64,58.55,58.43,58.40,58.42,58.48,58.53,58.53,58.50,58.44,58.36,58.37,58.38,58.40,58.42,58.51,58.57,58.53,58.44,58.43,58.51,58.55,58.56,58.54,58.54,58.51,58.49,58.48,58.44,58.42,58.45,58.46,58.32,57.99,57.79,57.70,57.70,57.70,57.69,57.65,57.60,57.63,57.72,57.78,57.79,57.75,57.64,57.58,57.57,57.62,57.66,57.62,57.59,57.62,57.70,57.78,57.81,57.80,57.75,57.74,57.73,57.73,57.71,57.66,57.72,57.75,57.77,57.85,59.09,60.64,62.00,62.88,63.13,63.14,63.10,63.05,62.95,62.87,62.85,62.81,62.72,62.68,62.62,62.51,62.21,61.40,60.19,58.97,58.02,57.57,57.53,57.43,57.30,57.16,57.14,57.12,57.15,57.19,57.19,57.15,57.14,57.13,57.13,57.13,57.19,57.21,57.12,56.86,56.91,56.94,56.94,56.93,56.92,56.92,56.91,56.89,56.89,56.91,56.88,56.82,56.82,56.68,56.64,56.62,56.57,56.57,56.64,56.62,56.52,56.45,56.42,56.53,56.68,56.72,56.76,56.72,56.51,56.14,55.99,56.01,56.06,56.09,56.08,56.08,56.10,56.12,56.12,56.15,56.16,56.14,56.10,56.10,56.07,56.09,56.13,56.15,56.13,56.16,56.21,56.25,56.27,56.36,56.37,56.33,56.30,56.25,56.13,55.99,55.88,55.87,55.85,55.84,55.86,55.85,55.85,55.84,55.82,55.75,55.72,55.72,55.74,55.76,55.76,55.76,55.74,55.71,55.73,55.76,55.69,55.60,55.55,55.60,55.53,55.48,55.49,55.53,55.59,55.64,55.66,55.61,55.59,55.58,55.59,55.63,55.66,55.66,55.66,55.68,55.69,55.69,55.72,55.75,55.74,55.66,55.55,55.46,55.40,55.42,55.50,55.53
57.94,57.92,57.92,57.91,58.20,58.49,58.59,58.58,58.57,58.60,58.70,58.82,58.86,58.91,58.96,58.99,59.01,58.96,58.93,58.94,58.94,58.91,58.89,58.89,58.89,58.88,58.86,58.83,58.79,58.84,58.89,58.91,58.91,58.86,58.79,58.72,58.64,58.55,58.44,58.42,58.46,58.51,58.54,58.52,58.49,58.46,58.41,58.41,58.42,58.43,58.41,58.46,58.52,58.50,58.43,58.42,58.54,58.60,58.60,58.55,58.50,58.45,58.42,58.42,58.38,58.36,58.38,58.40,58.30,58.00,57.80,57.70,57.70,57.70,57.70,57.67,57.63,57.65,57.73,57.76,57.76,57.72,57.60,57.53,57.51,57.54,57.56,57.51,57.47,57.47,57.54,57.61,57.67,57.71,57.73,57.71,57.70,57.70,57.69,57.66,57.71,57.72,57.74,57.84,58.69,59.87,61.06,62.04,62.66,62.92,63.05,63.07,62.99,62.93,62.90,62.86,62.78,62.73,62.67,62.61,62.49,62.10,61.24,60.08,58.89,57.98,57.65,57.48,57.33,57.16,57.10,57.06,57.06,57.10,57.10,57.07,57.05,57.04,57.04,57.04,57.08,57.12,57.07,56.83,56.85,56.86,56.84,56.84,56.80,56.80,56.79,56.79,56.86,56.84,56.75,56.66,56.68,56.68,56.66,56.63,56.57,56.59,56.68,56.63,56.44,56.29,56.34,56.51,56.69,56.76,56.79,56.64,56.38,56.08,55.99,56.01,56.08,56.14,56.10,56.11,56.14,56.14,56.10,56.12,56.12,56.11,56.09,56.05,56.04,56.10,56.17,56.21,56.19,56.21,56.27,56.34,56.36,56.43,56.46,56.44,56.42,56.38,56.26,56.08,55.90,55.91,55.89,55.88,55.90,55.90,55.90,55.89,55.86,55.79,55.77,55.77,55.78,55.80,55.80,55.79,55.76,55.73,55.75,55.77,55.71,55.63,55.60,55.62,55.56,55.55,55.60,55.60,55.63,55.67,55.68,55.65,55.64,55.64,55.65,55.68,55.69,55.68,55.68,55.69,55.68,55.71,55.74,55.76,55.76,55.70,55.62,55.54,55.49,55.48,55.56,55.60
57.93,57.83,57.69,57.65,58.13,58.55,58.60,58.60,58.58,58.57,58.59,58.72,58.80,58.86,58.90,58.93,58.96,58.95,58.94,58.96,58.91,58.88,58.85,58.85,58.90,58.88,58.81,58.77,58.79,58.89,58.93,58.95,58.94,58.86,58.79,58.70,58.62,58.54,58.47,58.47,58.53,58.60,58.57,58.53,58.51,58.50,58.50,58.50,58.51,58.48,58.42,58.41,58.49,58.52,58.50,58.51,58.61,58.68,58.70,58.66,58.53,58.42,58.37,58.36,58.35,58.33,58.34,58.33,58.25,57.99,57.80,57.71,57.70,57.70,57.70,57.70,57.70,57.70,57.74,57.74,57.72,57.68,57.58,57.52,57.49,57.50,57.49,57.48,57.46,57.42,57.40,57.40,57.48,57.60,57.73,57.71,57.70,57.69,57.70,57.70,57.70,57.70,57.69,57.66,57.85,58.48,59.45,60.65,61.87,62.54,62.92,63.07,63.05,63.02,62.96,62.90,62.84,62.77,62.69,62.61,62.55,62.51,62.15,61.27,60.02,58.60,57.87,57.58,57.41,57.19,57.09,57.07,57.04,57.01,57.00,57.00,56.98,56.97,56.96,56.96,56.94,56.97,57.00,56.89,56.77,56.68,56.63,56.62,56.56,56.55,56.56,56.62,56.81,56.75,56.61,56.48,56.46,56.63,56.61,56.53,56.49,56.52,56.69,56.64,56.35,56.12,56.27,56.49,56.68,56.80,56.79,56.49,56.20,56.10,56.06,56.06,56.12,56.17,56.10,56.14,56.17,56.15,56.05,56.05,56.05,56.06,56.08,56.01,56.02,56.11,56.23,56.29,56.26,56.27,56.34,56.46,56.45,56.45,56.47,56.50,56.49,56.45,56.35,56.18,55.91,55.94,55.92,55.90,55.90,55.90,55.90,55.89,55.86,55.80,55.80,55.80,55.80,55.80,55.80,55.79,55.78,55.76,55.76,55.73,55.69,55.64,55.60,55.59,55.62,55.68,55.75,55.68,55.68,55.68,55.69,55.68,55.70,55.70,55.70,55.70,55.70,55.71,55.72,55.71,55.65,55.69,55.72,55.72,55.72,55.69,55.65,55.61,55.60,55.57,55.62,55.67
57.83,57.68,57.84,58.14,58.48,58.68,58.66,58.65,58.60,58.57,58.57,58.63,58.64,58.66,58.68,58.71,58.83,58.90,58.94,58.94,58.90,58.88,58.85,58.83,58.87,58.88,58.82,58.77,58.82,58.93,58.96,58.96,58.93,58.87,58.80,58.68,58.54,58.40,58.39,58.45,58.52,58.60,58.64,58.63,58.60,58.56,58.52,58.53,58.55,58.55,58.50,58.47,58.49,58.49,58.50,58.55,58.61,58.67,58.71,58.72,58.69,58.66,58.64,58.61,58.55,58.50,58.45,58.40,58.33,58.09,57.87,57.73,57.70,57.70,57.70,57.70,57.70,57.70,57.71,57.71,57.70,57.65,57.55,57.50,57.49,57.49,57.46,57.44,57.42,57.41,57.42,57.41,57.43,57.49,57.59,57.64,57.67,57.69,57.70,57.72,57.71,57.70,57.70,57.71,57.73,57.97,58.47,59.27,60.41,61.34,62.13,62.73,63.07,63.06,63.02,62.95,62.86,62.78,62.73,62.68,62.62,62.56,62.38,61.95,61.16,59.92,58.79,58.00,57.53,57.30,57.13,57.05,57.00,56.98,56.99,56.97,56.95,56.93,56.92,56.89,56.81,56.76,56.74,56.65,56.63,56.63,56.61,56.52,56.57,56.58,56.56,56.56,56.77,56.70,56.61,56.58,56.59,56.71,56.69,56.64,56.62,56.64,56.77,56.72,56.44,56.23,56.27,56.31,56.39,56.62,56.75,56.51,56.23,56.10,56.12,56.13,56.16,56.18,56.11,56.20,56.21,56.14,56.01,56.02,56.02,56.05,56.10,56.10,56.14,56.12,56.12,56.25,56.24,56.27,56.34,56.43,56.43,56.40,56.43,56.50,56.48,56.43,56.36,56.20,55.92,55.96,55.93,55.90,55.90,55.89,55.87,55.87,55.88,55.85,55.85,55.82,55.80,55.82,55.85,55.85,55.81,55.77,55.74,55.76,55.74,55.71,55.67,55.70,55.71,55.73,55.74,55.73,55.70,55.69,55.70,55.69,55.70,55.70,55.69,55.68,55.65,55.65,55.65,55.64,55.62,55.61,55.51,55.39,55.29,55.32,55.26,55.25,55.36,55.49,55.58,55.65
57.78,57.74,58.15,58.50,58.69,58.74,58.69,58.67,58.63,58.60,58.60,58.59,58.56,58.55,58.56,58.59,58.70,58.79,58.84,58.85,58.85,58.85,58.85,58.84,58.84,58.86,58.79,58.76,58.83,58.94,58.96,58.95,58.91,58.88,58.81,58.66,58.47,58.31,58.34,58.41,58.48,58.57,58.66,58.69,58.68,58.63,58.57,58.58,58.60,58.59,58.55,58.52,58.49,58.49,58.52,58.58,58.62,58.66,58.70,58.72,58.77,58.80,58.80,58.76,58.69,58.65,58.59,58.51,58.43,58.18,57.92,57.75,57.70,57.70,57.70,57.70,57.70,57.70,57.70,57.70,57.68,57.64,57.53,57.49,57.49,57.49,57.46,57.42,57.41,57.42,57.43,57.43,57.42,57.43,57.49,57.56,57.63,57.69,57.72,57.74,57.73,57.72,57.71,57.72,57.64,57.65,57.82,58.25,59.11,60.10,61.13,62.10,62.80,62.99,63.05,63.00,62.90,62.82,62.78,62.74,62.69,62.60,62.52,62.38,61.98,61.08,59.88,58.74,57.91,57.47,57.22,57.11,57.03,56.97,56.97,56.93,56.90,56.87,56.83,56.75,56.64,56.59,56.60,56.53,56.61,56.69,56.69,56.56,56.66,56.68,56.64,56.60,56.78,56.73,56.69,56.70,56.72,56.77,56.76,56.72,56.73,56.74,56.81,56.73,56.50,56.32,56.30,56.22,56.18,56.37,56.64,56.49,56.26,56.16,56.20,56.19,56.20,56.21,56.14,56.26,56.25,56.14,56.01,56.00,56.02,56.05,56.10,56.22,56.31,56.27,56.22,56.32,56.30,56.22,56.24,56.43,56.38,56.28,56.27,56.34,56.38,56.37,56.31,56.16,55.91,55.93,55.90,55.89,55.92,55.90,55.86,55.87,55.90,55.88,55.87,55.84,55.83,55.85,55.90,55.92,55.87,55.80,55.76,55.80,55.79,55.76,55.75,55.79,55.78,55.74,55.71,55.73,55.68,55.66,55.67,55.72,55.70,55.68,55.66,55.63,55.61,55.61,55.61,55.59,55.56,55.50,55.40,55.29,55.19,55.20,55.12,55.12,55.24,55.37,55.44,55.52
57.82,58.08,58.67,58.72,58.73,58.71,58.66,58.65,58.66,58.68,58.69,58.63,58.58,58.55,58.56,58.61,58.60,58.59,58.61,58.68,58.72,58.78,58.84,58.88,58.82,58.80,58.74,58.73,58.80,58.89,58.91,58.90,58.88,58.90,58.84,58.66,58.44,58.27,58.32,58.35,58.40,58.50,58.63,58.72,58.75,58.73,58.67,58.66,58.64,58.61,58.57,58.53,58.51,58.53,58.58,58.62,58.63,58.65,58.66,58.64,58.74,58.81,58.81,58.77,58.77,58.78,58.75,58.67,58.56,58.27,57.97,57.76,57.70,57.70,57.70,57.70,57.70,57.70,57.70,57.70,57.68,57.64,57.53,57.48,57.48,57.50,57.48,57.44,57.43,57.44,57.44,57.45,57.44,57.42,57.42,57.47,57.58,57.68,57.75,57.78,57.78,57.75,57.71,57.67,57.60,57.56,57.59,57.71,58.03,58.79,59.85,61.05,62.17,62.77,63.03,63.06,62.97,62.89,62.83,62.79,62.75,62.64,62.55,62.49,62.37,62.05,61.21,59.92,58.65,57.72,57.41,57.28,57.14,57.00,56.94,56.87,56.84,56.79,56.68,56.49,56.44,56.50,56.60,56.55,56.73,56.88,56.90,56.76,56.83,56.86,56.82,56.76,56.86,56.86,56.86,56.86,56.87,56.82,56.79,56.78,56.79,56.85,56.79,56.65,56.49,56.39,56.38,56.24,56.07,56.00,56.42,56.41,56.30,56.27,56.28,56.23,56.23,56.27,56.20,56.33,56.28,56.16,56.07,56.02,56.05,56.07,56.09,56.37,56.57,56.64,56.61,56.56,56.48,56.09,56.01,56.45,56.29,56.06,55.93,55.96,56.16,56.25,56.19,56.04,55.89,55.83,55.83,55.88,55.96,55.93,55.88,55.89,55.91,55.87,55.87,55.88,55.88,55.90,55.95,56.01,55.97,55.86,55.84,55.86,55.82,55.80,55.82,55.85,55.80,55.70,55.63,55.66,55.60,55.57,55.61,55.76,55.71,55.65,55.59,55.55,55.59,55.60,55.59,55.56,55.46,55.35,55.41,55.51,55.50,55.41,55.33,55.29,55.27,55.19,55.14,55.25
58.01,58.39,58.72,58.71,58.69,58.67,58.65,58.63,58.65,58.69,58.71,58.66,58.64,58.66,58.73,58.85,58.78,58.64,58.56,58.55,58.55,58.58,58.63,58.69,58.69,58.70,58.66,58.65,58.73,58.80,58.83,58.84,58.84,58.86,58.77,58.58,58.39,58.30,58.35,58.34,58.36,58.43,58.57,58.66,58.72,58.73,58.68,58.67,58.65,58.62,58.59,58.55,58.51,58.53,58.58,58.64,58.67,58.70,58.72,58.70,58.72,58.73,58.72,58.70,58.72,58.77,58.78,58.75,58.69,58.39,58.05,57.79,57.70,57.70,57.72,57.72,57.72,57.70,57.70,57.69,57.65,57.59,57.52,57.49,57.49,57.50,57.49,57.47,57.45,57.44,57.45,57.45,57.43,57.41,57.40,57.42,57.48,57.58,57.70,57.81,57.81,57.75,57.66,57.59,57.55,57.52,57.54,57.59,57.72,58.07,58.73,59.69,60.89,61.87,62.54,62.90,62.97,62.91,62.85,62.81,62.78,62.73,62.62,62.55,62.47,62.32,61.98,61.08,59.91,58.70,57.83,57.51,57.33,57.15,56.86,56.76,56.81,56.89,56.88,56.76,56.73,56.76,56.80,56.75,56.87,56.96,56.97,56.89,56.89,56.86,56.83,56.79,56.80,56.85,56.89,56.89,56.89,56.81,56.79,56.81,56.86,56.93,56.84,56.67,56.48,56.36,56.38,56.33,56.23,56.18,56.39,56.35,56.27,56.29,56.32,56.24,56.21,56.21,56.16,56.16,56.15,56.12,56.09,56.02,56.03,56.05,56.13,56.53,56.66,56.70,56.68,56.64,56.56,56.32,56.25,56.48,56.39,56.20,56.08,56.08,56.20,56.24,56.20,56.11,56.00,55.85,55.83,55.83,55.81,55.71,55.66,55.69,55.74,55.75,55.77,55.82,55.87,55.90,56.06,56.05,55.98,55.92,55.94,55.89,55.85,55.83,55.88,55.88,55.81,55.68,55.54,55.57,55.52,55.48,55.51,55.71,55.65,55.54,55.43,55.37,55.37,55.43,55.50,55.53,55.46,55.42,55.47,55.54,55.53,55.45,55.42,55.41,55.38,55.29,55.26,55.33
58.25,58.63,58.69,58.66,58.65,58.65,58.67,58.65,58.67,58.70,58.71,58.69,58.69,58.77,58.91,59.07,58.97,58.77,58.60,58.50,58.45,58.42,58.45,58.51,58.54,58.58,58.57,58.57,58.65,58.71,58.73,58.76,58.78,58.78,58.67,58.49,58.35,58.34,58.38,58.35,58.33,58.36,58.49,58.57,58.64,58.67,58.65,58.65,58.64,58.62,58.59,58.56,58.51,58.51,58.56,58.62,58.67,58.72,58.75,58.75,58.69,58.64,58.61,58.59,58.64,58.72,58.78,58.79,58.78,58.49,58.12,57.83,57.71,57.71,57.73,57.74,57.73,57.70,57.70,57.67,57.62,57.56,57.52,57.50,57.50,57.50,57.49,57.48,57.46,57.45,57.47,57.45,57.42,57.40,57.40,57.40,57.41,57.49,57.65,57.81,57.81,57.72,57.61,57.51,57.49,57.48,57.51,57.56,57.58,57.59,57.85,58.46,59.53,60.74,61.79,62.52,62.86,62.90,62.87,62.83,62.81,62.79,62.69,62.60,62.52,62.44,62.47,62.03,61.13,59.87,58.53,57.89,57.56,57.32,56.88,56.77,56.86,57.01,57.10,57.06,57.04,57.02,57.00,56.95,56.99,57.01,57.00,56.98,56.91,56.83,56.79,56.79,56.74,56.82,56.88,56.89,56.85,56.78,56.77,56.83,56.94,56.98,56.87,56.69,56.48,56.32,56.37,56.40,56.39,56.39,56.39,56.29,56.23,56.27,56.32,56.24,56.17,56.13,56.09,56.00,56.03,56.08,56.09,56.02,56.00,56.03,56.17,56.65,56.70,56.70,56.68,56.66,56.60,56.55,56.52,56.50,56.48,56.35,56.27,56.25,56.26,56.24,56.23,56.20,56.11,55.94,55.89,55.85,55.75,55.61,55.58,55.61,55.68,55.73,55.77,55.84,55.89,55.90,56.12,56.06,55.98,55.96,56.02,55.94,55.89,55.90,55.94,55.90,55.84,55.68,55.49,55.52,55.49,55.44,55.46,55.66,55.61,55.48,55.35,55.28,55.23,55.33,55.46,55.55,55.51,55.53,55.55,55.55,55.52,55.46,55.47,55.48,55.48,55.41,55.41,55.44
58.54,58.67,58.68,58.63,58.63,58.69,58.78,58.81,58.80,58.76,58.70,58.68,58.70,58.85,59.01,59.10,59.05,58.94,58.82,58.71,58.59,58.50,58.47,58.46,58.44,58.45,58.46,58.50,58.57,58.62,58.64,58.64,58.64,58.63,58.52,58.41,58.35,58.39,58.40,58.37,58.34,58.32,58.38,58.45,58.49,58.51,58.53,58.59,58.59,58.57,58.55,58.55,58.50,58.47,58.48,58.49,58.51,58.57,58.63,58.66,58.59,58.57,58.52,58.46,58.50,58.65,58.74,58.76,58.75,58.52,58.17,57.87,57.74,57.73,57.72,57.71,57.71,57.70,57.69,57.67,57.63,57.59,57.55,57.52,57.51,57.50,57.47,57.43,57.44,57.46,57.49,57.45,57.42,57.40,57.40,57.40,57.41,57.49,57.64,57.73,57.71,57.63,57.52,57.43,57.41,57.41,57.44,57.50,57.53,57.53,57.62,57.86,58.31,59.30,60.46,61.57,62.41,62.80,62.90,62.88,62.83,62.77,62.71,62.66,62.60,62.52,62.49,62.33,61.93,61.18,59.96,58.71,57.87,57.44,57.27,57.17,57.11,57.11,57.17,57.16,57.13,57.08,57.03,57.03,57.05,57.03,56.99,56.93,56.85,56.79,56.77,56.79,56.76,56.78,56.82,56.84,56.73,56.68,56.69,56.79,56.98,56.90,56.81,56.67,56.48,56.32,56.37,56.39,56.36,56.34,56.34,56.27,56.21,56.19,56.20,56.18,56.12,56.05,55.98,56.04,56.06,56.07,56.09,56.02,56.00,56.05,56.21,56.65,56.70,56.68,56.65,56.62,56.57,56.55,56.53,56.49,56.45,56.33,56.28,56.29,56.23,56.24,56.24,56.21,56.15,56.13,56.12,56.11,56.10,56.08,56.08,56.10,56.10,56.06,56.12,56.14,56.07,55.93,56.02,56.02,56.00,55.98,55.98,56.00,56.02,56.03,56.01,55.97,55.89,55.74,55.57,55.60,55.59,55.56,55.56,55.67,55.68,55.63,55.58,55.55,55.47,55.52,55.63,55.73,55.68,55.67,55.64,55.58,55.52,55.51,55.48,55.48,55.47,55.41,55.42,55.45
