78.77,78.71,78.67,78.53,78.42,78.35,78.31,78.24,78.27,78.29,78.28,78.25,78.20,78.11,78.06,78.09,78.12,78.11,78.08,78.04,77.97,77.94,77.90,77.85,77.79,77.80,77.79,77.79,77.84,77.86,77.82,77.80,77.80,77.74,77.70,77.64,77.62,77.66,77.80,77.81,77.79,77.79,77.76,77.71,77.65,77.56,77.42,77.42,77.45,77.44,77.39,77.36,77.26,77.19,77.15,77.09,77.03,77.03,77.05,77.04,77.00,76.96,76.95,76.96,76.93,76.91,76.89,76.89,76.90,76.91,76.91,76.91,76.93,76.90,76.89,76.91,76.94,76.94,76.93,76.91,76.90,76.92,76.93,76.99,77.04,77.05,77.04,77.03,77.01,76.99,76.95,76.96,76.93,76.89,76.84,76.82,76.80,76.80,76.83,76.81,76.76,76.73,76.73,76.73,76.77,76.75,76.73,76.72,76.71,76.72,76.71,76.68,76.67,76.73,76.73,76.71,76.66,76.59,76.52,76.47,76.44,76.45,76.54,76.58,76.57,76.53,76.52,76.52,76.49,76.45,76.44,76.43,76.44,76.47,76.50,76.47,76.39,76.29,76.19,76.13,76.08,76.08,76.11,76.18,76.22,76.23,76.23,76.24,76.26,76.28,76.30,76.31,76.29,76.27,76.23,76.14,76.00,75.96,75.95,75.96,75.95,75.90,75.77,75.61,75.42,75.23,75.04,74.88,74.77,74.71,74.73,74.76,74.78,74.82,75.12,75.29,75.22,74.99,74.79,74.63,74.51,74.47,74.50,74.56,74.55,74.51,74.46,74.41,74.38,74.36,74.36,74.38,74.37,74.39,74.43,74.51,74.54,74.53,74.47,74.41,74.47,74.64,74.73,74.76,74.77,74.82,74.82,74.79,74.74,74.71,74.70,74.73,74.77,74.80,74.80,74.82,74.82,74.81,74.89,74.95,75.01,75.04,74.99,74.89,74.80,74.72,74.65,74.37,74.19,74.09,74.06,74.13,74.26,74.28,74.19,74.04,73.92,73.89,73.88,73.86,73.85,73.80,73.75,73.69,73.61,73.52,73.52,73.61,73.76,73.79,73.83,73.86,73.87,73.87,73.89,73.82
78.55,78.47,78.40,78.34,78.28,78.23,78.20,78.09,78.10,78.12,78.13,78.12,78.03,77.96,77.93,77.94,77.95,77.94,77.91,77.87,77.84,77.83,77.79,77.74,77.72,77.72,77.72,77.72,77.73,77.72,77.67,77.64,77.62,77.54,77.58,77.56,77.52,77.52,77.54,77.58,77.62,77.61,77.54,77.52,77.51,77.49,77.41,77.47,77.50,77.47,77.41,77.41,77.34,77.30,77.26,77.11,76.96,76.95,77.02,77.10,77.09,77.04,77.00,76.98,76.90,76.83,76.81,76.86,77.00,77.00,77.00,77.00,77.00,76.99,76.94,76.95,77.00,77.01,77.07,77.05,77.04,77.11,77.13,77.18,77.22,77.23,77.28,77.23,77.17,77.13,77.18,77.10,77.03,76.97,76.91,76.90,76.89,76.89,76.89,76.87,76.82,76.79,76.77,76.73,76.78,76.80,76.80,76.78,76.75,76.77,76.75,76.72,76.73,76.79,76.79,76.74,76.66,76.58,76.50,76.44,76.41,76.44,76.52,76.58,76.60,76.57,76.56,76.57,76.57,76.52,76.50,76.47,76.48,76.51,76.51,76.47,76.40,76.31,76.24,76.15,76.06,76.02,76.04,76.09,76.17,76.24,76.28,76.30,76.30,76.30,76.31,76.33,76.34,76.31,76.25,76.16,76.05,76.02,76.02,76.03,76.01,75.94,75.83,75.70,75.55,75.36,75.10,74.91,74.82,74.83,74.82,74.81,74.79,74.80,75.05,75.22,75.19,74.99,74.78,74.62,74.48,74.42,74.45,74.54,74.54,74.49,74.42,74.37,74.35,74.36,74.38,74.40,74.35,74.34,74.37,74.46,74.54,74.55,74.47,74.38,74.43,74.61,74.70,74.73,74.74,74.78,74.79,74.78,74.75,74.71,74.70,74.72,74.75,74.79,74.80,74.82,74.82,74.79,74.85,74.93,75.00,75.03,75.01,74.95,74.88,74.80,74.71,74.40,74.18,74.06,74.03,74.11,74.25,74.27,74.19,74.04,73.89,73.81,73.78,73.76,73.82,73.82,73.78,73.71,73.64,73.62,73.60,73.63,73.76,73.80,73.85,73.89,73.90,73.86,73.89,73.82
78.37,78.31,78.28,78.22,78.18,78.15,78.14,78.10,78.08,78.07,78.07,78.11,78.08,78.03,77.99,77.95,77.98,77.95,77.91,77.89,77.89,77.88,77.86,77.85,77.85,77.93,77.96,77.95,77.90,77.81,77.77,77.78,77.81,77.79,77.76,77.74,77.73,77.77,77.78,77.86,77.92,77.90,77.76,77.74,77.73,77.69,77.54,77.55,77.55,77.57,77.60,77.61,77.54,77.47,77.41,77.31,77.12,76.99,76.97,77.07,77.09,77.05,77.01,76.99,76.95,76.86,76.84,76.89,76.94,76.98,76.99,77.00,77.01,77.05,77.02,77.03,77.07,77.03,77.06,77.06,77.07,77.18,77.23,77.27,77.28,77.27,77.28,77.28,77.23,77.17,77.18,77.11,77.07,77.03,76.99,76.96,76.87,76.84,76.86,76.83,76.81,76.80,76.79,76.76,76.76,76.82,76.85,76.82,76.81,76.81,76.80,76.77,76.76,76.81,76.78,76.70,76.62,76.55,76.46,76.40,76.38,76.42,76.53,76.60,76.62,76.59,76.59,76.61,76.61,76.57,76.56,76.55,76.55,76.56,76.54,76.47,76.36,76.26,76.20,76.14,76.08,76.04,76.03,76.06,76.12,76.19,76.25,76.27,76.27,76.27,76.27,76.28,76.28,76.25,76.19,76.11,76.04,76.01,76.01,76.02,76.02,75.95,75.85,75.71,75.53,75.32,75.08,74.89,74.77,74.77,74.79,74.81,74.82,74.82,74.93,75.07,75.08,74.95,74.74,74.62,74.52,74.45,74.45,74.54,74.52,74.45,74.36,74.35,74.37,74.37,74.37,74.36,74.33,74.32,74.34,74.42,74.51,74.52,74.46,74.39,74.45,74.60,74.70,74.74,74.76,74.76,74.76,74.75,74.74,74.71,74.70,74.71,74.73,74.78,74.79,74.81,74.80,74.78,74.82,74.91,74.99,75.04,75.02,74.95,74.88,74.80,74.71,74.40,74.19,74.07,74.03,74.13,74.22,74.23,74.15,74.03,73.87,73.82,73.82,73.82,73.85,73.86,73.84,73.81,73.78,73.78,73.76,73.77,73.83,73.89,73.90,73.92,73.96,74.05,74.13,74.02
78.36,78.32,78.31,78.25,78.20,78.15,78.10,78.10,78.11,78.12,78.14,78.19,78.16,78.13,78.10,78.07,78.07,78.00,77.95,77.93,77.97,77.91,77.91,77.95,77.98,78.08,78.11,78.08,78.02,77.91,77.88,77.91,77.97,77.95,77.91,77.89,77.90,77.94,77.94,78.01,78.07,78.08,77.95,77.93,77.92,77.86,77.66,77.60,77.58,77.62,77.70,77.75,77.67,77.57,77.49,77.42,77.23,77.02,76.92,77.02,77.08,77.06,77.03,77.00,76.97,76.90,76.89,76.92,76.92,76.95,76.98,77.00,77.02,77.08,77.08,77.10,77.12,77.05,77.05,77.05,77.10,77.21,77.28,77.32,77.31,77.28,77.25,77.28,77.26,77.21,77.18,77.13,77.11,77.09,77.05,76.99,76.86,76.81,76.82,76.80,76.80,76.80,76.79,76.77,76.75,76.82,76.86,76.84,76.84,76.84,76.84,76.82,76.77,76.79,76.74,76.64,76.55,76.50,76.43,76.38,76.36,76.38,76.51,76.59,76.62,76.60,76.61,76.61,76.60,76.59,76.60,76.61,76.61,76.60,76.56,76.47,76.35,76.24,76.16,76.10,76.03,75.99,75.97,76.02,76.09,76.15,76.20,76.22,76.22,76.22,76.22,76.23,76.23,76.21,76.15,76.07,76.00,75.98,75.99,76.01,76.02,75.97,75.87,75.72,75.52,75.30,75.06,74.87,74.76,74.75,74.79,74.82,74.85,74.85,74.87,74.96,74.99,74.91,74.71,74.62,74.53,74.46,74.45,74.52,74.49,74.41,74.32,74.33,74.36,74.36,74.34,74.33,74.31,74.30,74.31,74.38,74.47,74.50,74.46,74.40,74.45,74.59,74.69,74.75,74.78,74.74,74.72,74.70,74.70,74.70,74.71,74.72,74.74,74.80,74.82,74.84,74.84,74.84,74.86,74.93,74.99,75.01,74.97,74.90,74.83,74.77,74.71,74.46,74.29,74.17,74.11,74.16,74.24,74.25,74.20,74.11,73.99,73.91,73.88,73.87,73.88,73.88,73.88,73.87,73.87,73.87,73.86,73.86,73.88,73.93,73.93,73.96,74.04,74.27,74.36,74.22
78.56,78.54,78.53,78.45,78.36,78.25,78.12,78.09,78.22,78.31,78.34,78.36,78.26,78.25,78.30,78.32,78.23,78.11,78.03,78.01,78.09,77.93,77.92,78.04,78.11,78.14,78.13,78.10,78.06,78.03,78.00,78.02,78.07,78.03,78.02,78.02,78.01,77.99,77.99,78.00,78.04,78.09,78.11,78.09,78.08,78.00,77.74,77.62,77.58,77.62,77.71,77.81,77.74,77.61,77.48,77.42,77.28,77.05,76.88,76.92,77.04,77.08,77.06,76.99,76.96,76.94,76.94,76.95,76.95,76.92,76.96,77.00,77.02,77.09,77.13,77.16,77.17,77.09,77.04,77.04,77.11,77.21,77.29,77.32,77.30,77.23,77.18,77.23,77.25,77.23,77.19,77.16,77.15,77.14,77.11,76.99,76.87,76.79,76.77,76.80,76.80,76.80,76.78,76.73,76.73,76.80,76.84,76.84,76.84,76.85,76.86,76.85,76.78,76.74,76.65,76.55,76.45,76.44,76.41,76.37,76.33,76.30,76.43,76.54,76.60,76.60,76.59,76.56,76.55,76.56,76.60,76.63,76.65,76.64,76.57,76.48,76.37,76.26,76.13,76.02,75.92,75.86,75.86,75.97,76.07,76.12,76.14,76.14,76.14,76.14,76.15,76.17,76.20,76.20,76.14,76.04,75.93,75.92,75.94,75.98,76.04,76.00,75.88,75.72,75.52,75.28,75.05,74.87,74.79,74.79,74.82,74.86,74.88,74.88,74.88,74.93,74.94,74.87,74.70,74.60,74.51,74.45,74.46,74.47,74.42,74.35,74.30,74.30,74.31,74.32,74.31,74.30,74.30,74.28,74.28,74.35,74.45,74.49,74.47,74.42,74.42,74.55,74.68,74.77,74.79,74.74,74.68,74.64,74.63,74.67,74.73,74.77,74.80,74.85,74.87,74.92,74.95,74.97,74.97,74.99,74.97,74.93,74.86,74.78,74.73,74.71,74.70,74.61,74.48,74.37,74.28,74.22,74.30,74.36,74.36,74.29,74.26,74.10,73.94,73.90,73.90,73.90,73.90,73.90,73.90,73.90,73.90,73.90,73.90,73.90,73.95,74.02,74.14,74.53,74.58,74.42
78.75,78.73,78.65,78.54,78.41,78.26,78.11,78.11,78.23,78.31,78.34,78.38,78.28,78.28,78.31,78.30,78.23,78.15,78.08,78.06,78.10,77.90,77.93,78.08,78.14,78.15,78.13,78.09,78.04,78.06,78.04,78.06,78.09,78.04,78.06,78.07,78.05,78.01,78.00,78.00,78.03,78.10,78.16,78.12,78.09,78.01,77.81,77.74,77.72,77.73,77.78,77.86,77.82,77.67,77.47,77.32,77.23,77.00,76.82,76.90,76.97,77.01,77.00,76.96,76.98,76.98,76.98,76.98,76.98,76.95,76.98,77.02,77.05,77.10,77.18,77.21,77.17,77.10,77.06,77.08,77.15,77.24,77.23,77.23,77.22,77.20,77.15,77.21,77.26,77.28,77.27,77.20,77.18,77.16,77.10,76.98,76.86,76.79,76.77,76.79,76.77,76.75,76.74,76.70,76.70,76.79,76.84,76.82,76.82,76.82,76.83,76.81,76.74,76.71,76.66,76.59,76.50,76.45,76.41,76.35,76.30,76.28,76.41,76.53,76.60,76.60,76.57,76.51,76.49,76.51,76.54,76.61,76.65,76.65,76.55,76.43,76.31,76.20,76.09,75.96,75.81,75.71,75.70,75.81,75.94,76.02,76.07,76.08,76.11,76.11,76.12,76.13,76.14,76.10,75.99,75.87,75.80,75.85,75.92,76.01,76.10,76.11,76.01,75.84,75.62,75.37,75.09,74.89,74.80,74.82,74.86,74.89,74.90,74.89,74.89,74.91,74.90,74.84,74.70,74.59,74.48,74.41,74.40,74.42,74.40,74.36,74.32,74.30,74.30,74.30,74.30,74.29,74.27,74.25,74.27,74.37,74.47,74.47,74.43,74.38,74.41,74.55,74.72,74.84,74.87,74.81,74.76,74.73,74.72,74.75,74.78,74.83,74.89,74.97,74.97,74.98,75.00,75.02,74.93,74.86,74.83,74.81,74.77,74.70,74.66,74.65,74.64,74.62,74.52,74.44,74.39,74.27,74.30,74.37,74.42,74.38,74.25,74.09,73.97,73.94,73.92,73.92,73.92,73.90,73.88,73.88,73.87,73.86,73.85,73.87,73.96,74.05,74.18,74.60,74.61,74.43
78.91,78.87,78.73,78.57,78.42,78.26,78.12,78.13,78.22,78.29,78.32,78.37,78.28,78.28,78.29,78.25,78.21,78.14,78.08,78.05,78.05,77.87,77.93,78.09,78.12,78.15,78.13,78.07,78.01,78.07,78.06,78.07,78.09,78.05,78.08,78.10,78.08,78.01,78.00,78.00,78.03,78.10,78.18,78.14,78.08,78.00,77.89,77.86,77.86,77.85,77.85,77.88,77.84,77.68,77.44,77.25,77.18,76.94,76.77,76.90,76.92,76.94,76.94,76.93,76.98,77.00,77.00,77.00,77.01,76.98,76.99,77.02,77.09,77.12,77.21,77.22,77.16,77.11,77.10,77.14,77.20,77.26,77.18,77.15,77.15,77.17,77.12,77.18,77.25,77.31,77.31,77.21,77.18,77.15,77.09,76.98,76.86,76.79,76.77,76.78,76.74,76.73,76.72,76.68,76.68,76.77,76.82,76.78,76.78,76.78,76.78,76.76,76.71,76.70,76.68,76.62,76.54,76.48,76.42,76.34,76.27,76.25,76.40,76.52,76.58,76.57,76.54,76.49,76.46,76.47,76.49,76.58,76.63,76.61,76.52,76.40,76.28,76.17,76.09,75.96,75.78,75.65,75.62,75.71,75.82,75.90,75.96,76.00,76.07,76.08,76.08,76.08,76.08,76.00,75.83,75.66,75.61,75.72,75.86,76.01,76.14,76.18,76.11,75.96,75.73,75.46,75.16,74.94,74.83,74.86,74.89,74.90,74.90,74.89,74.89,74.89,74.87,74.82,74.71,74.60,74.47,74.38,74.36,74.40,74.41,74.39,74.34,74.31,74.29,74.28,74.28,74.28,74.25,74.23,74.28,74.40,74.49,74.45,74.39,74.35,74.41,74.55,74.74,74.90,74.94,74.88,74.85,74.83,74.83,74.84,74.84,74.88,74.96,75.05,75.03,75.02,75.03,75.05,74.86,74.72,74.68,74.69,74.69,74.64,74.62,74.61,74.61,74.60,74.54,74.50,74.48,74.33,74.32,74.38,74.45,74.44,74.22,74.07,74.00,73.97,73.93,73.95,73.94,73.89,73.83,73.84,73.84,73.82,73.80,73.84,73.96,74.07,74.19,74.60,74.58,74.39
78.97,78.92,78.71,78.54,78.37,78.25,78.17,78.14,78.22,78.30,78.35,78.34,78.30,78.26,78.24,78.21,78.16,78.03,77.92,77.89,77.89,77.82,77.92,78.06,78.05,78.11,78.11,78.05,77.96,78.02,78.03,78.05,78.09,78.08,78.09,78.13,78.12,78.01,78.00,78.00,78.03,78.10,78.13,78.15,78.10,78.00,77.96,77.96,77.96,77.93,77.88,77.84,77.69,77.54,77.40,77.28,77.16,76.91,76.76,76.90,76.91,76.91,76.91,76.91,76.93,76.98,77.00,77.02,77.07,77.01,76.96,76.99,77.11,77.17,77.20,77.17,77.12,77.11,77.16,77.23,77.27,77.28,77.20,77.14,77.11,77.12,77.11,77.14,77.21,77.28,77.22,77.14,77.12,77.11,77.08,76.99,76.90,76.80,76.74,76.78,76.75,76.78,76.79,76.70,76.69,76.72,76.73,76.71,76.71,76.71,76.71,76.71,76.70,76.70,76.67,76.60,76.51,76.49,76.45,76.36,76.24,76.22,76.40,76.49,76.49,76.47,76.51,76.50,76.49,76.49,76.52,76.57,76.56,76.51,76.45,76.43,76.36,76.27,76.21,76.13,75.95,75.83,75.81,75.82,75.77,75.75,75.76,75.83,75.98,76.02,76.01,76.01,76.02,75.91,75.70,75.46,75.32,75.40,75.62,75.89,76.10,76.11,76.10,76.01,75.82,75.55,75.26,75.04,74.92,74.91,74.91,74.90,74.89,74.87,74.86,74.87,74.86,74.81,74.72,74.62,74.50,74.40,74.38,74.45,74.47,74.43,74.37,74.31,74.27,74.26,74.26,74.26,74.24,74.25,74.33,74.44,74.50,74.45,74.38,74.34,74.37,74.51,74.70,74.87,74.96,74.94,74.92,74.91,74.91,74.91,74.91,74.93,74.96,75.03,75.02,75.03,75.05,75.05,74.79,74.63,74.57,74.59,74.63,74.65,74.67,74.66,74.65,74.62,74.60,74.58,74.53,74.41,74.39,74.41,74.45,74.45,74.28,74.14,74.03,73.97,73.95,73.95,73.94,73.87,73.68,73.75,73.81,73.83,73.81,73.81,73.93,74.06,74.18,74.52,74.47,74.30
78.99,78.91,78.64,78.46,78.32,78.24,78.22,78.18,78.28,78.36,78.37,78.33,78.20,78.11,78.07,78.10,78.05,77.95,77.86,77.80,77.81,77.80,77.91,78.05,78.03,78.08,78.10,78.07,78.01,78.07,78.09,78.11,78.14,78.17,78.16,78.15,78.11,77.97,78.02,78.03,78.06,78.10,78.10,78.13,78.10,78.03,78.00,78.00,77.99,77.96,77.88,77.75,77.55,77.45,77.41,77.30,77.15,76.90,76.74,76.86,76.89,76.92,76.93,76.91,76.91,76.95,76.98,77.00,77.04,76.97,76.93,76.97,77.11,77.18,77.17,77.14,77.11,77.11,77.19,77.25,77.29,77.27,77.22,77.15,77.10,77.07,77.09,77.16,77.25,77.29,77.22,77.13,77.09,77.06,77.04,76.97,76.89,76.81,76.76,76.79,76.77,76.77,76.76,76.70,76.71,76.69,76.67,76.64,76.65,76.65,76.65,76.67,76.71,76.69,76.64,76.57,76.49,76.50,76.43,76.31,76.19,76.17,76.31,76.40,76.43,76.45,76.50,76.47,76.45,76.47,76.56,76.61,76.60,76.52,76.40,76.40,76.35,76.29,76.25,76.19,76.04,75.95,75.92,75.88,75.79,75.72,75.70,75.77,75.94,75.98,75.98,75.98,76.00,75.89,75.68,75.43,75.26,75.29,75.51,75.80,76.04,76.05,76.09,76.04,75.87,75.56,75.24,75.02,74.93,74.96,74.93,74.91,74.89,74.87,74.85,74.84,74.80,74.75,74.68,74.60,74.51,74.44,74.43,74.49,74.51,74.48,74.43,74.38,74.34,74.32,74.31,74.30,74.30,74.33,74.41,74.50,74.52,74.47,74.40,74.35,74.38,74.52,74.68,74.83,74.94,74.97,74.97,74.97,74.97,74.97,74.97,74.97,74.97,74.99,74.99,74.99,75.02,75.02,74.75,74.61,74.56,74.58,74.63,74.68,74.71,74.72,74.69,74.65,74.65,74.63,74.58,74.48,74.43,74.41,74.41,74.42,74.31,74.21,74.13,74.05,73.99,73.98,73.94,73.85,73.67,73.73,73.82,73.86,73.82,73.82,73.93,74.04,74.15,74.38,74.33,74.19
78.96,78.87,78.53,78.37,78.26,78.24,78.27,78.23,78.36,78.43,78.40,78.33,78.07,77.90,77.86,77.95,77.92,77.90,77.84,77.74,77.78,77.79,77.90,78.03,78.02,78.08,78.10,78.10,78.11,78.17,78.19,78.20,78.21,78.27,78.24,78.17,78.07,77.93,78.03,78.06,78.08,78.10,78.10,78.10,78.09,78.07,78.01,78.00,77.99,77.95,77.86,77.66,77.44,77.39,77.45,77.31,77.16,76.90,76.72,76.79,76.88,76.96,76.97,76.92,76.92,76.92,76.95,76.97,76.96,76.91,76.91,76.96,77.09,77.17,77.15,77.12,77.12,77.11,77.20,77.25,77.26,77.24,77.21,77.16,77.08,77.00,77.06,77.21,77.30,77.31,77.25,77.15,77.07,77.03,77.01,76.93,76.87,76.83,76.80,76.80,76.78,76.73,76.68,76.71,76.72,76.68,76.62,76.58,76.59,76.58,76.60,76.65,76.72,76.68,76.60,76.52,76.48,76.48,76.38,76.24,76.13,76.10,76.19,76.29,76.38,76.46,76.49,76.42,76.38,76.43,76.61,76.69,76.68,76.58,76.36,76.34,76.30,76.26,76.26,76.20,76.09,76.02,75.98,75.92,75.83,75.74,75.70,75.77,75.92,75.95,75.96,75.97,76.00,75.90,75.72,75.49,75.32,75.29,75.47,75.73,75.95,75.99,76.06,76.06,75.89,75.52,75.15,74.94,74.89,75.00,74.96,74.92,74.90,74.89,74.85,74.79,74.73,74.68,74.62,74.56,74.50,74.47,74.48,74.52,74.54,74.54,74.51,74.47,74.44,74.42,74.40,74.38,74.39,74.44,74.50,74.56,74.54,74.49,74.42,74.37,74.40,74.55,74.67,74.78,74.90,74.98,75.00,75.00,75.00,75.00,74.99,74.99,74.98,74.96,74.94,74.93,74.95,74.96,74.73,74.62,74.58,74.61,74.66,74.70,74.74,74.76,74.72,74.69,74.68,74.67,74.62,74.54,74.46,74.39,74.36,74.38,74.32,74.28,74.24,74.16,74.05,74.01,73.94,73.84,73.73,73.77,73.85,73.89,73.83,73.85,73.94,74.02,74.10,74.22,74.18,74.07
78.59,78.53,78.40,78.33,78.27,78.25,78.27,78.23,78.35,78.45,78.46,78.35,78.12,77.96,77.90,77.92,77.93,77.88,77.82,77.78,77.80,77.75,77.79,77.91,78.05,78.09,78.10,78.10,78.10,78.12,78.16,78.18,78.20,78.23,78.23,78.19,78.10,77.94,77.93,77.96,78.02,78.09,78.08,78.05,78.01,77.99,78.00,77.96,77.93,77.87,77.77,77.69,77.50,77.41,77.40,77.31,77.17,76.92,76.72,76.76,76.85,76.95,76.99,76.97,76.97,76.97,76.96,76.94,76.89,76.92,76.92,76.95,77.05,77.15,77.16,77.14,77.13,77.11,77.20,77.20,77.14,77.07,77.00,76.95,76.83,76.69,76.83,77.01,77.13,77.20,77.22,77.18,77.13,77.09,77.06,77.01,76.95,76.88,76.80,76.79,76.76,76.68,76.63,76.63,76.61,76.59,76.56,76.54,76.55,76.55,76.58,76.64,76.69,76.62,76.55,76.49,76.45,76.42,76.32,76.20,76.07,76.02,76.10,76.20,76.30,76.37,76.39,76.31,76.27,76.37,76.64,76.73,76.71,76.59,76.34,76.34,76.32,76.29,76.25,76.13,76.00,75.90,75.86,75.84,75.75,75.66,75.62,75.71,75.89,75.95,75.95,75.97,76.00,75.93,75.78,75.58,75.36,75.26,75.35,75.55,75.79,75.87,75.95,75.95,75.81,75.45,75.03,74.80,74.79,74.95,74.93,74.91,74.88,74.84,74.76,74.71,74.65,74.60,74.55,74.52,74.50,74.49,74.49,74.51,74.52,74.51,74.48,74.47,74.47,74.48,74.48,74.46,74.48,74.51,74.53,74.53,74.52,74.47,74.41,74.36,74.41,74.51,74.64,74.78,74.90,74.97,74.99,74.99,74.96,74.95,74.92,74.90,74.89,74.91,74.88,74.86,74.86,74.86,74.70,74.60,74.53,74.52,74.59,74.60,74.61,74.62,74.64,74.63,74.63,74.63,74.60,74.54,74.49,74.46,74.44,74.41,74.34,74.28,74.21,74.13,74.04,73.98,73.93,73.88,73.84,73.82,73.85,73.87,73.82,73.82,73.85,73.90,73.96,74.01,73.92,73.84
78.46,78.42,78.40,78.36,78.32,78.28,78.27,78.22,78.33,78.45,78.50,78.36,78.14,77.99,77.93,77.97,78.05,77.96,77.88,77.86,77.84,77.73,77.76,77.91,78.07,78.10,78.11,78.11,78.11,78.10,78.13,78.16,78.20,78.20,78.20,78.17,78.10,77.97,77.92,77.94,78.01,78.08,78.04,77.98,77.93,77.90,77.93,77.90,77.87,77.79,77.68,77.68,77.52,77.42,77.39,77.32,77.18,76.91,76.71,76.74,76.82,76.92,76.98,76.98,76.98,76.98,76.96,76.92,76.85,76.92,76.92,76.94,77.02,77.10,77.12,77.11,77.09,77.07,77.15,77.11,77.00,76.91,76.80,76.74,76.62,76.49,76.66,76.86,77.03,77.14,77.18,77.17,77.15,77.12,77.09,77.08,77.01,76.89,76.77,76.75,76.70,76.63,76.57,76.57,76.56,76.55,76.54,76.53,76.54,76.52,76.55,76.60,76.62,76.57,76.53,76.49,76.45,76.38,76.28,76.14,76.01,75.96,76.05,76.16,76.25,76.31,76.29,76.21,76.19,76.30,76.58,76.70,76.71,76.60,76.35,76.37,76.37,76.34,76.27,76.10,75.93,75.81,75.76,75.77,75.71,75.63,75.61,75.67,75.86,75.92,75.94,75.96,75.99,75.94,75.80,75.59,75.36,75.23,75.24,75.38,75.60,75.72,75.79,75.80,75.69,75.35,74.96,74.77,74.79,74.92,74.91,74.89,74.86,74.78,74.67,74.62,74.58,74.54,74.52,74.50,74.48,74.46,74.44,74.44,74.44,74.44,74.42,74.43,74.48,74.53,74.56,74.53,74.53,74.52,74.50,74.47,74.47,74.43,74.38,74.36,74.39,74.46,74.60,74.75,74.86,74.90,74.92,74.90,74.87,74.85,74.81,74.78,74.79,74.84,74.81,74.78,74.78,74.78,74.65,74.55,74.47,74.43,74.50,74.50,74.48,74.48,74.50,74.54,74.55,74.54,74.51,74.46,74.44,74.42,74.41,74.35,74.31,74.25,74.18,74.10,74.01,73.95,73.91,73.89,73.87,73.81,73.79,73.80,73.77,73.76,73.73,73.73,73.77,73.77,73.68,73.61
78.59,78.55,78.52,78.47,78.42,78.35,78.27,78.22,78.29,78.43,78.54,78.35,78.13,77.98,77.97,78.10,78.29,78.16,78.03,77.97,77.92,77.73,77.81,78.02,78.10,78.13,78.14,78.15,78.14,78.11,78.11,78.14,78.19,78.20,78.14,78.11,78.08,78.00,77.99,78.02,78.06,78.08,77.97,77.90,77.84,77.81,77.81,77.81,77.81,77.73,77.57,77.63,77.51,77.42,77.39,77.36,77.16,76.89,76.71,76.74,76.79,76.89,76.94,76.94,76.94,76.94,76.94,76.91,76.84,76.91,76.92,76.94,77.00,77.03,77.04,77.02,76.98,76.98,77.04,76.97,76.84,76.75,76.61,76.53,76.45,76.39,76.54,76.78,77.00,77.14,77.14,77.13,77.13,77.12,77.11,77.14,77.03,76.86,76.71,76.66,76.63,76.57,76.52,76.52,76.57,76.58,76.58,76.57,76.56,76.52,76.51,76.53,76.53,76.53,76.54,76.53,76.47,76.37,76.23,76.07,75.94,75.93,76.03,76.15,76.24,76.28,76.22,76.15,76.14,76.21,76.42,76.60,76.67,76.61,76.39,76.41,76.44,76.41,76.31,76.10,75.89,75.75,75.71,75.72,75.70,75.66,75.64,75.67,75.82,75.89,75.92,75.95,75.99,75.92,75.76,75.54,75.33,75.20,75.16,75.23,75.39,75.52,75.57,75.59,75.53,75.23,74.95,74.85,74.88,74.90,74.90,74.87,74.81,74.70,74.58,74.53,74.51,74.50,74.50,74.50,74.45,74.38,74.31,74.31,74.32,74.31,74.32,74.36,74.46,74.57,74.63,74.57,74.52,74.47,74.42,74.36,74.37,74.36,74.35,74.36,74.35,74.41,74.53,74.67,74.76,74.79,74.76,74.73,74.70,74.70,74.66,74.65,74.67,74.74,74.72,74.69,74.70,74.72,74.60,74.48,74.39,74.35,74.37,74.39,74.37,74.33,74.32,74.40,74.42,74.39,74.33,74.31,74.29,74.28,74.26,74.21,74.23,74.20,74.15,74.07,73.97,73.92,73.90,73.88,73.81,73.74,73.68,73.66,73.68,73.67,73.59,73.53,73.53,73.51,73.45,73.37
78.66,78.63,78.61,78.56,78.52,78.44,78.31,78.21,78.27,78.42,78.50,78.30,78.11,77.96,77.93,78.05,78.21,78.13,78.04,78.00,77.91,77.72,77.82,78.03,78.07,78.11,78.15,78.17,78.17,78.12,78.10,78.14,78.19,78.20,78.13,78.09,78.05,78.01,78.03,77.99,77.97,77.99,77.93,77.87,77.82,77.81,77.84,77.81,77.78,77.70,77.58,77.61,77.55,77.47,77.38,77.30,77.08,76.83,76.66,76.68,76.85,76.94,76.97,76.97,76.97,76.96,76.92,76.85,76.82,76.89,76.94,76.97,77.00,77.01,77.01,77.00,76.97,76.93,76.92,76.81,76.67,76.55,76.45,76.47,76.52,76.62,76.90,77.05,77.15,77.18,77.07,77.11,77.14,77.16,77.15,77.11,76.97,76.77,76.58,76.53,76.53,76.48,76.46,76.55,76.54,76.54,76.56,76.57,76.52,76.47,76.45,76.47,76.51,76.51,76.51,76.48,76.40,76.28,76.17,76.05,75.93,75.89,76.01,76.13,76.21,76.22,76.14,76.07,76.04,76.10,76.31,76.51,76.62,76.59,76.39,76.41,76.43,76.40,76.26,76.05,75.88,75.76,75.70,75.70,75.68,75.64,75.63,75.67,75.79,75.88,75.93,75.97,75.97,75.83,75.61,75.37,75.22,75.14,75.11,75.15,75.24,75.34,75.38,75.40,75.37,75.14,74.91,74.84,74.85,74.83,74.81,74.75,74.68,74.61,74.56,74.53,74.53,74.54,74.54,74.50,74.44,74.38,74.35,74.35,74.35,74.34,74.33,74.33,74.40,74.48,74.54,74.54,74.47,74.40,74.36,74.33,74.35,74.35,74.36,74.38,74.37,74.39,74.46,74.55,74.62,74.62,74.60,74.56,74.53,74.54,74.51,74.49,74.49,74.50,74.50,74.50,74.52,74.53,74.44,74.37,74.32,74.29,74.30,74.31,74.29,74.26,74.24,74.28,74.31,74.30,74.26,74.24,74.22,74.18,74.14,74.12,74.14,74.12,74.07,74.01,73.95,73.93,73.91,73.88,73.81,73.75,73.71,73.68,73.66,73.62,73.56,73.52,73.52,73.49,73.43,73.35
78.70,78.67,78.65,78.60,78.57,78.49,78.34,78.19,78.26,78.38,78.43,78.26,78.11,77.96,77.90,78.01,78.12,78.08,78.04,78.03,77.92,77.73,77.81,78.01,78.03,78.08,78.13,78.16,78.16,78.11,78.10,78.14,78.21,78.22,78.15,78.08,78.02,78.02,78.06,77.97,77.91,77.92,77.90,77.85,77.81,77.81,77.87,77.80,77.75,77.68,77.59,77.60,77.58,77.51,77.41,77.28,77.04,76.79,76.61,76.60,76.86,76.94,76.95,76.96,77.00,76.96,76.88,76.81,76.82,76.87,76.93,76.98,76.98,76.98,76.99,76.98,76.94,76.88,76.79,76.66,76.50,76.36,76.32,76.43,76.59,76.79,77.20,77.26,77.25,77.19,77.02,77.07,77.14,77.17,77.15,77.08,76.90,76.67,76.45,76.39,76.44,76.42,76.42,76.57,76.51,76.51,76.54,76.57,76.48,76.41,76.37,76.39,76.47,76.49,76.49,76.43,76.32,76.20,76.12,76.02,75.92,75.85,75.97,76.11,76.18,76.16,76.08,76.00,75.96,75.98,76.16,76.35,76.47,76.48,76.33,76.34,76.36,76.31,76.15,75.98,75.86,75.75,75.66,75.66,75.64,75.60,75.59,75.64,75.73,75.81,75.88,75.92,75.87,75.68,75.43,75.19,75.10,75.07,75.05,75.06,75.09,75.16,75.18,75.20,75.19,75.04,74.86,74.80,74.79,74.74,74.70,74.64,74.59,74.57,74.58,74.58,74.58,74.60,74.58,74.52,74.45,74.41,74.41,74.41,74.40,74.39,74.37,74.33,74.36,74.41,74.47,74.51,74.44,74.37,74.34,74.35,74.36,74.38,74.41,74.42,74.40,74.38,74.39,74.43,74.48,74.48,74.47,74.44,74.40,74.42,74.41,74.39,74.37,74.34,74.34,74.35,74.37,74.38,74.32,74.28,74.27,74.27,74.27,74.27,74.25,74.23,74.23,74.23,74.25,74.25,74.22,74.22,74.19,74.13,74.09,74.11,74.11,74.10,74.06,74.00,73.98,73.98,73.96,73.92,73.85,73.79,73.77,73.74,73.67,73.60,73.56,73.55,73.54,73.52,73.45,73.36
78.67,78.62,78.56,78.49,78.46,78.41,78.32,78.18,78.23,78.28,78.29,78.27,78.20,78.02,77.92,78.03,78.10,78.06,78.04,78.06,77.99,77.76,77.80,77.97,78.01,78.02,78.03,78.04,78.04,78.09,78.10,78.17,78.27,78.28,78.22,78.11,78.04,78.07,78.09,78.03,77.96,77.91,77.90,77.84,77.81,77.80,77.82,77.75,77.71,77.66,77.60,77.59,77.55,77.54,77.53,77.38,77.16,76.84,76.59,76.53,76.70,76.78,76.81,76.84,77.02,76.89,76.81,76.82,76.87,76.83,76.86,76.91,76.92,76.91,76.96,76.92,76.84,76.85,76.67,76.50,76.34,76.22,76.24,76.40,76.57,76.76,77.20,77.23,77.18,77.11,76.99,77.01,77.07,77.10,77.08,77.04,76.80,76.55,76.36,76.27,76.39,76.42,76.44,76.55,76.48,76.50,76.54,76.56,76.45,76.34,76.26,76.24,76.36,76.47,76.47,76.39,76.25,76.17,76.11,76.01,75.87,75.81,75.92,76.06,76.16,76.14,76.06,75.98,75.91,75.89,75.93,76.01,76.08,76.13,76.13,76.14,76.12,76.05,75.91,75.85,75.77,75.66,75.56,75.56,75.54,75.52,75.50,75.52,75.54,75.60,75.67,75.70,75.63,75.43,75.20,75.01,74.99,74.98,74.95,74.93,74.92,74.95,74.97,74.99,74.98,74.91,74.82,74.75,74.70,74.64,74.61,74.61,74.62,74.63,74.66,74.68,74.68,74.66,74.64,74.60,74.55,74.50,74.48,74.44,74.42,74.42,74.43,74.40,74.39,74.42,74.48,74.53,74.47,74.43,74.41,74.43,74.45,74.48,74.51,74.51,74.45,74.39,74.34,74.32,74.33,74.38,74.42,74.41,74.37,74.37,74.40,74.41,74.40,74.39,74.38,74.35,74.34,74.37,74.31,74.26,74.26,74.31,74.32,74.31,74.29,74.28,74.31,74.34,74.33,74.29,74.23,74.27,74.26,74.21,74.18,74.24,74.24,74.25,74.23,74.16,74.11,74.10,74.07,74.03,73.96,73.90,73.86,73.81,73.71,73.66,73.63,73.59,73.55,73.57,73.49,73.39
78.51,78.47,78.43,78.36,78.34,78.32,78.26,78.18,78.21,78.25,78.27,78.26,78.21,78.05,77.95,78.05,78.08,78.06,78.06,78.07,77.99,77.76,77.72,77.84,77.97,78.00,78.00,78.01,78.03,78.04,78.08,78.15,78.23,78.27,78.21,78.10,78.03,78.05,78.04,78.02,77.97,77.90,77.87,77.82,77.77,77.74,77.73,77.70,77.67,77.62,77.56,77.55,77.54,77.56,77.55,77.36,77.17,76.86,76.58,76.50,76.58,76.63,76.65,76.68,76.82,76.74,76.73,76.80,76.83,76.76,76.79,76.85,76.87,76.84,76.90,76.88,76.77,76.73,76.49,76.30,76.18,76.11,76.22,76.39,76.53,76.67,77.04,77.00,76.94,76.90,76.87,76.87,76.92,76.94,76.90,76.88,76.64,76.41,76.26,76.16,76.27,76.32,76.35,76.41,76.36,76.40,76.45,76.46,76.31,76.19,76.11,76.10,76.23,76.31,76.32,76.26,76.16,76.08,76.04,75.96,75.85,75.79,75.86,75.97,76.05,76.02,75.96,75.89,75.84,75.82,75.79,75.80,75.83,75.85,75.88,75.89,75.86,75.79,75.69,75.67,75.61,75.54,75.47,75.47,75.44,75.43,75.41,75.40,75.38,75.39,75.42,75.43,75.39,75.25,75.09,74.97,74.95,74.92,74.88,74.85,74.85,74.87,74.88,74.88,74.86,74.81,74.74,74.68,74.64,74.61,74.63,74.68,74.73,74.75,74.77,74.78,74.76,74.72,74.67,74.66,74.62,74.57,74.53,74.49,74.46,74.46,74.47,74.47,74.45,74.44,74.45,74.49,74.45,74.48,74.51,74.52,74.51,74.54,74.56,74.56,74.52,74.46,74.39,74.33,74.30,74.31,74.37,74.38,74.36,74.38,74.42,74.45,74.45,74.45,74.41,74.40,74.40,74.40,74.35,74.30,74.32,74.38,74.36,74.33,74.33,74.37,74.46,74.45,74.43,74.37,74.31,74.33,74.31,74.29,74.30,74.34,74.33,74.35,74.35,74.30,74.23,74.20,74.17,74.12,74.05,73.98,73.91,73.83,73.73,73.72,73.67,73.61,73.57,73.62,73.58,73.47
78.30,78.28,78.27,78.22,78.23,78.23,78.19,78.18,78.20,78.25,78.30,78.24,78.19,78.06,77.98,78.05,78.07,78.08,78.09,78.06,77.95,77.73,77.62,77.69,77.94,78.01,78.01,78.02,78.05,77.99,78.05,78.11,78.15,78.22,78.17,78.08,78.01,77.99,77.95,77.97,77.96,77.89,77.81,77.78,77.72,77.66,77.63,77.65,77.61,77.55,77.49,77.49,77.53,77.56,77.51,77.28,77.12,76.83,76.58,76.50,76.50,76.50,76.50,76.51,76.55,76.56,76.65,76.76,76.75,76.68,76.71,76.77,76.81,76.76,76.83,76.82,76.71,76.57,76.30,76.11,76.03,76.04,76.22,76.37,76.47,76.55,76.81,76.69,76.62,76.65,76.71,76.69,76.72,76.73,76.67,76.66,76.46,76.28,76.17,76.08,76.13,76.18,76.22,76.23,76.19,76.26,76.32,76.31,76.15,76.03,75.96,75.97,76.09,76.11,76.12,76.11,76.06,75.97,75.95,75.91,75.84,75.76,75.81,75.88,75.91,75.88,75.83,75.79,75.77,75.76,75.69,75.67,75.66,75.65,75.64,75.64,75.63,75.58,75.52,75.50,75.47,75.44,75.43,75.41,75.37,75.35,75.33,75.30,75.26,75.22,75.19,75.19,75.19,75.12,75.05,74.99,74.95,74.89,74.83,74.81,74.83,74.86,74.85,74.83,74.79,74.74,74.66,74.62,74.62,74.63,74.70,74.80,74.87,74.89,74.88,74.89,74.85,74.78,74.69,74.69,74.66,74.61,74.57,74.54,74.52,74.50,74.50,74.53,74.49,74.45,74.42,74.43,74.41,74.52,74.61,74.61,74.55,74.57,74.60,74.60,74.59,74.54,74.47,74.40,74.32,74.27,74.31,74.35,74.36,74.40,74.46,74.49,74.50,74.49,74.44,74.46,74.47,74.45,74.40,74.38,74.40,74.44,74.38,74.34,74.38,74.48,74.62,74.57,74.52,74.46,74.40,74.39,74.34,74.36,74.41,74.42,74.40,74.43,74.45,74.41,74.34,74.31,74.26,74.19,74.11,74.04,73.93,73.82,73.73,73.77,73.70,73.63,73.60,73.66,73.67,73.57
78.27,78.25,78.22,78.18,78.17,78.16,78.14,78.13,78.18,78.28,78.36,78.28,78.20,78.07,77.98,78.06,78.19,78.15,78.08,78.00,77.85,77.65,77.61,77.72,77.95,78.04,78.05,78.01,77.94,77.88,77.91,77.96,78.01,78.04,78.04,78.01,77.98,77.96,77.90,77.91,77.89,77.79,77.68,77.66,77.61,77.55,77.48,77.53,77.52,77.47,77.43,77.43,77.42,77.43,77.38,77.08,76.89,76.71,76.58,76.50,76.50,76.50,76.50,76.49,76.45,76.50,76.57,76.64,76.64,76.56,76.57,76.60,76.61,76.57,76.64,76.65,76.57,76.50,76.25,76.13,76.12,76.14,76.26,76.34,76.37,76.40,76.53,76.44,76.41,76.44,76.47,76.42,76.42,76.44,76.44,76.39,76.27,76.17,76.13,76.11,76.08,76.08,76.09,76.10,76.08,76.13,76.16,76.13,76.05,76.00,75.98,75.98,76.02,76.02,76.02,76.03,76.01,75.98,75.98,75.94,75.84,75.75,75.77,75.82,75.86,75.84,75.81,75.82,75.82,75.80,75.73,75.77,75.79,75.77,75.70,75.71,75.72,75.71,75.68,75.63,75.65,75.68,75.71,75.65,75.60,75.54,75.48,75.43,75.41,75.35,75.32,75.33,75.31,75.20,75.10,75.05,75.02,74.95,74.88,74.84,74.84,74.90,74.90,74.85,74.79,74.75,74.71,74.72,74.76,74.79,74.85,74.91,74.96,74.99,74.99,74.97,74.92,74.84,74.73,74.68,74.64,74.60,74.59,74.58,74.55,74.51,74.46,74.45,74.43,74.42,74.41,74.41,74.40,74.52,74.63,74.66,74.59,74.59,74.62,74.64,74.63,74.56,74.50,74.46,74.40,74.30,74.26,74.28,74.34,74.40,74.45,74.46,74.45,74.43,74.41,74.42,74.44,74.45,74.42,74.37,74.36,74.38,74.35,74.35,74.43,74.55,74.69,74.67,74.56,74.46,74.40,74.40,74.29,74.29,74.36,74.40,74.40,74.47,74.53,74.53,74.47,74.41,74.32,74.21,74.08,74.02,73.95,73.87,73.80,73.83,73.76,73.67,73.61,73.61,73.61,73.55
78.33,78.30,78.26,78.22,78.20,78.18,78.15,78.12,78.17,78.28,78.36,78.28,78.23,78.09,78.01,78.08,78.24,78.16,78.05,77.96,77.82,77.64,77.61,77.71,77.89,77.97,78.00,77.93,77.80,77.75,77.76,77.80,77.83,77.79,77.83,77.82,77.79,77.79,77.75,77.75,77.72,77.63,77.53,77.52,77.48,77.41,77.35,77.40,77.39,77.34,77.30,77.31,77.24,77.22,77.18,76.93,76.76,76.65,76.57,76.50,76.50,76.51,76.52,76.49,76.42,76.45,76.51,76.55,76.53,76.47,76.47,76.49,76.50,76.45,76.50,76.51,76.47,76.42,76.27,76.22,76.23,76.26,76.31,76.34,76.34,76.34,76.39,76.32,76.29,76.31,76.34,76.29,76.28,76.29,76.31,76.25,76.18,76.14,76.13,76.12,76.07,76.04,76.03,76.05,76.04,76.07,76.07,76.03,76.01,76.02,76.02,76.02,76.02,75.99,75.99,76.00,76.01,76.00,76.01,75.96,75.83,75.71,75.73,75.78,75.84,75.85,75.83,75.84,75.85,75.85,75.80,75.84,75.87,75.86,75.80,75.82,75.86,75.87,75.85,75.82,75.86,75.92,75.96,75.86,75.71,75.62,75.58,75.53,75.52,75.47,75.45,75.46,75.41,75.27,75.16,75.10,75.06,74.98,74.91,74.86,74.85,74.89,74.89,74.85,74.81,74.79,74.79,74.81,74.85,74.88,74.93,74.98,75.03,75.06,75.05,75.01,74.95,74.86,74.74,74.66,74.61,74.60,74.60,74.60,74.57,74.51,74.45,74.42,74.40,74.39,74.38,74.39,74.38,74.49,74.61,74.65,74.60,74.61,74.64,74.67,74.65,74.59,74.54,74.49,74.43,74.33,74.26,74.25,74.30,74.35,74.41,74.43,74.42,74.40,74.40,74.39,74.40,74.42,74.40,74.35,74.34,74.35,74.33,74.37,74.46,74.59,74.71,74.69,74.57,74.46,74.41,74.40,74.31,74.31,74.36,74.37,74.41,74.50,74.58,74.57,74.52,74.45,74.35,74.22,74.07,74.02,73.97,73.91,73.86,73.85,73.78,73.70,73.64,73.61,73.57,73.53
78.46,78.43,78.41,78.35,78.32,78.29,78.23,78.14,78.16,78.24,78.31,78.26,78.26,78.14,78.05,78.10,78.22,78.13,78.02,77.94,77.86,77.69,77.62,77.66,77.78,77.82,77.86,77.80,77.62,77.58,77.59,77.62,77.60,77.45,77.54,77.51,77.46,77.49,77.49,77.48,77.45,77.40,77.35,77.36,77.32,77.27,77.24,77.26,77.23,77.16,77.10,77.15,77.01,76.94,76.93,76.84,76.72,76.64,76.57,76.50,76.50,76.54,76.55,76.49,76.46,76.43,76.46,76.49,76.43,76.41,76.41,76.43,76.47,76.40,76.40,76.41,76.39,76.33,76.36,76.37,76.37,76.38,76.38,76.39,76.39,76.39,76.38,76.31,76.26,76.24,76.30,76.29,76.29,76.29,76.29,76.22,76.19,76.18,76.17,76.11,76.09,76.05,76.03,76.09,76.09,76.08,76.05,76.00,76.02,76.06,76.08,76.08,76.08,76.02,76.01,76.03,76.06,76.03,76.04,75.96,75.80,75.65,75.70,75.77,75.85,75.90,75.87,75.85,75.85,75.90,75.89,75.90,75.90,75.90,75.92,76.00,76.04,76.05,76.03,76.08,76.11,76.16,76.19,76.03,75.71,75.61,75.64,75.60,75.60,75.58,75.58,75.58,75.50,75.34,75.22,75.14,75.06,74.99,74.92,74.88,74.85,74.81,74.81,74.82,74.83,74.86,74.89,74.90,74.90,74.91,74.95,75.01,75.06,75.09,75.06,75.00,74.92,74.83,74.72,74.62,74.59,74.59,74.60,74.60,74.57,74.51,74.45,74.43,74.39,74.36,74.35,74.38,74.35,74.43,74.54,74.60,74.58,74.63,74.67,74.69,74.66,74.63,74.58,74.51,74.44,74.36,74.30,74.26,74.23,74.26,74.34,74.39,74.41,74.40,74.40,74.37,74.35,74.35,74.33,74.32,74.33,74.33,74.33,74.38,74.48,74.60,74.68,74.61,74.55,74.48,74.42,74.40,74.41,74.41,74.39,74.33,74.42,74.54,74.59,74.54,74.51,74.45,74.35,74.22,74.08,74.03,73.98,73.94,73.90,73.84,73.76,73.72,73.70,73.64,73.54,73.52
78.54,78.53,78.51,78.46,78.39,78.29,78.16,78.12,78.13,78.15,78.17,78.17,78.17,78.12,78.05,78.02,78.02,77.94,77.85,77.78,77.77,77.67,77.60,77.58,77.63,77.61,77.64,77.63,77.54,77.49,77.51,77.52,77.49,77.40,77.45,77.43,77.39,77.38,77.41,77.53,77.56,77.46,77.43,77.40,77.36,77.33,77.33,77.37,77.26,77.15,77.15,77.17,77.04,76.94,76.90,76.87,76.78,76.68,76.58,76.50,76.59,76.63,76.64,76.62,76.65,76.60,76.54,76.47,76.36,76.39,76.40,76.43,76.49,76.45,76.42,76.40,76.39,76.37,76.39,76.40,76.40,76.40,76.44,76.42,76.40,76.39,76.38,76.29,76.25,76.27,76.30,76.30,76.29,76.27,76.24,76.20,76.20,76.19,76.16,76.09,76.05,76.02,76.03,76.08,76.09,76.09,76.08,76.06,76.07,76.09,76.09,76.09,76.09,76.07,76.06,76.05,76.03,76.00,75.99,75.93,75.80,75.66,75.67,75.75,75.84,75.88,75.84,75.82,75.83,75.86,75.89,75.92,75.97,76.03,76.10,76.17,76.22,76.24,76.27,76.31,76.30,76.28,76.25,76.11,75.79,75.66,75.64,75.63,75.57,75.51,75.49,75.53,75.49,75.38,75.26,75.15,75.05,74.96,74.89,74.84,74.83,74.83,74.86,74.91,74.97,74.99,74.98,74.95,74.93,74.94,74.99,75.04,75.08,75.10,75.09,75.03,74.96,74.88,74.78,74.66,74.61,74.61,74.63,74.62,74.58,74.52,74.48,74.53,74.48,74.39,74.32,74.35,74.33,74.38,74.44,74.49,74.51,74.61,74.68,74.69,74.68,74.66,74.61,74.54,74.46,74.40,74.37,74.33,74.28,74.25,74.26,74.30,74.34,74.38,74.39,74.38,74.35,74.35,74.32,74.34,74.36,74.39,74.40,74.45,74.54,74.64,74.71,74.61,74.55,74.50,74.45,74.42,74.44,74.43,74.39,74.34,74.41,74.50,74.56,74.54,74.51,74.45,74.36,74.25,74.14,74.07,74.02,73.97,73.91,73.84,73.80,73.79,73.80,73.75,73.63,73.59
78.58,78.57,78.56,78.48,78.38,78.25,78.12,78.10,78.11,78.11,78.10,78.13,78.16,78.13,78.07,78.01,77.97,77.91,77.83,77.77,77.79,77.67,77.60,77.57,77.57,77.49,77.50,77.53,77.51,77.45,77.47,77.47,77.42,77.40,77.40,77.40,77.38,77.35,77.39,77.63,77.71,77.58,77.56,77.50,77.46,77.47,77.49,77.55,77.38,77.24,77.27,77.27,77.13,77.01,76.93,76.89,76.83,76.71,76.58,76.50,76.67,76.70,76.70,76.72,76.77,76.72,76.61,76.48,76.34,76.40,76.41,76.43,76.49,76.49,76.44,76.39,76.38,76.41,76.43,76.43,76.43,76.43,76.47,76.44,76.40,76.40,76.39,76.27,76.24,76.28,76.30,76.30,76.29,76.26,76.19,76.17,76.18,76.17,76.14,76.06,76.01,76.00,76.02,76.06,76.07,76.09,76.10,76.11,76.12,76.11,76.09,76.09,76.10,76.12,76.10,76.06,75.99,75.97,75.95,75.88,75.77,75.66,75.65,75.73,75.82,75.85,75.81,75.79,75.80,75.81,75.87,75.95,76.05,76.15,76.24,76.30,76.35,76.39,76.45,76.48,76.42,76.34,76.25,76.13,75.84,75.67,75.63,75.61,75.51,75.40,75.37,75.43,75.44,75.36,75.24,75.12,75.00,74.93,74.87,74.83,74.83,74.86,74.93,75.01,75.08,75.09,75.04,74.98,74.96,74.97,75.02,75.06,75.09,75.10,75.10,75.06,75.00,74.93,74.83,74.70,74.63,74.63,74.67,74.66,74.59,74.53,74.51,74.61,74.54,74.41,74.30,74.32,74.32,74.34,74.36,74.40,74.45,74.59,74.67,74.68,74.68,74.69,74.65,74.57,74.50,74.45,74.42,74.39,74.34,74.26,74.22,74.22,74.26,74.33,74.37,74.37,74.37,74.36,74.33,74.35,74.39,74.43,74.45,74.51,74.59,74.67,74.72,74.61,74.55,74.51,74.46,74.41,74.43,74.41,74.37,74.34,74.37,74.44,74.50,74.51,74.47,74.41,74.34,74.26,74.20,74.15,74.10,74.04,73.96,73.87,73.84,73.84,73.86,73.82,73.70,73.63
78.53,78.52,78.50,78.35,78.22,78.16,78.15,78.11,78.14,78.16,78.19,78.25,78.32,78.21,78.12,78.19,78.26,78.25,78.19,78.11,78.08,77.76,77.65,77.70,77.73,77.57,77.56,77.58,77.57,77.50,77.50,77.48,77.45,77.44,77.42,77.42,77.43,77.48,77.48,77.73,77.87,77.80,77.78,77.69,77.66,77.70,77.76,77.80,77.66,77.52,77.52,77.49,77.31,77.14,77.02,76.88,76.82,76.71,76.59,76.49,76.67,76.70,76.70,76.72,76.72,76.68,76.61,76.53,76.44,76.47,76.45,76.43,76.45,76.47,76.43,76.37,76.34,76.43,76.49,76.50,76.48,76.48,76.47,76.43,76.40,76.40,76.41,76.29,76.24,76.26,76.30,76.30,76.29,76.24,76.15,76.10,76.12,76.12,76.09,76.01,75.98,75.97,75.99,76.01,76.02,76.05,76.09,76.12,76.17,76.14,76.09,76.07,76.12,76.16,76.14,76.07,75.98,75.92,75.90,75.82,75.71,75.62,75.63,75.71,75.79,75.81,75.80,75.77,75.76,75.77,75.83,76.00,76.14,76.23,76.27,76.34,76.41,76.46,76.50,76.50,76.40,76.27,76.15,76.04,75.78,75.63,75.57,75.51,75.37,75.28,75.24,75.26,75.28,75.22,75.12,74.99,74.90,74.88,74.88,74.89,74.90,74.93,75.02,75.10,75.14,75.12,75.05,75.01,74.99,74.99,75.02,75.06,75.09,75.10,75.10,75.08,75.04,74.96,74.84,74.70,74.64,74.66,74.71,74.69,74.62,74.54,74.51,74.60,74.52,74.38,74.29,74.32,74.32,74.31,74.33,74.37,74.45,74.57,74.65,74.67,74.67,74.69,74.66,74.61,74.56,74.51,74.45,74.41,74.38,74.31,74.25,74.20,74.19,74.24,74.30,74.35,74.38,74.39,74.34,74.36,74.39,74.43,74.46,74.54,74.59,74.65,74.69,74.61,74.53,74.47,74.43,74.37,74.36,74.35,74.32,74.33,74.26,74.32,74.39,74.40,74.33,74.29,74.26,74.24,74.25,74.28,74.28,74.23,74.09,73.99,73.89,73.84,73.83,73.81,73.69,73.60
78.40,78.36,78.32,78.18,78.09,78.06,78.07,78.06,78.08,78.12,78.20,78.30,78.37,78.24,78.12,78.19,78.29,78.30,78.27,78.21,78.07,77.75,77.66,77.73,77.75,77.59,77.59,77.62,77.59,77.48,77.52,77.59,77.62,77.62,77.56,77.53,77.53,77.58,77.55,77.79,77.96,77.94,77.92,77.86,77.83,77.84,77.90,77.88,77.80,77.73,77.71,77.65,77.44,77.20,76.98,76.84,76.81,76.72,76.60,76.48,76.66,76.68,76.70,76.75,76.71,76.65,76.59,76.52,76.44,76.49,76.47,76.43,76.40,76.43,76.41,76.37,76.36,76.46,76.54,76.54,76.52,76.52,76.45,76.41,76.40,76.41,76.44,76.32,76.25,76.25,76.27,76.28,76.28,76.24,76.14,76.08,76.08,76.07,76.04,76.01,75.96,75.94,75.96,76.00,76.00,76.03,76.06,76.10,76.16,76.14,76.09,76.06,76.11,76.16,76.15,76.09,75.97,75.90,75.84,75.76,75.67,75.60,75.60,75.67,75.76,75.80,75.79,75.77,75.74,75.74,75.79,75.98,76.15,76.29,76.36,76.42,76.49,76.55,76.58,76.44,76.20,76.01,75.91,75.80,75.61,75.51,75.48,75.43,75.32,75.23,75.17,75.15,75.14,75.09,75.00,74.90,74.87,74.90,74.94,74.96,74.97,74.99,75.08,75.16,75.21,75.18,75.11,75.05,75.02,75.02,75.05,75.08,75.09,75.10,75.10,75.09,75.05,74.96,74.77,74.60,74.55,74.59,74.65,74.68,74.64,74.56,74.47,74.48,74.41,74.32,74.27,74.31,74.29,74.30,74.33,74.38,74.43,74.51,74.58,74.62,74.66,74.69,74.67,74.63,74.59,74.58,74.54,74.51,74.48,74.42,74.33,74.23,74.16,74.16,74.22,74.30,74.36,74.37,74.31,74.31,74.34,74.38,74.42,74.47,74.54,74.59,74.61,74.54,74.45,74.38,74.34,74.34,74.32,74.30,74.29,74.28,74.22,74.26,74.32,74.34,74.27,74.23,74.23,74.25,74.28,74.31,74.31,74.27,74.17,74.07,73.96,73.88,73.85,73.81,73.70,73.59
78.23,78.18,78.12,78.03,77.98,77.97,77.97,77.99,78.00,78.06,78.19,78.33,78.37,78.23,78.10,78.14,78.22,78.25,78.25,78.20,77.98,77.70,77.65,77.73,77.73,77.59,77.60,77.64,77.59,77.42,77.54,77.70,77.80,77.82,77.73,77.68,77.67,77.69,77.64,77.84,78.01,78.03,78.01,78.01,77.96,77.93,78.00,77.90,77.89,77.89,77.85,77.77,77.55,77.24,76.94,76.84,76.84,76.75,76.61,76.47,76.64,76.66,76.71,76.79,76.71,76.64,76.57,76.49,76.40,76.47,76.47,76.42,76.36,76.39,76.40,76.39,76.39,76.49,76.57,76.57,76.55,76.54,76.43,76.40,76.40,76.42,76.47,76.36,76.27,76.24,76.24,76.25,76.26,76.24,76.15,76.08,76.06,76.03,76.00,76.03,75.94,75.91,75.94,76.00,76.00,76.01,76.03,76.06,76.13,76.12,76.08,76.06,76.10,76.13,76.14,76.10,75.97,75.88,75.79,75.70,75.63,75.57,75.57,75.64,75.74,75.80,75.79,75.77,75.74,75.71,75.77,75.94,76.14,76.31,76.42,76.45,76.50,76.56,76.58,76.31,75.94,75.70,75.62,75.53,75.41,75.37,75.37,75.37,75.29,75.20,75.12,75.06,75.02,74.97,74.90,74.85,74.88,74.96,75.00,75.03,75.05,75.05,75.13,75.22,75.28,75.25,75.18,75.11,75.06,75.05,75.08,75.10,75.10,75.10,75.10,75.10,75.06,74.95,74.69,74.49,74.44,74.49,74.56,74.63,74.63,74.56,74.43,74.34,74.29,74.26,74.26,74.30,74.26,74.29,74.34,74.40,74.41,74.45,74.51,74.58,74.66,74.69,74.67,74.64,74.61,74.65,74.65,74.63,74.60,74.55,74.43,74.29,74.17,74.11,74.15,74.25,74.32,74.32,74.25,74.25,74.28,74.31,74.36,74.39,74.46,74.53,74.53,74.45,74.38,74.30,74.25,74.33,74.29,74.27,74.27,74.24,74.21,74.24,74.28,74.29,74.24,74.21,74.23,74.27,74.29,74.29,74.29,74.27,74.21,74.14,74.02,73.93,73.89,73.83,73.70,73.59
78.10,78.06,78.02,77.98,77.96,77.96,77.96,77.99,78.00,78.07,78.21,78.35,78.33,78.21,78.11,78.13,78.19,78.21,78.24,78.23,78.03,77.77,77.73,77.81,77.85,77.63,77.60,77.61,77.56,77.39,77.52,77.69,77.80,77.81,77.82,77.85,77.88,77.89,77.83,77.93,78.02,78.03,78.04,78.05,78.01,77.98,78.04,77.97,77.92,77.88,77.82,77.79,77.60,77.35,77.15,77.12,77.14,76.92,76.64,76.50,76.56,76.64,76.72,76.79,76.75,76.73,76.69,76.60,76.40,76.44,76.46,76.44,76.39,76.40,76.40,76.40,76.41,76.49,76.53,76.54,76.53,76.53,76.46,76.42,76.40,76.42,76.48,76.36,76.26,76.23,76.26,76.23,76.26,76.25,76.17,76.10,76.09,76.07,76.03,76.01,75.94,75.94,75.98,76.00,76.00,76.01,76.03,76.08,76.10,76.06,76.03,76.02,76.03,76.02,76.07,76.07,75.95,75.84,75.74,75.66,75.57,75.49,75.53,75.63,75.74,75.80,75.80,75.79,75.78,75.77,75.80,75.93,76.09,76.23,76.24,76.13,76.01,75.95,76.00,75.96,75.69,75.49,75.40,75.35,75.28,75.26,75.29,75.32,75.26,75.16,75.07,75.02,74.98,74.97,75.00,75.05,75.07,75.06,75.07,75.09,75.11,75.17,75.25,75.32,75.36,75.33,75.26,75.18,75.12,75.08,75.09,75.10,75.10,75.10,75.10,75.10,75.06,74.95,74.72,74.52,74.42,74.40,74.42,74.49,74.50,74.46,74.40,74.37,74.31,74.25,74.23,74.26,74.28,74.31,74.34,74.36,74.40,74.49,74.56,74.60,74.65,74.68,74.69,74.69,74.69,74.70,74.72,74.73,74.70,74.62,74.50,74.38,74.26,74.17,74.14,74.17,74.21,74.22,74.19,74.20,74.24,74.29,74.33,74.35,74.44,74.53,74.56,74.50,74.41,74.32,74.26,74.33,74.35,74.33,74.31,74.28,74.23,74.25,74.28,74.29,74.24,74.21,74.22,74.26,74.26,74.24,74.23,74.22,74.20,74.14,74.04,73.95,73.88,73.82,73.70,73.59
78.13,78.10,78.06,78.05,78.03,78.01,77.98,77.97,77.99,78.08,78.23,78.35,78.31,78.21,78.13,78.15,78.19,78.20,78.22,78.22,78.01,77.79,77.76,77.84,77.89,77.63,77.54,77.50,77.45,77.34,77.49,77.64,77.71,77.74,77.84,77.96,78.04,78.05,77.97,77.99,78.03,78.05,78.07,78.06,78.04,78.03,78.07,78.01,77.95,77.88,77.81,77.80,77.66,77.48,77.33,77.33,77.35,77.08,76.73,76.51,76.54,76.63,76.73,76.80,76.78,76.78,76.75,76.65,76.44,76.42,76.45,76.47,76.43,76.40,76.42,76.45,76.48,76.53,76.54,76.53,76.51,76.51,76.49,76.45,76.44,76.45,76.51,76.39,76.27,76.22,76.25,76.24,76.27,76.26,76.19,76.12,76.10,76.06,76.00,75.97,75.95,75.97,75.99,75.97,75.97,75.98,76.01,76.07,76.09,76.06,76.03,76.00,75.97,75.97,76.01,76.01,75.91,75.78,75.71,75.64,75.55,75.47,75.52,75.63,75.74,75.80,75.82,75.80,75.79,75.79,75.80,75.88,76.00,76.08,75.99,75.82,75.64,75.54,75.56,75.61,75.48,75.36,75.30,75.27,75.22,75.20,75.21,75.21,75.17,75.10,75.05,75.02,75.01,75.02,75.08,75.13,75.12,75.10,75.09,75.10,75.13,75.20,75.29,75.37,75.42,75.40,75.31,75.22,75.14,75.10,75.11,75.11,75.11,75.10,75.08,75.06,75.02,74.93,74.74,74.55,74.44,74.38,74.37,74.40,74.40,74.37,74.33,74.33,74.29,74.24,74.21,74.23,74.26,74.29,74.31,74.32,74.40,74.50,74.56,74.60,74.64,74.67,74.70,74.73,74.75,74.76,74.79,74.80,74.79,74.69,74.54,74.42,74.33,74.26,74.18,74.14,74.13,74.13,74.14,74.17,74.23,74.30,74.33,74.34,74.41,74.50,74.53,74.49,74.42,74.35,74.31,74.38,74.41,74.38,74.33,74.30,74.25,74.26,74.28,74.29,74.24,74.21,74.21,74.22,74.20,74.19,74.18,74.18,74.17,74.12,74.05,73.95,73.86,73.80,73.69,73.58
78.30,78.26,78.23,78.22,78.19,78.13,78.03,77.95,77.97,78.08,78.24,78.33,78.32,78.23,78.16,78.18,78.20,78.20,78.20,78.17,77.92,77.77,77.75,77.81,77.88,77.59,77.43,77.34,77.27,77.29,77.46,77.55,77.56,77.61,77.79,78.00,78.15,78.18,78.05,78.01,78.03,78.08,78.10,78.05,78.05,78.08,78.10,78.03,77.96,77.88,77.81,77.80,77.73,77.61,77.50,77.48,77.49,77.25,76.87,76.52,76.58,76.65,76.74,76.80,76.80,76.80,76.75,76.66,76.50,76.42,76.45,76.50,76.49,76.41,76.46,76.53,76.59,76.60,76.60,76.55,76.50,76.50,76.50,76.50,76.50,76.52,76.57,76.45,76.30,76.20,76.21,76.28,76.29,76.26,76.19,76.12,76.09,76.02,75.92,75.91,75.97,76.00,75.98,75.92,75.92,75.92,75.97,76.04,76.08,76.09,76.07,76.01,75.91,75.96,75.97,75.93,75.84,75.72,75.69,75.64,75.57,75.50,75.52,75.62,75.74,75.81,75.85,75.81,75.77,75.77,75.77,75.81,75.86,75.86,75.68,75.53,75.38,75.28,75.24,75.29,75.30,75.29,75.28,75.25,75.21,75.17,75.13,75.06,75.03,75.03,75.04,75.07,75.11,75.13,75.14,75.11,75.04,75.06,75.07,75.08,75.11,75.16,75.26,75.37,75.47,75.46,75.36,75.24,75.14,75.10,75.12,75.13,75.12,75.09,75.04,74.99,74.96,74.90,74.76,74.59,74.49,74.43,74.40,74.36,74.32,74.29,74.25,74.23,74.22,74.21,74.20,74.20,74.21,74.22,74.25,74.29,74.39,74.48,74.54,74.58,74.62,74.64,74.70,74.76,74.82,74.83,74.84,74.86,74.85,74.73,74.55,74.42,74.36,74.36,74.26,74.16,74.08,74.06,74.08,74.13,74.23,74.33,74.36,74.35,74.39,74.43,74.45,74.43,74.41,74.38,74.38,74.50,74.49,74.42,74.33,74.30,74.27,74.28,74.29,74.29,74.24,74.21,74.19,74.15,74.12,74.13,74.15,74.14,74.11,74.10,74.04,73.93,73.82,73.77,73.67,73.58
78.41,78.40,78.35,78.37,78.32,78.23,78.09,77.93,77.91,78.00,78.16,78.32,78.29,78.21,78.16,78.23,78.28,78.28,78.26,78.22,78.05,77.84,77.80,77.86,77.94,77.64,77.44,77.31,77.24,77.28,77.45,77.54,77.54,77.59,77.77,77.96,78.10,78.12,78.04,78.04,78.09,78.15,78.16,78.14,78.14,78.15,78.12,78.00,77.90,77.84,77.80,77.75,77.65,77.54,77.47,77.45,77.52,77.24,76.83,76.52,76.61,76.67,76.74,76.80,76.81,76.77,76.71,76.61,76.45,76.45,76.57,76.61,76.45,76.46,76.51,76.56,76.58,76.54,76.57,76.54,76.50,76.49,76.50,76.50,76.50,76.51,76.53,76.45,76.34,76.26,76.26,76.26,76.27,76.27,76.24,76.18,76.13,76.05,75.97,75.93,76.00,76.06,76.08,76.02,75.97,75.96,76.00,76.07,76.05,76.05,76.00,75.88,75.77,75.80,75.81,75.79,75.75,75.65,75.63,75.61,75.54,75.48,75.47,75.55,75.66,75.73,75.77,75.71,75.66,75.65,75.66,75.72,75.79,75.81,75.72,75.56,75.41,75.28,75.21,75.23,75.24,75.25,75.25,75.22,75.18,75.14,75.10,75.06,75.07,75.09,75.12,75.16,75.17,75.17,75.15,75.12,75.04,75.05,75.06,75.06,75.07,75.12,75.22,75.33,75.41,75.40,75.32,75.21,75.12,75.09,75.15,75.16,75.12,75.03,74.92,74.89,74.88,74.84,74.71,74.57,74.47,74.41,74.38,74.36,74.31,74.26,74.23,74.20,74.20,74.20,74.20,74.20,74.18,74.18,74.20,74.25,74.34,74.41,74.47,74.54,74.62,74.67,74.73,74.79,74.84,74.82,74.80,74.80,74.81,74.73,74.57,74.46,74.41,74.44,74.34,74.22,74.12,74.09,74.09,74.11,74.18,74.29,74.37,74.38,74.39,74.43,74.47,74.49,74.47,74.43,74.41,74.47,74.48,74.44,74.37,74.31,74.29,74.29,74.30,74.29,74.24,74.21,74.18,74.13,74.07,74.07,74.06,74.04,74.04,74.02,73.98,73.91,73.82,73.75,73.66,73.59
78.43,78.43,78.36,78.40,78.39,78.31,78.16,77.93,77.88,77.95,78.11,78.31,78.31,78.23,78.18,78.24,78.30,78.28,78.24,78.19,78.08,77.88,77.84,77.91,77.98,77.67,77.45,77.31,77.24,77.28,77.43,77.52,77.53,77.56,77.71,77.87,77.99,78.03,78.01,78.05,78.12,78.19,78.20,78.22,78.23,78.22,78.17,78.02,77.90,77.82,77.79,77.72,77.59,77.51,77.48,77.45,77.53,77.26,76.83,76.53,76.65,76.68,76.73,76.79,76.82,76.77,76.70,76.61,76.46,76.53,76.68,76.68,76.44,76.51,76.55,76.57,76.55,76.51,76.55,76.53,76.49,76.47,76.49,76.51,76.51,76.51,76.50,76.46,76.38,76.30,76.29,76.25,76.24,76.25,76.25,76.23,76.17,76.10,76.03,75.97,76.03,76.10,76.12,76.07,76.00,75.97,76.00,76.06,76.01,76.01,75.93,75.79,75.65,75.65,75.66,75.66,75.66,75.58,75.58,75.56,75.51,75.44,75.44,75.50,75.60,75.67,75.69,75.64,75.59,75.57,75.57,75.65,75.73,75.78,75.74,75.60,75.44,75.30,75.20,75.21,75.21,75.21,75.21,75.17,75.14,75.11,75.09,75.08,75.12,75.16,75.19,75.22,75.21,75.18,75.16,75.15,75.09,75.09,75.08,75.09,75.09,75.13,75.21,75.29,75.33,75.29,75.21,75.14,75.09,75.08,75.16,75.16,75.09,74.95,74.82,74.79,74.78,74.76,74.68,74.55,74.44,74.38,74.37,74.36,74.31,74.25,74.21,74.19,74.18,74.19,74.20,74.20,74.17,74.15,74.16,74.21,74.29,74.36,74.42,74.50,74.61,74.69,74.76,74.81,74.82,74.76,74.73,74.74,74.77,74.73,74.56,74.46,74.44,74.47,74.37,74.24,74.15,74.11,74.10,74.07,74.12,74.22,74.34,74.38,74.40,74.43,74.51,74.56,74.53,74.48,74.42,74.43,74.46,74.44,74.39,74.32,74.31,74.30,74.30,74.29,74.24,74.21,74.17,74.10,74.04,74.00,73.97,73.97,73.99,73.96,73.94,73.88,73.80,73.71,73.64,73.59
78.29,78.26,78.16,78.23,78.32,78.35,78.26,77.97,77.89,77.96,78.14,78.33,78.41,78.35,78.24,78.20,78.19,78.14,78.06,77.99,77.92,77.86,77.88,77.95,77.98,77.64,77.45,77.35,77.30,77.32,77.40,77.47,77.52,77.50,77.57,77.69,77.81,77.89,77.97,78.05,78.12,78.17,78.20,78.25,78.29,78.30,78.28,78.12,77.97,77.86,77.80,77.72,77.59,77.57,77.62,77.54,77.54,77.32,76.94,76.54,76.70,76.70,76.70,76.77,76.84,76.83,76.78,76.69,76.56,76.71,76.76,76.68,76.49,76.56,76.56,76.54,76.52,76.54,76.55,76.53,76.49,76.46,76.49,76.52,76.54,76.54,76.50,76.49,76.40,76.30,76.30,76.28,76.22,76.18,76.21,76.23,76.21,76.16,76.11,76.05,76.07,76.08,76.06,76.04,75.96,75.90,75.89,75.94,75.99,75.96,75.89,75.77,75.60,75.55,75.54,75.54,75.55,75.52,75.52,75.51,75.48,75.41,75.42,75.50,75.58,75.62,75.64,75.62,75.60,75.59,75.53,75.58,75.67,75.74,75.71,75.59,75.44,75.30,75.22,75.24,75.21,75.17,75.14,75.12,75.09,75.11,75.13,75.12,75.19,75.22,75.23,75.21,75.20,75.16,75.16,75.20,75.21,75.20,75.18,75.19,75.21,75.21,75.23,75.25,75.23,75.09,74.99,74.98,75.03,75.08,75.13,75.09,74.98,74.85,74.74,74.69,74.66,74.66,74.65,74.55,74.43,74.36,74.35,74.38,74.33,74.26,74.20,74.20,74.20,74.20,74.20,74.20,74.19,74.16,74.15,74.17,74.28,74.36,74.42,74.48,74.57,74.68,74.76,74.79,74.73,74.63,74.61,74.65,74.73,74.70,74.52,74.41,74.39,74.42,74.33,74.19,74.11,74.12,74.09,74.04,74.03,74.09,74.23,74.34,74.39,74.45,74.58,74.65,74.60,74.51,74.43,74.41,74.41,74.41,74.39,74.33,74.31,74.30,74.30,74.29,74.24,74.21,74.15,74.06,74.01,73.91,73.91,73.97,74.00,73.94,73.91,73.85,73.75,73.65,73.61,73.57
78.14,78.11,78.01,78.02,78.10,78.16,78.12,77.92,77.89,78.03,78.25,78.38,78.44,78.38,78.30,78.26,78.25,78.20,78.13,78.05,77.99,77.92,77.93,77.97,77.97,77.67,77.51,77.43,77.40,77.41,77.41,77.43,77.47,77.43,77.47,77.58,77.71,77.82,77.95,78.02,78.07,78.14,78.21,78.29,78.34,78.35,78.30,78.17,78.03,77.91,77.81,77.72,77.59,77.58,77.64,77.56,77.48,77.21,76.84,76.53,76.70,76.71,76.71,76.74,76.82,76.85,76.84,76.79,76.71,76.75,76.78,76.74,76.61,76.66,76.61,76.56,76.55,76.60,76.56,76.52,76.50,76.51,76.50,76.52,76.54,76.54,76.50,76.50,76.44,76.35,76.30,76.29,76.22,76.16,76.16,76.18,76.15,76.12,76.09,76.08,76.08,76.04,75.99,75.98,75.92,75.87,75.85,75.91,75.98,75.94,75.88,75.80,75.66,75.60,75.60,75.59,75.55,75.54,75.51,75.49,75.47,75.40,75.40,75.49,75.59,75.61,75.61,75.60,75.58,75.55,75.50,75.50,75.55,75.59,75.57,75.50,75.39,75.28,75.20,75.18,75.13,75.11,75.12,75.17,75.14,75.15,75.17,75.16,75.20,75.22,75.22,75.20,75.17,75.10,75.10,75.15,75.19,75.21,75.21,75.21,75.22,75.22,75.24,75.26,75.22,75.02,74.85,74.81,74.88,75.01,75.02,74.92,74.81,74.74,74.71,74.67,74.64,74.64,74.65,74.55,74.43,74.35,74.35,74.37,74.31,74.24,74.20,74.20,74.20,74.19,74.18,74.18,74.15,74.14,74.14,74.19,74.28,74.36,74.40,74.44,74.50,74.60,74.66,74.68,74.61,74.50,74.47,74.51,74.58,74.54,74.41,74.34,74.33,74.32,74.23,74.13,74.07,74.09,74.11,74.06,74.03,74.03,74.08,74.18,74.28,74.38,74.48,74.52,74.47,74.39,74.33,74.33,74.35,74.36,74.34,74.30,74.26,74.24,74.22,74.20,74.17,74.13,74.07,74.01,73.96,73.87,73.85,73.87,73.86,73.80,73.77,73.71,73.63,73.56,73.53,73.49
78.00,77.98,77.90,77.84,77.87,77.92,77.94,77.85,77.87,78.08,78.35,78.43,78.44,78.39,78.34,78.34,78.35,78.31,78.25,78.17,78.13,78.01,77.96,77.97,77.95,77.70,77.56,77.50,77.49,77.50,77.43,77.41,77.42,77.37,77.41,77.52,77.66,77.78,77.92,77.97,78.01,78.10,78.23,78.32,78.37,78.38,78.30,78.18,78.07,77.94,77.81,77.73,77.59,77.58,77.64,77.56,77.42,77.06,76.68,76.52,76.69,76.74,76.74,76.73,76.80,76.87,76.89,76.87,76.85,76.76,76.79,76.80,76.71,76.75,76.66,76.60,76.60,76.66,76.57,76.52,76.52,76.57,76.51,76.50,76.51,76.51,76.49,76.49,76.47,76.41,76.31,76.29,76.23,76.15,76.11,76.11,76.07,76.05,76.06,76.10,76.09,76.01,75.92,75.92,75.90,75.85,75.84,75.90,75.97,75.93,75.89,75.86,75.77,75.71,75.71,75.69,75.59,75.58,75.54,75.50,75.45,75.38,75.37,75.48,75.58,75.58,75.57,75.56,75.54,75.49,75.47,75.43,75.42,75.42,75.42,75.38,75.32,75.24,75.17,75.10,75.06,75.06,75.12,75.23,75.21,75.19,75.20,75.19,75.20,75.20,75.20,75.18,75.13,75.05,75.03,75.07,75.14,75.18,75.19,75.18,75.17,75.17,75.22,75.25,75.20,74.97,74.76,74.67,74.72,74.91,74.86,74.73,74.63,74.63,74.67,74.65,74.63,74.62,74.63,74.53,74.42,74.35,74.34,74.34,74.28,74.22,74.19,74.19,74.19,74.17,74.15,74.15,74.12,74.11,74.14,74.20,74.28,74.35,74.38,74.39,74.42,74.48,74.52,74.53,74.49,74.38,74.33,74.34,74.39,74.35,74.29,74.26,74.25,74.20,74.13,74.06,74.03,74.05,74.12,74.09,74.04,74.00,73.94,74.02,74.15,74.27,74.32,74.32,74.29,74.24,74.20,74.23,74.28,74.29,74.26,74.24,74.19,74.16,74.13,74.09,74.08,74.03,73.99,73.96,73.91,73.85,73.80,73.76,73.70,73.67,73.63,73.58,73.52,73.49,73.45,73.43
77.96,77.93,77.89,77.85,77.83,77.84,77.85,77.82,77.80,77.98,78.28,78.44,78.43,78.40,78.37,78.33,78.36,78.34,78.27,78.18,78.13,78.04,77.95,77.90,77.88,77.63,77.52,77.48,77.46,77.46,77.42,77.41,77.42,77.38,77.40,77.52,77.65,77.73,77.80,77.87,77.95,78.05,78.23,78.34,78.39,78.37,78.26,78.12,78.01,77.91,77.80,77.72,77.63,77.59,77.61,77.58,77.44,77.03,76.63,76.52,76.72,76.81,76.84,76.84,76.86,76.89,76.90,76.89,76.88,76.80,76.80,76.78,76.71,76.67,76.66,76.66,76.65,76.63,76.59,76.54,76.52,76.58,76.46,76.39,76.39,76.43,76.43,76.43,76.42,76.40,76.37,76.31,76.23,76.13,76.03,76.03,76.02,76.02,76.03,76.10,76.09,76.03,75.95,75.91,75.90,75.88,75.85,75.85,75.91,75.91,75.90,75.88,75.85,75.79,75.77,75.73,75.67,75.66,75.63,75.53,75.39,75.33,75.34,75.42,75.49,75.43,75.40,75.40,75.39,75.35,75.36,75.38,75.37,75.34,75.33,75.29,75.21,75.14,75.12,75.11,75.11,75.13,75.18,75.21,75.20,75.19,75.20,75.20,75.20,75.19,75.15,75.11,75.08,75.02,75.02,75.06,75.13,75.17,75.11,75.03,74.97,75.00,75.06,75.07,74.98,74.79,74.66,74.61,74.64,74.69,74.63,74.54,74.49,74.50,74.55,74.52,74.50,74.50,74.48,74.42,74.36,74.32,74.28,74.27,74.21,74.16,74.13,74.12,74.12,74.13,74.15,74.16,74.15,74.13,74.13,74.15,74.24,74.31,74.34,74.33,74.32,74.34,74.35,74.35,74.35,74.26,74.20,74.20,74.23,74.22,74.18,74.15,74.13,74.10,74.05,74.02,74.01,74.02,74.05,74.05,74.03,73.99,73.93,73.94,73.99,74.06,74.10,74.13,74.13,74.12,74.13,74.15,74.15,74.15,74.14,74.14,74.11,74.07,74.04,74.03,74.04,74.02,73.98,73.93,73.88,73.85,73.82,73.78,73.74,73.78,73.72,73.64,73.58,73.56,73.55,73.54
78.05,78.03,78.00,77.97,77.92,77.87,77.85,77.80,77.77,77.90,78.16,78.34,78.36,78.37,78.36,78.35,78.38,78.37,78.30,78.17,78.12,78.05,77.96,77.88,77.84,77.63,77.55,77.51,77.47,77.44,77.42,77.41,77.41,77.39,77.35,77.42,77.53,77.60,77.64,77.76,77.86,77.96,78.19,78.26,78.24,78.18,78.17,78.04,77.92,77.84,77.79,77.72,77.66,77.63,77.61,77.59,77.48,77.09,76.68,76.53,76.74,76.89,76.96,76.96,76.95,76.92,76.88,76.85,76.83,76.80,76.79,76.78,76.72,76.66,76.65,76.66,76.64,76.58,76.59,76.57,76.56,76.59,76.44,76.35,76.34,76.40,76.40,76.40,76.38,76.36,76.35,76.27,76.19,76.10,75.99,75.97,75.99,76.02,76.06,76.13,76.10,76.02,75.94,75.89,75.88,75.86,75.83,75.81,75.88,75.88,75.88,75.88,75.86,75.80,75.77,75.73,75.67,75.67,75.62,75.50,75.34,75.28,75.29,75.36,75.39,75.33,75.28,75.27,75.26,75.23,75.27,75.32,75.31,75.27,75.24,75.20,75.14,75.10,75.11,75.12,75.14,75.16,75.18,75.18,75.17,75.17,75.19,75.19,75.19,75.16,75.11,75.04,75.02,74.99,75.00,75.02,75.05,75.06,75.00,74.91,74.84,74.87,74.90,74.88,74.80,74.66,74.58,74.55,74.55,74.54,74.47,74.42,74.40,74.42,74.44,74.42,74.41,74.40,74.38,74.34,74.30,74.27,74.23,74.21,74.18,74.15,74.12,74.10,74.10,74.11,74.12,74.13,74.14,74.12,74.11,74.14,74.23,74.30,74.33,74.33,74.29,74.27,74.26,74.26,74.27,74.22,74.19,74.18,74.19,74.17,74.13,74.11,74.11,74.12,74.09,74.06,74.03,74.02,74.05,74.06,74.04,73.99,73.94,73.92,73.93,73.94,73.96,73.99,74.01,74.04,74.07,74.08,74.06,74.07,74.08,74.09,74.06,74.04,74.03,74.03,74.05,74.04,73.99,73.93,73.89,73.89,73.88,73.86,73.83,73.89,73.83,73.75,73.69,73.69,73.69,73.69
78.25,78.25,78.20,78.18,78.10,78.01,77.91,77.78,77.77,77.85,77.99,78.16,78.25,78.29,78.32,78.37,78.39,78.40,78.31,78.16,78.11,78.05,77.97,77.90,77.82,77.68,77.62,77.57,77.51,77.43,77.41,77.40,77.40,77.40,77.28,77.26,77.31,77.39,77.47,77.64,77.76,77.84,78.10,78.10,77.96,77.86,78.05,77.95,77.81,77.74,77.77,77.72,77.70,77.67,77.62,77.60,77.54,77.23,76.83,76.54,76.77,76.97,77.09,77.11,77.04,76.95,76.86,76.77,76.70,76.76,76.78,76.77,76.76,76.71,76.64,76.60,76.59,76.53,76.58,76.61,76.61,76.59,76.44,76.34,76.34,76.40,76.40,76.39,76.35,76.30,76.27,76.20,76.13,76.06,75.98,75.92,75.96,76.04,76.12,76.18,76.11,75.98,75.88,75.87,75.85,75.80,75.78,75.80,75.86,75.86,75.85,75.85,75.83,75.76,75.73,75.69,75.63,75.61,75.54,75.42,75.28,75.24,75.25,75.29,75.30,75.25,75.20,75.16,75.13,75.13,75.19,75.25,75.26,75.21,75.15,75.11,75.10,75.11,75.12,75.15,75.16,75.16,75.16,75.14,75.13,75.14,75.16,75.16,75.16,75.13,75.07,74.99,74.96,74.96,74.97,74.97,74.91,74.88,74.84,74.81,74.76,74.76,74.74,74.70,74.64,74.59,74.53,74.48,74.45,74.43,74.38,74.35,74.35,74.37,74.36,74.34,74.33,74.32,74.32,74.28,74.25,74.22,74.18,74.17,74.19,74.18,74.14,74.12,74.13,74.10,74.07,74.07,74.09,74.09,74.10,74.14,74.23,74.31,74.36,74.36,74.30,74.26,74.24,74.24,74.25,74.25,74.26,74.26,74.25,74.19,74.15,74.13,74.16,74.23,74.22,74.16,74.09,74.06,74.11,74.11,74.06,73.99,73.96,73.96,73.93,73.89,73.86,73.89,73.93,73.98,74.04,74.03,74.01,74.03,74.07,74.06,74.04,74.05,74.06,74.07,74.09,74.09,74.04,73.96,73.95,73.96,73.97,73.97,73.97,74.00,73.95,73.88,73.85,73.85,73.86,73.86
78.41,78.41,78.38,78.36,78.26,78.12,77.97,77.76,77.72,77.79,77.95,78.16,78.22,78.24,78.25,78.25,78.25,78.20,78.09,77.97,77.96,77.93,77.87,77.78,77.74,77.65,77.59,77.53,77.49,77.42,77.39,77.38,77.38,77.35,77.25,77.26,77.33,77.39,77.41,77.54,77.65,77.70,77.83,77.71,77.49,77.43,77.88,77.85,77.77,77.69,77.62,77.62,77.61,77.63,77.66,77.61,77.57,77.40,77.06,76.57,76.95,77.12,77.20,77.24,77.20,77.08,76.89,76.71,76.66,76.66,76.64,76.62,76.60,76.60,76.56,76.54,76.55,76.52,76.54,76.57,76.58,76.51,76.38,76.29,76.28,76.32,76.32,76.29,76.26,76.23,76.17,76.12,76.08,76.04,75.96,75.91,75.93,75.97,76.03,76.08,76.02,75.90,75.80,75.79,75.74,75.73,75.72,75.71,75.73,75.70,75.68,75.66,75.65,75.61,75.59,75.57,75.53,75.46,75.40,75.33,75.24,75.20,75.23,75.25,75.24,75.22,75.21,75.20,75.17,75.13,75.14,75.16,75.16,75.13,75.10,75.12,75.11,75.11,75.12,75.10,75.12,75.14,75.14,75.13,75.15,75.18,75.20,75.20,75.20,75.18,75.12,75.04,75.00,74.98,74.95,74.92,74.88,74.86,74.84,74.81,74.77,74.77,74.75,74.72,74.69,74.66,74.61,74.57,74.56,74.56,74.58,74.60,74.61,74.63,74.62,74.62,74.63,74.63,74.57,74.46,74.35,74.27,74.22,74.19,74.20,74.19,74.16,74.15,74.13,74.10,74.06,74.08,74.08,74.07,74.10,74.18,74.27,74.33,74.37,74.38,74.33,74.31,74.31,74.32,74.32,74.31,74.32,74.32,74.30,74.25,74.23,74.22,74.26,74.39,74.41,74.33,74.23,74.19,74.21,74.19,74.13,74.07,74.03,74.03,73.99,73.92,73.84,73.82,73.83,73.89,73.98,73.98,73.98,74.01,74.03,74.02,74.04,74.09,74.12,74.11,74.10,74.10,74.04,73.96,73.96,73.98,73.99,73.98,73.95,73.95,73.90,73.85,73.83,73.83,73.83,73.83
78.51,78.51,78.48,78.43,78.30,78.13,77.96,77.74,77.68,77.76,77.95,78.16,78.18,78.15,78.11,78.08,78.10,78.03,77.92,77.82,77.83,77.80,77.73,77.66,77.67,77.62,77.55,77.50,77.47,77.39,77.36,77.35,77.34,77.30,77.21,77.24,77.33,77.38,77.35,77.45,77.53,77.55,77.54,77.37,77.13,77.09,77.66,77.69,77.66,77.57,77.44,77.44,77.41,77.45,77.53,77.48,77.44,77.36,77.08,76.58,77.00,77.15,77.20,77.23,77.21,77.10,76.87,76.63,76.59,76.55,76.51,76.47,76.45,76.48,76.45,76.44,76.46,76.46,76.45,76.48,76.48,76.41,76.31,76.23,76.21,76.23,76.21,76.18,76.17,76.15,76.10,76.06,76.04,76.01,75.95,75.91,75.90,75.92,75.95,75.98,75.94,75.85,75.78,75.79,75.70,75.71,75.71,75.68,75.66,75.61,75.56,75.53,75.52,75.50,75.49,75.47,75.43,75.38,75.34,75.29,75.25,75.20,75.22,75.21,75.19,75.21,75.22,75.23,75.20,75.15,75.12,75.11,75.12,75.13,75.13,75.16,75.16,75.14,75.13,75.08,75.10,75.14,75.17,75.16,75.19,75.23,75.26,75.25,75.24,75.21,75.16,75.10,75.05,75.00,74.95,74.91,74.89,74.89,74.87,74.84,74.80,74.79,74.78,74.77,74.77,74.76,74.73,74.71,74.71,74.73,74.78,74.82,74.84,74.84,74.84,74.84,74.86,74.86,74.75,74.56,74.42,74.31,74.25,74.23,74.22,74.20,74.17,74.16,74.13,74.08,74.05,74.07,74.04,74.04,74.09,74.19,74.26,74.32,74.38,74.40,74.38,74.36,74.37,74.38,74.39,74.36,74.36,74.36,74.35,74.31,74.29,74.28,74.32,74.46,74.51,74.44,74.35,74.30,74.30,74.25,74.19,74.12,74.09,74.09,74.04,73.96,73.86,73.78,73.76,73.82,73.93,73.94,73.96,73.99,74.01,74.00,74.05,74.11,74.15,74.12,74.10,74.10,74.04,73.96,73.97,73.99,73.99,73.97,73.92,73.90,73.86,73.82,73.79,73.80,73.81,73.81
78.51,78.51,78.44,78.31,78.15,78.00,77.85,77.69,77.67,77.79,78.00,78.14,78.14,78.01,77.87,77.83,77.94,77.92,77.84,77.78,77.77,77.66,77.56,77.53,77.62,77.57,77.52,77.49,77.45,77.33,77.30,77.30,77.30,77.27,77.17,77.20,77.29,77.34,77.26,77.35,77.42,77.40,77.23,77.14,76.96,76.92,77.36,77.42,77.43,77.35,77.20,77.12,77.05,77.06,77.13,77.12,77.08,76.96,76.76,76.54,76.83,76.96,77.00,76.98,76.95,76.94,76.76,76.51,76.47,76.44,76.39,76.35,76.33,76.33,76.29,76.29,76.30,76.30,76.27,76.28,76.30,76.27,76.23,76.16,76.12,76.12,76.07,76.06,76.05,76.06,76.07,76.02,76.01,75.99,75.95,75.91,75.90,75.89,75.88,75.89,75.88,75.86,75.87,75.92,75.78,75.78,75.81,75.77,75.70,75.61,75.53,75.48,75.48,75.48,75.46,75.42,75.35,75.42,75.41,75.37,75.31,75.25,75.21,75.17,75.17,75.22,75.25,75.24,75.21,75.19,75.16,75.14,75.19,75.26,75.28,75.27,75.25,75.21,75.16,75.10,75.12,75.19,75.26,75.25,75.28,75.32,75.35,75.34,75.28,75.22,75.17,75.13,75.12,75.04,74.99,74.98,74.97,74.97,74.95,74.92,74.87,74.85,74.83,74.84,74.87,74.89,74.91,74.92,74.93,74.94,74.98,75.00,75.00,74.97,74.97,74.97,74.98,74.94,74.79,74.55,74.41,74.34,74.29,74.29,74.26,74.23,74.19,74.16,74.09,74.04,74.01,74.01,73.98,73.99,74.04,74.12,74.20,74.30,74.39,74.44,74.44,74.40,74.39,74.41,74.44,74.39,74.37,74.37,74.38,74.34,74.31,74.30,74.32,74.38,74.45,74.45,74.42,74.39,74.35,74.28,74.21,74.14,74.11,74.11,74.07,74.01,73.93,73.81,73.75,73.78,73.89,73.92,73.95,73.98,74.00,74.00,74.05,74.11,74.14,74.11,74.09,74.09,74.03,73.95,73.97,73.99,73.96,73.92,73.90,73.86,73.83,73.80,73.76,73.79,73.80,73.81
78.32,78.31,78.25,78.14,78.05,77.94,77.81,77.67,77.65,77.73,77.88,77.95,77.95,77.82,77.68,77.64,77.76,77.74,77.68,77.63,77.60,77.50,77.42,77.41,77.49,77.43,77.42,77.41,77.37,77.27,77.24,77.23,77.22,77.20,77.14,77.14,77.18,77.23,77.15,77.20,77.25,77.24,77.11,77.06,76.97,76.94,77.16,77.17,77.17,77.12,77.03,76.97,76.90,76.87,76.91,77.03,77.04,76.92,76.73,76.53,76.66,76.77,76.83,76.84,76.83,76.79,76.65,76.51,76.58,76.57,76.48,76.39,76.34,76.34,76.32,76.31,76.33,76.36,76.27,76.26,76.29,76.30,76.26,76.26,76.26,76.23,76.19,76.16,76.15,76.15,76.17,76.14,76.09,76.05,76.07,76.04,76.06,76.05,76.01,75.97,75.92,75.96,76.08,76.20,76.05,76.06,76.08,76.02,75.94,75.81,75.70,75.61,75.57,75.51,75.47,75.43,75.36,75.42,75.41,75.39,75.35,75.28,75.22,75.21,75.21,75.21,75.23,75.22,75.19,75.18,75.23,75.26,75.32,75.37,75.35,75.30,75.28,75.24,75.17,75.11,75.12,75.18,75.24,75.25,75.30,75.35,75.38,75.36,75.29,75.22,75.17,75.14,75.16,75.12,75.09,75.07,75.05,75.05,75.04,75.02,74.98,74.94,74.92,74.93,74.96,75.01,75.09,75.10,75.09,75.08,75.08,75.08,75.06,75.03,75.00,75.00,74.99,74.96,74.84,74.64,74.49,74.41,74.41,74.44,74.35,74.25,74.16,74.11,74.08,74.04,74.01,74.00,73.99,73.97,73.99,74.06,74.15,74.27,74.36,74.41,74.40,74.36,74.33,74.33,74.35,74.35,74.36,74.39,74.41,74.36,74.32,74.31,74.34,74.43,74.49,74.49,74.47,74.45,74.40,74.35,74.29,74.23,74.20,74.17,74.13,74.07,73.99,73.89,73.81,73.78,73.80,73.81,73.88,73.94,73.98,74.00,74.04,74.07,74.07,74.04,74.03,74.03,74.00,73.95,73.97,73.98,73.95,73.93,73.92,73.89,73.87,73.84,73.80,73.83,73.83,73.84
78.08,78.07,78.04,77.96,77.94,77.89,77.78,77.66,77.63,77.66,77.72,77.74,77.74,77.65,77.54,77.51,77.58,77.55,77.51,77.47,77.44,77.37,77.33,77.32,77.36,77.31,77.32,77.33,77.30,77.24,77.22,77.21,77.19,77.15,77.12,77.08,77.08,77.13,77.07,77.05,77.07,77.11,77.06,77.07,77.07,77.06,77.06,77.00,76.97,76.96,76.96,76.96,76.92,76.87,76.89,77.11,77.14,77.05,76.84,76.53,76.53,76.61,76.72,76.80,76.79,76.69,76.59,76.58,76.76,76.78,76.62,76.45,76.40,76.40,76.40,76.40,76.43,76.52,76.36,76.31,76.33,76.38,76.33,76.39,76.42,76.37,76.36,76.31,76.28,76.27,76.28,76.26,76.18,76.15,76.20,76.20,76.24,76.23,76.17,76.10,75.99,76.08,76.29,76.46,76.33,76.34,76.34,76.27,76.18,76.04,75.92,75.80,75.71,75.56,75.48,75.44,75.40,75.40,75.40,75.39,75.36,75.29,75.24,75.24,75.26,75.21,75.21,75.20,75.19,75.19,75.32,75.40,75.45,75.46,75.39,75.33,75.29,75.25,75.16,75.11,75.12,75.16,75.20,75.23,75.30,75.36,75.39,75.37,75.31,75.24,75.18,75.16,75.20,75.20,75.19,75.17,75.12,75.12,75.12,75.11,75.09,75.04,75.03,75.03,75.04,75.12,75.23,75.25,75.22,75.19,75.14,75.12,75.10,75.05,75.00,75.00,74.98,74.95,74.89,74.75,74.59,74.51,74.56,74.60,74.46,74.28,74.13,74.07,74.09,74.07,74.02,74.01,74.02,73.97,73.95,74.00,74.12,74.23,74.32,74.36,74.34,74.30,74.26,74.24,74.25,74.29,74.35,74.40,74.42,74.37,74.34,74.34,74.39,74.51,74.55,74.53,74.51,74.49,74.44,74.41,74.37,74.33,74.29,74.24,74.18,74.11,74.04,73.96,73.89,73.80,73.71,73.70,73.79,73.87,73.93,73.98,74.02,74.02,73.99,73.96,73.97,73.97,73.96,73.96,73.98,73.97,73.95,73.94,73.94,73.94,73.92,73.89,73.87,73.88,73.86,73.88
77.89,77.89,77.88,77.82,77.80,77.76,77.68,77.62,77.64,77.65,77.64,77.60,77.58,77.55,77.51,77.50,77.48,77.45,77.43,77.42,77.40,77.42,77.39,77.33,77.32,77.30,77.33,77.36,77.36,77.30,77.42,77.46,77.39,77.23,77.15,77.13,77.15,77.18,77.07,76.99,77.00,77.09,77.14,77.24,77.35,77.39,77.26,77.13,77.07,77.10,77.21,77.37,77.44,77.48,77.52,77.54,77.54,77.48,77.17,76.52,76.56,76.64,76.80,76.99,76.96,76.83,76.76,76.80,76.99,77.01,76.72,76.46,76.42,76.47,76.53,76.59,76.67,76.84,76.56,76.46,76.45,76.42,76.45,76.44,76.41,76.40,76.39,76.36,76.32,76.29,76.29,76.23,76.23,76.26,76.29,76.33,76.31,76.29,76.26,76.22,76.07,76.18,76.39,76.46,76.34,76.36,76.38,76.32,76.19,76.13,76.09,76.04,75.89,75.63,75.44,75.37,75.40,75.40,75.40,75.39,75.35,75.28,75.24,75.22,75.23,75.25,75.25,75.29,75.30,75.30,75.40,75.46,75.49,75.48,75.42,75.39,75.32,75.24,75.15,75.11,75.11,75.15,75.19,75.23,75.31,75.37,75.40,75.39,75.36,75.30,75.24,75.21,75.21,75.21,75.21,75.20,75.19,75.20,75.20,75.18,75.15,75.12,75.12,75.12,75.13,75.19,75.27,75.30,75.30,75.26,75.20,75.16,75.10,75.02,74.98,74.97,74.97,74.95,74.92,74.82,74.71,74.66,74.69,74.68,74.54,74.35,74.16,74.10,74.12,74.09,74.04,74.02,74.04,73.99,73.96,73.99,74.09,74.18,74.26,74.31,74.31,74.27,74.23,74.22,74.25,74.29,74.33,74.36,74.40,74.41,74.43,74.47,74.52,74.57,74.57,74.54,74.50,74.47,74.41,74.38,74.36,74.34,74.33,74.27,74.20,74.11,74.04,73.98,73.91,73.83,73.74,73.67,73.69,73.74,73.80,73.90,73.95,73.95,73.93,73.93,73.95,73.95,73.98,74.01,74.01,74.00,73.97,73.95,73.94,73.94,73.92,73.90,73.89,73.86,73.85,73.84
77.83,77.81,77.78,77.78,77.79,77.78,77.74,77.70,77.72,77.75,77.75,77.72,77.71,77.71,77.70,77.66,77.62,77.58,77.56,77.54,77.53,77.59,77.56,77.47,77.43,77.40,77.42,77.46,77.46,77.40,77.50,77.55,77.51,77.38,77.30,77.27,77.25,77.23,77.12,77.05,77.07,77.16,77.23,77.38,77.52,77.58,77.49,77.32,77.22,77.23,77.39,77.61,77.69,77.74,77.74,77.68,77.67,77.61,77.27,76.50,76.54,76.66,76.89,77.15,77.11,77.01,76.96,77.00,77.13,77.14,76.88,76.64,76.59,76.58,76.66,76.74,76.82,76.95,76.68,76.58,76.58,76.58,76.59,76.52,76.45,76.43,76.40,76.38,76.32,76.27,76.30,76.22,76.25,76.31,76.35,76.39,76.35,76.32,76.30,76.26,76.15,76.26,76.43,76.45,76.35,76.39,76.42,76.35,76.22,76.18,76.19,76.16,75.98,75.67,75.45,75.35,75.41,75.40,75.38,75.35,75.30,75.25,75.23,75.23,75.26,75.30,75.34,75.41,75.45,75.45,75.47,75.50,75.52,75.52,75.47,75.43,75.33,75.21,75.13,75.10,75.10,75.12,75.18,75.26,75.35,75.40,75.42,75.42,75.40,75.35,75.31,75.28,75.28,75.26,75.26,75.26,75.25,75.25,75.25,75.24,75.21,75.20,75.20,75.20,75.21,75.26,75.32,75.35,75.35,75.31,75.24,75.17,75.10,75.00,74.97,74.96,74.96,74.95,74.93,74.86,74.79,74.75,74.76,74.72,74.58,74.38,74.17,74.10,74.14,74.12,74.05,74.00,74.03,73.99,73.97,74.00,74.10,74.16,74.23,74.30,74.32,74.29,74.24,74.22,74.24,74.30,74.33,74.36,74.41,74.49,74.51,74.56,74.61,74.64,74.59,74.53,74.48,74.44,74.41,74.38,74.37,74.36,74.36,74.32,74.24,74.15,74.07,74.01,73.94,73.87,73.78,73.70,73.67,73.66,73.68,73.77,73.84,73.85,73.87,73.91,73.94,73.97,74.02,74.07,74.05,74.02,73.99,73.96,73.93,73.93,73.90,73.86,73.81,73.73,73.70,73.68
77.85,77.81,77.74,77.82,77.88,77.91,77.90,77.85,77.87,77.92,77.99,78.02,78.02,78.05,78.04,77.93,77.91,77.87,77.82,77.77,77.75,77.83,77.80,77.70,77.64,77.55,77.56,77.59,77.59,77.53,77.51,77.54,77.58,77.58,77.54,77.46,77.37,77.30,77.22,77.19,77.22,77.28,77.33,77.49,77.61,77.69,77.74,77.56,77.39,77.35,77.53,77.73,77.78,77.74,77.68,77.61,77.62,77.55,77.20,76.48,76.49,76.68,76.98,77.29,77.26,77.20,77.18,77.20,77.20,77.20,77.08,76.94,76.86,76.72,76.80,76.88,76.90,76.90,76.74,76.68,76.73,76.80,76.74,76.61,76.51,76.45,76.41,76.38,76.29,76.22,76.30,76.22,76.24,76.31,76.40,76.40,76.38,76.35,76.32,76.25,76.21,76.32,76.44,76.43,76.37,76.43,76.46,76.38,76.25,76.22,76.22,76.18,76.00,75.70,75.47,75.38,75.44,75.40,75.36,75.30,75.23,75.20,75.21,75.26,75.32,75.36,75.46,75.55,75.62,75.62,75.55,75.53,75.55,75.58,75.54,75.47,75.32,75.18,75.10,75.09,75.07,75.09,75.17,75.30,75.41,75.45,75.45,75.45,75.44,75.41,75.38,75.37,75.38,75.35,75.33,75.33,75.31,75.30,75.29,75.28,75.26,75.27,75.28,75.28,75.28,75.33,75.39,75.41,75.39,75.35,75.26,75.17,75.08,74.99,74.96,74.96,74.96,74.96,74.94,74.88,74.83,74.80,74.79,74.72,74.58,74.37,74.16,74.10,74.17,74.14,74.04,73.96,73.99,73.97,73.97,74.04,74.13,74.17,74.24,74.33,74.37,74.33,74.27,74.22,74.22,74.32,74.36,74.39,74.45,74.58,74.59,74.63,74.69,74.72,74.61,74.51,74.44,74.41,74.43,74.42,74.40,74.39,74.39,74.37,74.31,74.21,74.12,74.05,73.98,73.90,73.83,73.78,73.70,73.61,73.56,73.61,73.69,73.75,73.81,73.88,73.95,74.02,74.09,74.14,74.11,74.05,74.01,73.97,73.92,73.90,73.86,73.79,73.67,73.52,73.47,73.45
77.87,77.79,77.76,77.86,77.93,77.97,77.97,77.93,77.96,78.01,78.08,78.11,78.08,78.09,78.11,78.09,78.02,77.98,77.95,77.94,77.92,77.94,77.91,77.83,77.77,77.62,77.61,77.63,77.61,77.55,77.55,77.58,77.60,77.55,77.54,77.53,77.51,77.49,77.43,77.41,77.43,77.47,77.45,77.52,77.60,77.69,77.79,77.70,77.56,77.51,77.63,77.71,77.71,77.68,77.63,77.61,77.62,77.58,77.24,76.45,76.48,76.63,76.92,77.27,77.31,77.27,77.23,77.20,77.20,77.20,77.12,77.02,76.94,76.82,76.81,76.85,76.90,76.90,76.79,76.74,76.75,76.80,76.78,76.64,76.50,76.42,76.40,76.38,76.28,76.18,76.26,76.21,76.23,76.29,76.37,76.42,76.37,76.35,76.37,76.32,76.36,76.41,76.44,76.43,76.40,76.44,76.43,76.30,76.07,76.03,76.01,75.97,75.87,75.70,75.53,75.42,75.41,75.33,75.30,75.25,75.18,75.20,75.24,75.31,75.39,75.44,75.46,75.52,75.59,75.61,75.54,75.52,75.53,75.54,75.52,75.43,75.29,75.16,75.10,75.09,75.05,75.08,75.18,75.33,75.47,75.50,75.48,75.49,75.53,75.55,75.54,75.52,75.48,75.41,75.37,75.35,75.31,75.30,75.30,75.29,75.29,75.29,75.30,75.34,75.39,75.45,75.45,75.42,75.39,75.35,75.27,75.19,75.11,75.02,74.99,74.99,74.99,74.98,74.97,74.94,74.90,74.83,74.74,74.63,74.49,74.32,74.15,74.05,74.07,74.05,73.99,73.95,73.97,73.94,73.95,74.02,74.08,74.12,74.22,74.36,74.44,74.45,74.45,74.43,74.37,74.17,73.98,73.97,74.18,74.46,74.50,74.53,74.57,74.58,74.49,74.44,74.43,74.44,74.47,74.45,74.42,74.40,74.43,74.44,74.39,74.30,74.23,74.14,74.00,73.90,73.86,73.85,73.77,73.68,73.61,73.60,73.63,73.67,73.75,73.86,73.95,74.00,74.03,74.06,74.08,74.08,74.05,74.01,73.97,73.93,73.87,73.79,73.69,73.51,73.44,73.42
77.90,77.79,77.77,77.87,77.95,78.01,78.03,77.98,78.01,78.07,78.12,78.14,78.09,78.09,78.13,78.18,78.08,78.05,78.05,78.05,78.02,78.01,77.98,77.91,77.85,77.69,77.67,77.67,77.63,77.57,77.58,77.61,77.61,77.53,77.53,77.55,77.57,77.58,77.56,77.56,77.57,77.58,77.53,77.53,77.58,77.67,77.81,77.77,77.67,77.63,77.70,77.70,77.66,77.61,77.59,77.58,77.61,77.59,77.25,76.43,76.46,76.60,76.89,77.24,77.32,77.31,77.27,77.22,77.20,77.20,77.15,77.07,76.97,76.84,76.79,76.83,76.90,76.90,76.84,76.79,76.76,76.78,76.76,76.64,76.50,76.40,76.40,76.39,76.27,76.15,76.23,76.21,76.23,76.27,76.34,76.42,76.36,76.35,76.40,76.38,76.45,76.46,76.44,76.42,76.41,76.42,76.38,76.23,75.96,75.90,75.84,75.76,75.72,75.65,75.52,75.40,75.35,75.27,75.27,75.25,75.20,75.23,75.25,75.35,75.45,75.49,75.47,75.51,75.56,75.59,75.52,75.51,75.53,75.53,75.50,75.40,75.29,75.18,75.12,75.10,75.08,75.11,75.21,75.38,75.52,75.55,75.54,75.57,75.62,75.66,75.65,75.60,75.53,75.44,75.40,75.38,75.35,75.33,75.31,75.30,75.28,75.26,75.28,75.33,75.40,75.46,75.43,75.38,75.34,75.32,75.26,75.19,75.12,75.05,75.03,75.03,75.02,75.01,75.01,75.01,74.95,74.84,74.68,74.55,74.42,74.28,74.13,74.01,74.00,73.98,73.94,73.92,73.93,73.90,73.90,73.97,74.03,74.08,74.19,74.34,74.45,74.50,74.55,74.55,74.46,74.05,73.65,73.53,73.74,74.07,74.19,74.28,74.33,74.34,74.29,74.28,74.31,74.38,74.45,74.44,74.41,74.40,74.43,74.43,74.37,74.31,74.28,74.18,74.01,73.90,73.89,73.91,73.84,73.75,73.66,73.61,73.58,73.59,73.67,73.80,73.92,73.95,73.96,73.97,74.05,74.09,74.08,74.04,74.00,73.94,73.88,73.82,73.72,73.52,73.43,73.40
77.95,77.81,77.77,77.85,77.94,78.03,78.07,78.00,78.02,78.07,78.11,78.08,78.04,78.05,78.10,78.17,78.08,78.06,78.08,78.08,78.03,78.04,78.00,77.92,77.85,77.76,77.74,77.73,77.67,77.58,77.58,77.61,77.61,77.53,77.48,77.49,77.52,77.54,77.58,77.59,77.60,77.59,77.53,77.51,77.54,77.63,77.78,77.75,77.71,77.71,77.75,77.70,77.61,77.55,77.54,77.54,77.58,77.56,77.22,76.43,76.42,76.60,76.89,77.19,77.28,77.30,77.29,77.26,77.21,77.20,77.15,77.06,76.92,76.77,76.73,76.79,76.89,76.90,76.88,76.80,76.73,76.73,76.67,76.61,76.51,76.40,76.40,76.39,76.26,76.13,76.20,76.20,76.21,76.25,76.32,76.40,76.35,76.35,76.40,76.40,76.43,76.46,76.46,76.40,76.39,76.36,76.28,76.15,75.92,75.87,75.73,75.56,75.55,75.52,75.41,75.29,75.23,75.22,75.27,75.32,75.33,75.28,75.26,75.37,75.49,75.50,75.50,75.51,75.54,75.57,75.51,75.51,75.54,75.56,75.48,75.40,75.32,75.24,75.17,75.12,75.15,75.20,75.27,75.43,75.55,75.60,75.63,75.68,75.71,75.72,75.68,75.57,75.49,75.43,75.41,75.43,75.44,75.38,75.33,75.28,75.24,75.17,75.20,75.24,75.27,75.32,75.30,75.26,75.22,75.22,75.20,75.16,75.10,75.05,75.08,75.09,75.07,75.05,75.07,75.09,74.98,74.81,74.62,74.49,74.37,74.24,74.10,73.98,73.96,73.94,73.91,73.86,73.86,73.83,73.83,73.89,73.96,74.05,74.16,74.27,74.35,74.43,74.51,74.54,74.46,73.96,73.41,73.08,73.06,73.32,73.58,73.78,73.91,73.98,73.97,73.98,74.05,74.19,74.33,74.38,74.38,74.37,74.38,74.28,74.21,74.20,74.25,74.14,74.00,73.92,73.93,73.93,73.89,73.82,73.73,73.62,73.54,73.51,73.56,73.68,73.84,73.86,73.85,73.88,74.02,74.08,74.10,74.08,74.02,73.95,73.91,73.87,73.78,73.55,73.45,73.40
77.96,77.80,77.74,77.83,77.93,78.01,78.05,78.02,78.03,78.04,78.06,78.06,78.03,78.05,78.09,78.14,78.11,78.08,78.07,78.09,78.06,78.07,78.03,77.96,77.88,77.81,77.76,77.73,77.69,77.60,77.59,77.62,77.62,77.51,77.44,77.44,77.46,77.47,77.50,77.53,77.56,77.58,77.53,77.51,77.54,77.61,77.73,77.69,77.69,77.71,77.73,77.70,77.60,77.49,77.45,77.54,77.55,77.50,77.17,76.38,76.36,76.53,76.81,77.13,77.31,77.31,77.30,77.27,77.21,77.17,77.13,77.08,77.00,76.81,76.77,76.81,76.90,76.90,76.89,76.76,76.64,76.71,76.68,76.63,76.53,76.41,76.41,76.43,76.34,76.21,76.21,76.25,76.26,76.28,76.32,76.39,76.35,76.33,76.35,76.35,76.39,76.44,76.47,76.43,76.35,76.29,76.21,76.12,76.00,75.88,75.66,75.44,75.41,75.42,75.36,75.29,75.25,75.27,75.28,75.30,75.30,75.24,75.25,75.37,75.50,75.50,75.50,75.51,75.54,75.59,75.56,75.56,75.57,75.58,75.54,75.49,75.43,75.37,75.30,75.28,75.30,75.34,75.39,75.46,75.53,75.59,75.64,75.69,75.70,75.70,75.65,75.53,75.43,75.39,75.37,75.37,75.40,75.38,75.35,75.31,75.27,75.23,75.24,75.26,75.27,75.29,75.25,75.22,75.20,75.18,75.15,75.11,75.07,75.04,75.08,75.08,75.06,75.03,75.05,75.05,74.93,74.76,74.59,74.45,74.33,74.21,74.07,73.97,73.97,73.97,73.93,73.87,73.86,73.83,73.83,73.88,73.95,74.02,74.11,74.21,74.31,74.42,74.52,74.55,74.43,73.93,73.38,72.99,72.87,73.02,73.24,73.43,73.56,73.62,73.64,73.71,73.83,74.03,74.24,74.33,74.34,74.31,74.31,74.22,74.17,74.18,74.22,74.13,74.05,73.99,73.97,73.93,73.88,73.83,73.77,73.68,73.59,73.53,73.52,73.56,73.66,73.70,73.72,73.79,73.97,74.03,74.06,74.05,74.02,74.00,74.01,73.98,73.87,73.66,73.52,73.44
77.97,77.80,77.71,77.82,77.93,78.01,78.04,78.05,78.02,78.01,78.01,78.05,78.03,78.04,78.07,78.10,78.13,78.08,78.05,78.07,78.07,78.08,78.05,77.99,77.90,77.84,77.77,77.72,77.69,77.63,77.61,77.63,77.63,77.48,77.42,77.41,77.42,77.42,77.41,77.46,77.52,77.57,77.53,77.51,77.54,77.60,77.68,77.63,77.65,77.69,77.70,77.68,77.54,77.37,77.28,77.44,77.40,77.33,77.02,76.33,76.33,76.49,76.77,77.10,77.34,77.33,77.30,77.28,77.21,77.14,77.11,77.11,77.09,76.90,76.84,76.86,76.90,76.90,76.89,76.73,76.61,76.73,76.73,76.67,76.55,76.43,76.42,76.48,76.45,76.33,76.25,76.32,76.35,76.35,76.35,76.40,76.36,76.32,76.30,76.30,76.34,76.40,76.44,76.42,76.29,76.21,76.15,76.09,76.06,75.84,75.57,75.36,75.31,75.34,75.33,75.30,75.26,75.28,75.25,75.22,75.23,75.20,75.23,75.37,75.49,75.49,75.50,75.52,75.56,75.61,75.60,75.60,75.60,75.59,75.59,75.57,75.53,75.48,75.43,75.43,75.44,75.46,75.48,75.47,75.51,75.56,75.62,75.67,75.67,75.67,75.61,75.50,75.39,75.35,75.33,75.31,75.33,75.35,75.35,75.33,75.30,75.29,75.29,75.30,75.29,75.27,75.22,75.19,75.17,75.16,75.11,75.08,75.05,75.03,75.07,75.06,75.03,75.00,75.02,74.97,74.85,74.69,74.54,74.41,74.29,74.16,74.05,73.96,73.99,74.00,73.96,73.87,73.87,73.84,73.84,73.89,73.95,74.00,74.07,74.17,74.29,74.41,74.53,74.56,74.41,73.93,73.43,73.05,72.87,72.88,72.99,73.12,73.24,73.29,73.34,73.46,73.65,73.89,74.14,74.27,74.30,74.27,74.24,74.17,74.15,74.16,74.19,74.12,74.09,74.05,74.00,73.93,73.87,73.83,73.79,73.74,73.65,73.57,73.51,73.47,73.49,73.54,73.60,73.70,73.89,73.96,74.00,74.01,74.01,74.05,74.10,74.08,73.95,73.77,73.60,73.48
78.02,77.85,77.73,77.85,77.98,78.08,78.13,78.07,77.99,77.96,77.98,78.01,78.00,78.01,78.03,78.07,78.06,78.00,77.97,77.99,77.96,77.99,78.00,77.97,77.86,77.82,77.76,77.72,77.70,77.68,77.64,77.62,77.59,77.48,77.44,77.44,77.47,77.47,77.39,77.45,77.53,77.56,77.57,77.53,77.54,77.59,77.62,77.60,77.64,77.68,77.68,77.61,77.31,77.01,76.84,76.96,76.85,76.74,76.57,76.28,76.49,76.67,76.89,77.15,77.35,77.33,77.30,77.27,77.21,77.15,77.12,77.13,77.17,77.07,77.02,76.96,76.90,76.88,76.84,76.82,76.82,76.85,76.84,76.74,76.62,76.50,76.48,76.54,76.56,76.50,76.38,76.45,76.51,76.51,76.46,76.45,76.42,76.37,76.32,76.32,76.25,76.24,76.27,76.27,76.17,76.13,76.09,76.02,75.93,75.61,75.40,75.32,75.30,75.32,75.33,75.28,75.16,75.11,75.06,75.06,75.12,75.19,75.23,75.35,75.47,75.47,75.52,75.56,75.59,75.63,75.62,75.60,75.58,75.57,75.55,75.53,75.52,75.50,75.46,75.47,75.46,75.46,75.46,75.41,75.47,75.53,75.58,75.60,75.65,75.64,75.59,75.50,75.39,75.34,75.30,75.28,75.31,75.31,75.32,75.32,75.31,75.27,75.27,75.28,75.28,75.23,75.15,75.10,75.10,75.14,75.11,75.08,75.04,75.01,75.03,75.04,75.02,75.00,74.99,74.88,74.70,74.53,74.41,74.30,74.20,74.09,73.99,73.95,74.00,74.01,73.95,73.85,73.87,73.84,73.84,73.89,73.93,73.97,74.03,74.13,74.27,74.42,74.55,74.58,74.44,73.99,73.57,73.29,73.12,72.94,72.86,72.89,72.96,73.01,73.09,73.27,73.51,73.77,74.05,74.23,74.30,74.26,74.16,74.09,74.09,74.12,74.14,74.12,74.08,74.04,74.00,73.94,73.89,73.85,73.80,73.74,73.69,73.63,73.55,73.46,73.43,73.45,73.51,73.61,73.73,73.83,73.91,73.96,73.99,74.06,74.13,74.11,73.97,73.79,73.62,73.50
78.04,77.86,77.72,77.88,78.03,78.13,78.17,78.10,78.00,77.95,77.94,77.96,77.96,77.97,77.99,78.03,78.04,77.97,77.94,77.94,77.90,77.94,77.96,77.94,77.85,77.82,77.76,77.72,77.69,77.69,77.66,77.63,77.60,77.55,77.52,77.49,77.47,77.44,77.36,77.39,77.44,77.47,77.53,77.51,77.52,77.56,77.57,77.55,77.59,77.64,77.65,77.55,77.21,76.94,76.81,76.78,76.60,76.50,76.41,76.28,76.50,76.82,77.10,77.27,77.37,77.32,77.27,77.24,77.21,77.17,77.15,77.16,77.20,77.16,77.10,77.02,76.92,76.85,76.81,76.84,76.88,76.86,76.85,76.75,76.64,76.55,76.52,76.57,76.59,76.56,76.48,76.52,76.55,76.53,76.48,76.47,76.40,76.34,76.31,76.30,76.15,76.08,76.06,76.07,75.96,75.91,75.86,75.78,75.69,75.45,75.35,75.36,75.39,75.40,75.37,75.28,75.15,75.07,75.00,75.00,75.07,75.19,75.23,75.34,75.46,75.51,75.60,75.66,75.68,75.68,75.65,75.61,75.58,75.55,75.52,75.49,75.49,75.49,75.47,75.48,75.46,75.46,75.47,75.41,75.44,75.48,75.53,75.59,75.64,75.63,75.59,75.52,75.44,75.37,75.28,75.21,75.22,75.27,75.30,75.31,75.30,75.24,75.24,75.24,75.23,75.16,75.06,75.01,75.03,75.11,75.08,75.06,75.05,75.03,74.99,74.93,74.91,74.91,74.90,74.78,74.56,74.33,74.16,74.07,73.99,73.94,73.92,73.94,74.00,73.99,73.92,73.83,73.84,73.83,73.84,73.89,73.93,73.95,74.01,74.10,74.25,74.44,74.58,74.62,74.52,74.18,73.89,73.73,73.64,73.37,73.10,73.01,73.05,73.12,73.18,73.32,73.53,73.79,74.04,74.23,74.30,74.26,74.12,74.05,74.04,74.07,74.10,74.11,74.06,74.01,73.96,73.91,73.88,73.85,73.81,73.74,73.71,73.65,73.56,73.47,73.42,73.42,73.45,73.51,73.59,73.71,73.79,73.85,73.90,73.95,74.02,74.00,73.88,73.74,73.58,73.47
78.06,77.85,77.70,77.91,78.08,78.18,78.19,78.14,78.04,77.96,77.91,77.92,77.91,77.93,77.96,77.99,78.04,77.98,77.93,77.91,77.87,77.91,77.93,77.92,77.86,77.82,77.77,77.71,77.67,77.67,77.67,77.65,77.63,77.68,77.64,77.55,77.46,77.38,77.34,77.32,77.31,77.32,77.44,77.46,77.49,77.51,77.52,77.48,77.53,77.59,77.62,77.49,77.19,77.06,77.04,76.80,76.56,76.49,76.45,76.30,76.44,76.96,77.35,77.43,77.40,77.31,77.24,77.20,77.20,77.20,77.18,77.17,77.20,77.20,77.14,77.05,76.93,76.82,76.80,76.82,76.83,76.80,76.80,76.71,76.63,76.59,76.56,76.58,76.58,76.55,76.55,76.55,76.51,76.48,76.45,76.47,76.32,76.25,76.28,76.26,76.06,75.90,75.83,75.85,75.69,75.62,75.55,75.45,75.40,75.34,75.36,75.45,75.54,75.54,75.44,75.30,75.18,75.10,75.02,75.01,75.08,75.19,75.22,75.33,75.47,75.60,75.72,75.79,75.80,75.74,75.69,75.62,75.57,75.54,75.49,75.45,75.44,75.45,75.48,75.48,75.44,75.45,75.48,75.43,75.42,75.43,75.49,75.60,75.66,75.63,75.59,75.56,75.50,75.41,75.26,75.11,75.10,75.21,75.28,75.30,75.28,75.21,75.20,75.20,75.17,75.07,74.95,74.91,74.96,75.07,75.03,75.03,75.05,75.06,74.94,74.78,74.72,74.75,74.77,74.68,74.42,74.09,73.84,73.76,73.72,73.75,73.83,73.93,73.99,73.97,73.89,73.81,73.81,73.80,73.83,73.89,73.94,73.95,73.99,74.09,74.24,74.46,74.61,74.67,74.61,74.43,74.29,74.27,74.31,74.01,73.57,73.35,73.35,73.46,73.46,73.52,73.65,73.88,74.07,74.23,74.30,74.25,74.09,74.02,74.00,74.02,74.06,74.09,74.03,73.95,73.89,73.84,73.85,73.85,73.81,73.74,73.70,73.63,73.55,73.50,73.44,73.41,73.40,73.41,73.46,73.58,73.66,73.71,73.75,73.78,73.82,73.81,73.73,73.63,73.50,73.43
78.07,77.88,77.73,77.93,78.10,78.21,78.22,78.15,78.06,77.98,77.92,77.93,77.88,77.87,77.89,77.95,77.99,77.95,77.89,77.86,77.87,77.90,77.93,77.95,77.93,77.87,77.78,77.69,77.63,77.60,77.57,77.57,77.60,77.65,77.60,77.52,77.42,77.34,77.25,77.26,77.30,77.34,77.40,77.40,77.40,77.40,77.40,77.39,77.46,77.56,77.62,77.59,77.46,77.42,77.44,77.22,76.94,76.90,76.78,76.32,76.50,76.99,77.35,77.43,77.40,77.32,77.25,77.21,77.20,77.20,77.18,77.18,77.19,77.13,77.07,77.02,76.96,76.86,76.82,76.79,76.76,76.74,76.75,76.71,76.64,76.60,76.58,76.59,76.54,76.46,76.43,76.42,76.40,76.39,76.40,76.29,76.12,76.01,75.99,76.06,75.89,75.76,75.68,75.64,75.49,75.46,75.43,75.37,75.44,75.43,75.44,75.50,75.58,75.57,75.46,75.33,75.23,75.16,75.12,75.14,75.22,75.29,75.25,75.30,75.45,75.63,75.80,75.85,75.83,75.78,75.74,75.67,75.59,75.52,75.50,75.48,75.46,75.46,75.45,75.47,75.44,75.42,75.43,75.42,75.41,75.42,75.47,75.57,75.65,75.62,75.56,75.51,75.46,75.39,75.22,75.02,75.01,75.13,75.22,75.26,75.27,75.15,75.04,75.02,75.06,75.01,74.90,74.84,74.86,74.96,74.95,74.92,74.87,74.82,74.76,74.61,74.48,74.42,74.52,74.54,74.26,73.86,73.54,73.53,73.61,73.74,73.87,73.96,73.98,73.94,73.86,73.77,73.80,73.78,73.77,73.79,73.86,73.90,73.94,74.01,74.13,74.28,74.38,74.43,74.41,74.32,74.26,74.27,74.29,74.17,73.91,73.78,73.79,73.92,73.89,73.88,73.91,74.01,74.08,74.13,74.15,74.13,74.05,74.01,73.99,73.99,73.98,73.97,73.94,73.89,73.84,73.78,73.76,73.74,73.68,73.61,73.56,73.55,73.55,73.55,73.50,73.46,73.42,73.40,73.41,73.44,73.47,73.50,73.52,73.53,73.54,73.54,73.51,73.47,73.40,73.35
78.10,77.91,77.74,77.89,78.08,78.22,78.25,78.18,78.08,77.99,77.93,77.91,77.85,77.82,77.84,77.91,77.96,77.94,77.88,77.84,77.87,77.89,77.93,77.97,77.96,77.88,77.77,77.68,77.62,77.55,77.51,77.52,77.57,77.61,77.57,77.50,77.42,77.36,77.27,77.29,77.35,77.39,77.38,77.35,77.34,77.33,77.33,77.34,77.43,77.53,77.61,77.64,77.61,77.62,77.63,77.47,77.25,77.18,76.97,76.36,76.53,77.01,77.35,77.42,77.42,77.33,77.26,77.23,77.22,77.21,77.18,77.16,77.17,77.07,77.02,77.00,76.98,76.89,76.82,76.76,76.72,76.70,76.72,76.70,76.67,76.62,76.60,76.60,76.49,76.35,76.32,76.31,76.31,76.34,76.37,76.18,75.98,75.84,75.79,75.85,75.72,75.61,75.54,75.49,75.39,75.39,75.40,75.38,75.47,75.50,75.51,75.53,75.60,75.57,75.48,75.38,75.29,75.23,75.23,75.28,75.33,75.33,75.24,75.26,75.39,75.60,75.78,75.84,75.84,75.81,75.79,75.72,75.61,75.49,75.46,75.44,75.44,75.44,75.42,75.42,75.40,75.37,75.37,75.37,75.37,75.38,75.42,75.52,75.60,75.56,75.47,75.37,75.32,75.26,75.10,74.92,74.93,75.07,75.17,75.22,75.21,75.05,74.88,74.84,74.90,74.87,74.79,74.74,74.74,74.81,74.81,74.76,74.68,74.58,74.56,74.45,74.31,74.22,74.32,74.37,74.13,73.77,73.48,73.49,73.62,73.77,73.89,73.94,73.92,73.87,73.81,73.76,73.79,73.77,73.73,73.71,73.77,73.83,73.88,73.93,74.01,74.10,74.16,74.20,74.19,74.16,74.15,74.16,74.18,74.17,74.07,74.01,74.03,74.14,74.11,74.08,74.06,74.07,74.06,74.06,74.05,74.03,74.01,74.00,74.00,73.98,73.94,73.91,73.89,73.86,73.81,73.76,73.74,73.70,73.63,73.57,73.53,73.54,73.56,73.57,73.53,73.49,73.44,73.39,73.37,73.34,73.33,73.35,73.37,73.38,73.38,73.38,73.38,73.37,73.32,73.29
78.12,77.94,77.73,77.79,78.00,78.20,78.29,78.22,78.11,78.00,77.92,77.86,77.81,77.79,77.82,77.88,77.95,77.94,77.91,77.88,77.89,77.90,77.93,77.96,77.94,77.83,77.74,77.69,77.66,77.52,77.48,77.49,77.53,77.58,77.54,77.50,77.48,77.45,77.42,77.43,77.45,77.46,77.41,77.35,77.31,77.30,77.30,77.35,77.43,77.51,77.59,77.61,77.61,77.59,77.55,77.51,77.45,77.31,76.97,76.40,76.54,77.00,77.34,77.41,77.47,77.37,77.30,77.28,77.28,77.23,77.16,77.12,77.11,77.03,77.01,77.00,76.98,76.91,76.83,76.75,76.70,76.70,76.70,76.70,76.70,76.68,76.61,76.60,76.43,76.22,76.22,76.22,76.26,76.33,76.37,76.14,75.92,75.77,75.69,75.63,75.55,75.47,75.42,75.41,75.41,75.45,75.49,75.48,75.50,75.55,75.55,75.53,75.58,75.52,75.48,75.44,75.36,75.31,75.35,75.40,75.41,75.30,75.18,75.18,75.29,75.46,75.64,75.74,75.81,75.86,75.81,75.79,75.64,75.44,75.36,75.32,75.35,75.39,75.40,75.31,75.31,75.30,75.27,75.28,75.31,75.31,75.34,75.46,75.50,75.43,75.29,75.14,75.05,74.97,74.87,74.81,74.86,75.03,75.15,75.18,75.10,74.92,74.73,74.65,74.68,74.65,74.60,74.58,74.60,74.62,74.59,74.53,74.44,74.35,74.33,74.30,74.24,74.17,74.18,74.14,74.02,73.86,73.71,73.71,73.79,73.86,73.89,73.85,73.78,73.74,73.75,73.77,73.78,73.75,73.69,73.63,73.66,73.75,73.82,73.86,73.87,73.92,73.95,73.96,73.96,73.94,73.93,73.94,73.95,73.99,74.00,74.00,74.00,74.04,74.06,74.07,74.07,74.04,74.03,74.02,74.00,73.97,73.97,74.00,74.01,74.00,73.97,73.94,73.89,73.85,73.82,73.80,73.80,73.76,73.69,73.63,73.65,73.63,73.60,73.56,73.53,73.50,73.46,73.39,73.33,73.29,73.27,73.28,73.33,73.35,73.35,73.36,73.38,73.34,73.29,73.24
78.11,77.92,77.70,77.77,77.97,78.17,78.27,78.24,78.14,78.02,77.89,77.80,77.76,77.76,77.79,77.84,77.90,77.89,77.88,77.88,77.89,77.87,77.85,77.84,77.85,77.84,77.73,77.67,77.69,77.62,77.55,77.51,77.51,77.54,77.49,77.43,77.41,77.45,77.46,77.45,77.43,77.43,77.40,77.37,77.35,77.34,77.31,77.32,77.40,77.48,77.52,77.50,77.51,77.52,77.51,77.53,77.39,77.16,76.81,76.35,76.47,76.90,77.27,77.43,77.50,77.42,77.34,77.30,77.30,77.22,77.12,77.03,76.99,76.99,76.99,76.98,76.95,76.88,76.81,76.73,76.68,76.69,76.74,76.69,76.63,76.61,76.57,76.51,76.38,76.22,76.15,76.14,76.19,76.24,76.23,76.04,75.85,75.69,75.57,75.53,75.46,75.42,75.42,75.42,75.45,75.48,75.50,75.50,75.51,75.55,75.53,75.48,75.48,75.44,75.41,75.38,75.33,75.30,75.32,75.33,75.30,75.26,75.21,75.19,75.21,75.31,75.41,75.48,75.57,75.68,75.65,75.59,75.44,75.27,75.18,75.16,75.18,75.21,75.20,75.12,75.12,75.12,75.11,75.12,75.12,75.11,75.13,75.22,75.23,75.17,75.07,74.95,74.87,74.79,74.75,74.74,74.76,74.83,74.87,74.87,74.83,74.73,74.63,74.57,74.57,74.53,74.50,74.48,74.47,74.45,74.41,74.35,74.29,74.24,74.25,74.26,74.24,74.20,74.19,74.16,74.09,73.98,73.89,73.86,73.88,73.90,73.89,73.84,73.76,73.72,73.72,73.74,73.77,73.74,73.69,73.64,73.68,73.75,73.79,73.81,73.82,73.89,73.95,73.98,73.98,73.97,73.96,73.96,73.96,74.00,74.05,74.06,74.06,74.07,74.12,74.14,74.12,74.07,74.05,74.06,74.04,74.02,74.02,74.07,74.08,74.07,74.04,74.02,73.97,73.93,73.91,73.88,73.85,73.81,73.76,73.74,73.76,73.77,73.74,73.68,73.59,73.55,73.50,73.44,73.39,73.33,73.27,73.24,73.24,73.29,73.33,73.36,73.36,73.30,73.24,73.17
78.09,77.89,77.67,77.76,77.94,78.13,78.24,78.23,78.17,78.03,77.86,77.75,77.70,77.72,77.76,77.79,77.84,77.83,77.83,77.87,77.88,77.84,77.78,77.75,77.77,77.83,77.71,77.64,77.71,77.70,77.61,77.53,77.50,77.50,77.44,77.37,77.35,77.43,77.46,77.42,77.38,77.37,77.37,77.37,77.37,77.35,77.29,77.28,77.35,77.43,77.44,77.35,77.36,77.40,77.44,77.48,77.25,76.98,76.66,76.31,76.39,76.76,77.14,77.38,77.45,77.40,77.34,77.30,77.29,77.17,77.04,76.92,76.86,76.91,76.93,76.90,76.85,76.78,76.73,76.66,76.61,76.63,76.72,76.62,76.52,76.48,76.47,76.38,76.30,76.21,76.09,76.06,76.10,76.11,76.04,75.89,75.75,75.60,75.46,75.47,75.41,75.41,75.44,75.44,75.49,75.50,75.49,75.49,75.50,75.53,75.50,75.44,75.39,75.37,75.33,75.31,75.30,75.27,75.28,75.24,75.19,75.23,75.25,75.20,75.15,75.18,75.21,75.24,75.32,75.45,75.43,75.35,75.23,75.12,75.03,75.03,75.04,75.05,75.04,74.98,74.97,74.99,75.01,75.03,74.98,74.96,74.98,75.03,75.01,74.96,74.89,74.83,74.75,74.70,74.69,74.72,74.72,74.69,74.65,74.63,74.63,74.62,74.61,74.59,74.56,74.51,74.48,74.44,74.40,74.37,74.33,74.27,74.24,74.26,74.29,74.32,74.31,74.29,74.29,74.27,74.19,74.10,74.02,73.98,73.96,73.93,73.90,73.84,73.76,73.71,73.70,73.71,73.75,73.73,73.68,73.65,73.73,73.77,73.79,73.81,73.83,73.91,74.00,74.05,74.06,74.05,74.04,74.03,74.01,74.04,74.10,74.12,74.11,74.12,74.19,74.20,74.17,74.11,74.09,74.10,74.09,74.08,74.09,74.13,74.14,74.12,74.09,74.07,74.04,74.01,73.99,73.95,73.89,73.85,73.83,73.85,73.89,73.91,73.89,73.82,73.67,73.60,73.55,73.50,73.46,73.39,73.30,73.23,73.17,73.22,73.30,73.35,73.33,73.26,73.20,73.14
78.07,77.89,77.63,77.73,77.90,78.06,78.17,78.20,78.16,78.02,77.84,77.76,77.67,77.66,77.71,77.76,77.75,77.76,77.79,77.84,77.82,77.79,77.78,77.78,77.79,77.74,77.66,77.62,77.68,77.64,77.58,77.53,77.49,77.48,77.42,77.35,77.31,77.36,77.39,77.34,77.30,77.29,77.30,77.31,77.30,77.28,77.22,77.20,77.25,77.30,77.30,77.16,77.11,77.15,77.23,77.22,77.00,76.81,76.61,76.36,76.32,76.58,76.89,77.10,77.14,77.19,77.22,77.23,77.24,77.00,76.85,76.75,76.70,76.72,76.72,76.67,76.57,76.49,76.48,76.44,76.40,76.42,76.50,76.40,76.29,76.25,76.24,76.20,76.15,76.09,76.03,75.97,75.96,75.92,75.79,75.66,75.58,75.50,75.42,75.45,75.41,75.44,75.48,75.49,75.53,75.49,75.46,75.46,75.46,75.46,75.44,75.40,75.35,75.32,75.27,75.26,75.30,75.27,75.28,75.26,75.21,75.22,75.24,75.19,75.12,75.10,75.15,75.15,75.14,75.16,75.15,75.13,75.10,75.06,75.02,75.02,75.02,75.03,75.05,75.01,75.02,75.07,75.14,75.18,75.04,75.00,75.04,75.07,75.01,74.94,74.89,74.86,74.82,74.77,74.76,74.79,74.84,74.82,74.78,74.76,74.76,74.77,74.81,74.83,74.82,74.73,74.66,74.59,74.54,74.53,74.54,74.50,74.51,74.58,74.61,74.63,74.61,74.56,74.55,74.50,74.34,74.16,74.07,74.06,74.03,73.99,73.92,73.83,73.74,73.69,73.68,73.68,73.72,73.68,73.65,73.68,73.80,73.82,73.85,73.90,73.93,73.99,74.06,74.12,74.15,74.15,74.13,74.10,74.07,74.08,74.10,74.11,74.12,74.14,74.19,74.20,74.19,74.17,74.13,74.11,74.10,74.10,74.13,74.17,74.16,74.12,74.06,74.03,74.04,74.04,74.02,73.98,73.91,73.88,73.91,73.99,74.02,74.04,74.02,73.95,73.75,73.64,73.57,73.52,73.49,73.43,73.36,73.27,73.16,73.14,73.21,73.28,73.30,73.24,73.21,73.23
78.08,77.91,77.64,77.72,77.88,78.03,78.13,78.17,78.13,78.00,77.83,77.75,77.67,77.63,77.64,77.68,77.66,77.66,77.70,77.77,77.70,77.69,77.72,77.76,77.75,77.65,77.55,77.53,77.59,77.56,77.52,77.47,77.43,77.41,77.34,77.26,77.24,77.30,77.29,77.22,77.18,77.18,77.18,77.19,77.18,77.14,77.09,77.09,77.12,77.14,77.13,77.01,76.91,76.89,76.93,76.92,76.78,76.70,76.61,76.40,76.30,76.44,76.63,76.76,76.77,76.84,76.90,76.92,76.94,76.70,76.58,76.52,76.49,76.46,76.45,76.42,76.34,76.28,76.27,76.25,76.23,76.23,76.25,76.18,76.12,76.10,76.07,76.04,76.01,75.98,75.94,75.84,75.79,75.72,75.62,75.53,75.51,75.50,75.49,75.50,75.48,75.50,75.55,75.59,75.62,75.58,75.54,75.51,75.47,75.46,75.46,75.47,75.48,75.41,75.34,75.32,75.35,75.29,75.27,75.24,75.22,75.22,75.23,75.21,75.16,75.12,75.16,75.17,75.15,75.13,75.11,75.11,75.11,75.10,75.09,75.09,75.08,75.07,75.08,75.08,75.10,75.16,75.23,75.23,75.09,75.08,75.13,75.14,75.03,74.96,74.91,74.88,74.86,74.81,74.82,74.87,74.93,74.92,74.89,74.88,74.88,74.90,74.96,75.00,75.00,74.90,74.79,74.69,74.62,74.62,74.69,74.70,74.72,74.78,74.80,74.80,74.79,74.76,74.76,74.69,74.47,74.24,74.13,74.13,74.10,74.03,73.93,73.83,73.76,73.72,73.68,73.62,73.66,73.63,73.61,73.65,73.78,73.81,73.85,73.91,73.97,74.05,74.13,74.18,74.19,74.15,74.13,74.11,74.07,74.06,74.07,74.07,74.08,74.13,74.19,74.20,74.20,74.19,74.17,74.15,74.13,74.12,74.14,74.17,74.16,74.11,74.05,74.04,74.05,74.05,74.02,74.00,73.95,73.95,74.00,74.11,74.16,74.16,74.13,74.07,73.82,73.65,73.56,73.53,73.51,73.48,73.42,73.34,73.23,73.16,73.15,73.18,73.23,73.23,73.26,73.31
78.08,77.94,77.66,77.71,77.86,78.01,78.09,78.12,78.07,77.96,77.81,77.71,77.67,77.60,77.55,77.56,77.56,77.55,77.59,77.66,77.55,77.55,77.62,77.69,77.66,77.53,77.43,77.41,77.48,77.47,77.42,77.38,77.34,77.30,77.21,77.14,77.14,77.23,77.17,77.08,77.04,77.06,77.05,77.06,77.03,76.98,76.94,76.97,76.98,76.97,76.95,76.86,76.73,76.64,76.62,76.62,76.57,76.63,76.63,76.44,76.31,76.33,76.38,76.41,76.41,76.45,76.49,76.51,76.52,76.36,76.29,76.28,76.27,76.20,76.18,76.18,76.17,76.12,76.11,76.11,76.09,76.07,76.01,75.98,75.98,75.99,75.94,75.91,75.90,75.88,75.82,75.69,75.60,75.54,75.50,75.48,75.50,75.55,75.62,75.58,75.58,75.59,75.63,75.73,75.76,75.73,75.68,75.62,75.51,75.49,75.53,75.60,75.69,75.57,75.48,75.44,75.44,75.33,75.26,75.23,75.23,75.22,75.22,75.24,75.23,75.18,75.21,75.24,75.26,75.25,75.19,75.18,75.18,75.18,75.18,75.18,75.17,75.15,75.13,75.18,75.20,75.24,75.28,75.22,75.15,75.17,75.22,75.22,75.06,74.99,74.95,74.90,74.88,74.84,74.87,74.94,75.00,75.00,75.00,74.99,74.99,75.02,75.08,75.13,75.14,75.04,74.90,74.76,74.68,74.68,74.80,74.86,74.89,74.90,74.90,74.90,74.90,74.91,74.93,74.84,74.59,74.33,74.20,74.20,74.15,74.06,73.94,73.83,73.79,73.75,73.68,73.54,73.59,73.58,73.57,73.60,73.72,73.78,73.82,73.88,73.98,74.10,74.19,74.23,74.19,74.12,74.10,74.08,74.05,74.02,74.02,74.02,74.04,74.11,74.18,74.20,74.20,74.20,74.20,74.19,74.17,74.14,74.14,74.16,74.15,74.11,74.05,74.07,74.06,74.04,74.01,74.01,74.01,74.03,74.10,74.22,74.28,74.27,74.23,74.17,73.87,73.65,73.54,73.52,73.52,73.51,73.47,73.41,73.35,73.22,73.10,73.07,73.13,73.22,73.32,73.37
77.89,77.80,77.63,77.68,77.75,77.82,77.85,77.88,77.83,77.72,77.58,77.54,77.54,77.51,77.47,77.46,77.43,77.42,77.45,77.48,77.39,77.37,77.41,77.44,77.39,77.32,77.25,77.24,77.27,77.24,77.22,77.19,77.16,77.11,77.07,77.03,77.01,77.04,76.98,76.95,76.95,76.97,76.95,76.95,76.94,76.92,76.90,76.92,76.92,76.87,76.77,76.68,76.63,76.62,76.64,76.65,76.66,76.61,76.49,76.32,76.26,76.34,76.42,76.44,76.36,76.39,76.39,76.39,76.42,76.40,76.37,76.36,76.39,76.36,76.36,76.36,76.36,76.39,76.32,76.23,76.13,76.04,76.01,75.99,75.99,75.99,75.92,75.86,75.84,75.81,75.69,75.59,75.54,75.51,75.51,75.60,75.62,75.67,75.74,75.72,75.72,75.76,75.84,75.97,75.97,75.96,75.92,75.84,75.71,75.69,75.71,75.79,76.00,75.77,75.62,75.57,75.62,75.61,75.48,75.38,75.33,75.27,75.19,75.21,75.25,75.21,75.27,75.32,75.35,75.32,75.22,75.24,75.26,75.26,75.26,75.25,75.22,75.19,75.19,75.25,75.27,75.28,75.29,75.28,75.26,75.28,75.28,75.21,75.13,75.05,74.99,74.99,75.01,74.96,74.94,74.95,75.00,75.00,75.00,75.00,75.00,75.02,75.07,75.11,75.11,75.08,75.01,74.92,74.82,74.76,74.82,74.87,74.90,74.90,74.89,74.91,74.93,74.94,74.92,74.83,74.60,74.38,74.24,74.22,74.17,74.06,73.92,73.78,73.69,73.63,73.59,73.56,73.63,73.63,73.60,73.61,73.68,73.75,73.81,73.86,73.92,74.04,74.13,74.18,74.18,74.13,74.11,74.10,74.09,74.10,74.13,74.12,74.11,74.14,74.19,74.20,74.20,74.20,74.20,74.18,74.14,74.09,74.07,74.07,74.07,74.07,74.12,74.14,74.12,74.11,74.09,74.08,74.04,74.03,74.09,74.23,74.28,74.25,74.21,74.16,73.89,73.67,73.57,73.56,73.55,73.53,73.48,73.43,73.38,73.28,73.17,73.11,73.11,73.14,73.24,73.32
