74.42,74.41,74.41,74.39,74.31,74.20,74.11,73.98,73.92,73.87,73.87,74.02,74.09,74.15,74.18,74.18,74.19,74.19,74.18,74.17,74.13,74.10,74.11,74.12,74.10,74.08,74.04,73.97,73.90,73.90,73.93,73.93,73.89,73.85,73.82,73.78,73.75,73.76,73.74,73.72,73.72,73.74,73.84,73.81,73.82,73.83,73.79,73.83,73.82,73.81,73.81,73.85,73.83,73.73,73.61,73.63,73.57,73.55,73.56,73.57,73.56,73.57,73.58,73.59,73.58,73.65,73.67,73.66,73.67,73.69,73.70,73.74,73.80,73.79,73.66,73.59,73.62,73.78,73.75,73.77,73.77,73.69,73.69,73.70,73.71,73.71,73.71,73.71,73.71,73.71,73.71,73.69,73.61,73.53,73.45,73.38,73.44,73.57,73.71,73.70,73.61,73.54,73.53,73.59,73.66,73.71,73.77,73.86,73.98,74.07,74.15,74.23,74.30,74.30,74.30,74.32,74.36,74.38,74.38,74.36,74.34,74.32,74.36,74.37,74.34,74.23,73.93,73.57,73.37,73.42,73.47,73.46,73.41,73.34,73.31,73.26,73.23,73.20,73.17,73.14,73.14,73.14,73.13,73.13,73.13,73.12,73.12,73.12,73.14,73.16,73.17,73.16,73.15,73.13,73.13,73.16,73.22,73.23,73.20,73.15,73.10,73.03,72.96,72.94,72.98,73.01,72.96,72.92,72.91,72.94,72.91,72.90,72.90,72.91,72.91,72.93,72.95,72.98,73.03,73.08,73.08,73.09,73.14,73.23,73.28,73.27,73.19,73.08,72.99,72.88,72.76,72.64,72.52,72.38,72.25,72.17,72.16,72.13,72.04,71.90,71.73,71.69,71.72,71.74,71.68,71.66,71.72,71.77,71.80,71.82,71.80,71.81,71.85,71.92,72.00,72.06,72.10,72.12,72.10,72.04,72.00,71.98,71.98,72.03,72.00,71.94,71.91,71.89,71.91,71.91,71.89,71.87,71.87,71.87,71.90,71.99,71.91,71.82,71.75,71.71,71.72,71.68,71.69,71.74,71.74,71.72,71.70,71.72,71.78,71.75,71.72,71.68,71.62,71.61,71.66,71.70
74.43,74.41,74.40,74.32,74.23,74.15,74.07,73.98,73.89,73.84,73.87,74.00,74.06,74.10,74.14,74.16,74.19,74.19,74.19,74.19,74.17,74.14,74.14,74.16,74.16,74.15,74.11,74.04,73.97,73.96,73.99,74.01,74.01,73.99,73.93,73.87,73.84,73.83,73.81,73.79,73.78,73.79,73.84,73.82,73.83,73.85,73.82,73.82,73.81,73.80,73.80,73.82,73.79,73.69,73.57,73.58,73.51,73.48,73.49,73.50,73.50,73.50,73.52,73.53,73.51,73.58,73.59,73.56,73.61,73.60,73.61,73.65,73.70,73.69,73.59,73.53,73.56,73.73,73.70,73.70,73.69,73.64,73.62,73.65,73.67,73.67,73.67,73.67,73.67,73.68,73.70,73.67,73.60,73.54,73.49,73.45,73.49,73.55,73.59,73.57,73.53,73.50,73.50,73.55,73.62,73.67,73.74,73.84,73.93,73.99,74.07,74.16,74.27,74.29,74.30,74.32,74.35,74.39,74.40,74.38,74.35,74.33,74.34,74.34,74.28,74.13,73.81,73.53,73.40,73.44,73.50,73.51,73.48,73.41,73.32,73.29,73.26,73.23,73.19,73.17,73.16,73.14,73.13,73.15,73.14,73.20,73.25,73.24,73.20,73.28,73.30,73.19,73.08,73.03,73.02,73.04,73.09,73.10,73.07,73.03,73.00,72.98,72.95,72.95,72.99,73.00,72.96,72.93,72.92,72.96,72.92,72.89,72.88,72.89,72.89,72.88,72.89,72.91,72.96,72.98,72.96,72.93,72.92,73.00,73.09,73.14,73.13,73.06,72.97,72.85,72.74,72.62,72.50,72.37,72.26,72.19,72.16,72.13,72.04,71.89,71.71,71.65,71.68,71.70,71.66,71.66,71.70,71.75,71.79,71.81,71.80,71.82,71.87,71.95,72.05,72.12,72.16,72.17,72.14,72.08,72.04,72.00,71.99,72.02,71.98,71.94,71.93,71.85,71.80,71.76,71.75,71.76,71.77,71.77,71.80,71.91,71.84,71.75,71.68,71.65,71.66,71.61,71.64,71.71,71.72,71.68,71.67,71.70,71.74,71.72,71.70,71.67,71.61,71.61,71.66,71.71
74.44,74.42,74.40,74.25,74.15,74.09,74.03,73.98,73.86,73.82,73.88,73.98,74.03,74.07,74.10,74.14,74.18,74.18,74.17,74.19,74.20,74.17,74.16,74.16,74.19,74.20,74.16,74.09,74.02,74.01,74.02,74.06,74.10,74.13,74.05,73.99,73.96,73.94,73.91,73.88,73.86,73.85,73.84,73.82,73.83,73.85,73.85,73.78,73.78,73.80,73.79,73.77,73.76,73.67,73.53,73.56,73.49,73.44,73.42,73.45,73.45,73.45,73.47,73.49,73.45,73.51,73.50,73.47,73.54,73.51,73.52,73.55,73.57,73.56,73.52,73.48,73.49,73.65,73.63,73.61,73.60,73.58,73.55,73.60,73.64,73.64,73.64,73.64,73.64,73.65,73.68,73.64,73.59,73.55,73.53,73.51,73.50,73.50,73.48,73.45,73.47,73.47,73.47,73.52,73.59,73.64,73.72,73.82,73.89,73.92,73.99,74.10,74.24,74.29,74.29,74.30,74.32,74.38,74.39,74.39,74.39,74.36,74.33,74.30,74.21,73.99,73.67,73.48,73.41,73.44,73.50,73.53,73.53,73.47,73.34,73.31,73.29,73.26,73.22,73.23,73.20,73.17,73.17,73.21,73.20,73.31,73.43,73.39,73.31,73.45,73.48,73.26,73.04,72.98,72.95,72.93,72.96,72.97,72.94,72.91,72.88,72.91,72.93,72.96,73.00,73.01,72.97,72.95,72.95,72.98,72.95,72.92,72.89,72.90,72.90,72.88,72.87,72.87,72.91,72.91,72.85,72.76,72.69,72.75,72.86,72.96,73.03,73.03,72.93,72.82,72.71,72.59,72.48,72.36,72.26,72.20,72.16,72.11,72.02,71.88,71.70,71.63,71.64,71.66,71.64,71.65,71.69,71.73,71.77,71.79,71.80,71.83,71.89,71.97,72.09,72.16,72.19,72.18,72.13,72.11,72.07,72.02,72.00,72.00,71.96,71.94,71.96,71.83,71.71,71.64,71.62,71.67,71.69,71.70,71.73,71.83,71.77,71.69,71.62,71.60,71.60,71.56,71.59,71.67,71.69,71.64,71.64,71.67,71.70,71.70,71.69,71.65,71.60,71.61,71.66,71.72
74.42,74.41,74.36,74.23,74.15,74.09,74.05,73.96,73.87,73.84,73.89,73.98,74.03,74.07,74.11,74.17,74.19,74.16,74.15,74.19,74.20,74.22,74.22,74.22,74.20,74.20,74.18,74.13,74.06,74.05,74.06,74.10,74.13,74.14,74.12,74.08,74.03,73.99,73.97,73.95,73.92,73.88,73.84,73.84,73.88,73.92,73.89,73.77,73.76,73.78,73.76,73.77,73.80,73.72,73.60,73.61,73.55,73.49,73.45,73.44,73.48,73.46,73.46,73.49,73.44,73.45,73.44,73.44,73.51,73.53,73.51,73.48,73.45,73.45,73.44,73.43,73.43,73.50,73.46,73.43,73.44,73.48,73.47,73.55,73.61,73.61,73.62,73.65,73.64,73.60,73.58,73.60,73.56,73.52,73.51,73.50,73.50,73.50,73.49,73.47,73.44,73.43,73.45,73.51,73.54,73.60,73.68,73.76,73.82,73.83,73.92,74.09,74.22,74.27,74.26,74.24,74.26,74.32,74.34,74.37,74.40,74.39,74.37,74.31,74.12,73.75,73.51,73.41,73.41,73.48,73.50,73.52,73.54,73.52,73.42,73.37,73.32,73.29,73.27,73.26,73.23,73.24,73.28,73.29,73.26,73.35,73.45,73.42,73.35,73.49,73.49,73.25,73.16,73.10,73.03,72.99,73.01,73.03,72.97,72.89,72.83,72.86,72.91,72.97,73.03,73.04,73.00,72.98,72.98,72.99,72.99,72.94,72.89,72.87,72.93,72.93,72.91,72.89,72.90,72.90,72.76,72.57,72.43,72.53,72.63,72.73,72.83,72.88,72.85,72.78,72.67,72.56,72.47,72.35,72.26,72.20,72.16,72.09,71.99,71.86,71.73,71.65,71.65,71.65,71.61,71.63,71.72,71.78,71.80,71.76,71.77,71.82,71.91,72.01,72.07,72.10,72.11,72.11,72.10,72.09,72.06,72.02,72.00,71.99,71.95,71.92,71.92,71.85,71.79,71.74,71.71,71.71,71.69,71.69,71.72,71.75,71.75,71.69,71.63,71.60,71.60,71.61,71.64,71.67,71.64,71.62,71.61,71.63,71.67,71.68,71.65,71.60,71.56,71.62,71.64,71.67
74.37,74.37,74.30,74.21,74.14,74.08,74.04,73.95,73.85,73.82,73.86,73.94,73.99,74.04,74.10,74.16,74.19,74.16,74.16,74.19,74.20,74.22,74.25,74.25,74.21,74.20,74.19,74.16,74.11,74.08,74.09,74.12,74.16,74.13,74.16,74.14,74.09,74.02,74.00,73.99,73.95,73.90,73.86,73.87,73.92,73.95,73.88,73.78,73.77,73.78,73.76,73.78,73.83,73.80,73.71,73.70,73.65,73.61,73.57,73.55,73.56,73.52,73.51,73.53,73.49,73.49,73.46,73.44,73.46,73.49,73.47,73.43,73.40,73.40,73.41,73.41,73.40,73.42,73.41,73.39,73.38,73.42,73.39,73.47,73.52,73.50,73.50,73.55,73.55,73.52,73.49,73.52,73.52,73.51,73.50,73.52,73.51,73.50,73.49,73.47,73.42,73.41,73.44,73.50,73.52,73.56,73.62,73.70,73.75,73.74,73.85,74.04,74.18,74.25,74.24,74.21,74.23,74.29,74.31,74.34,74.38,74.39,74.38,74.27,74.00,73.54,73.38,73.35,73.40,73.49,73.48,73.50,73.53,73.54,73.48,73.44,73.39,73.35,73.31,73.27,73.25,73.30,73.39,73.38,73.31,73.35,73.41,73.38,73.35,73.46,73.44,73.24,73.21,73.16,73.09,73.02,73.04,73.07,73.02,72.93,72.84,72.85,72.89,72.96,73.04,73.07,73.04,73.02,73.01,73.00,73.00,72.97,72.91,72.86,72.94,72.95,72.93,72.91,72.91,72.88,72.70,72.48,72.32,72.41,72.48,72.55,72.63,72.70,72.72,72.69,72.62,72.54,72.44,72.33,72.25,72.20,72.19,72.09,71.96,71.83,71.74,71.67,71.65,71.65,71.61,71.61,71.70,71.76,71.78,71.74,71.76,71.81,71.89,72.00,72.01,72.01,72.01,72.03,72.04,72.04,72.03,72.00,71.98,71.97,71.94,71.91,71.90,71.87,71.84,71.82,71.79,71.78,71.75,71.75,71.75,71.73,71.74,71.69,71.64,71.62,71.62,71.63,71.65,71.66,71.62,71.60,71.60,71.61,71.64,71.64,71.61,71.57,71.53,71.61,71.60,71.61
74.30,74.30,74.24,74.19,74.12,74.05,74.01,73.94,73.83,73.78,73.81,73.89,73.92,74.00,74.07,74.12,74.17,74.19,74.19,74.20,74.20,74.21,74.24,74.27,74.22,74.20,74.20,74.20,74.18,74.12,74.10,74.13,74.17,74.12,74.17,74.19,74.14,74.03,74.01,74.00,73.97,73.91,73.89,73.90,73.94,73.95,73.83,73.80,73.79,73.80,73.79,73.80,73.86,73.89,73.87,73.80,73.79,73.78,73.77,73.77,73.70,73.63,73.60,73.60,73.59,73.59,73.55,73.48,73.40,73.40,73.40,73.40,73.40,73.40,73.40,73.40,73.40,73.40,73.46,73.44,73.40,73.39,73.33,73.36,73.36,73.31,73.32,73.38,73.40,73.40,73.40,73.40,73.45,73.49,73.50,73.55,73.52,73.49,73.49,73.47,73.42,73.41,73.43,73.50,73.50,73.51,73.56,73.63,73.67,73.65,73.77,73.97,74.13,74.24,74.23,74.20,74.23,74.28,74.30,74.31,74.33,74.39,74.36,74.18,73.84,73.34,73.26,73.31,73.40,73.47,73.44,73.48,73.51,73.51,73.52,73.52,73.50,73.44,73.34,73.26,73.26,73.36,73.51,73.46,73.35,73.32,73.32,73.30,73.32,73.37,73.35,73.21,73.22,73.18,73.12,73.06,73.04,73.09,73.08,73.01,72.91,72.87,72.87,72.94,73.04,73.09,73.09,73.06,73.02,72.99,73.01,72.99,72.94,72.87,72.94,72.94,72.93,72.92,72.94,72.85,72.67,72.47,72.33,72.37,72.39,72.42,72.45,72.50,72.55,72.57,72.57,72.51,72.40,72.30,72.23,72.20,72.22,72.11,71.95,71.81,71.74,71.67,71.65,71.65,71.64,71.61,71.64,71.69,71.72,71.74,71.75,71.79,71.86,71.94,71.91,71.90,71.91,71.95,71.98,71.98,71.96,71.95,71.95,71.93,71.91,71.90,71.90,71.90,71.88,71.87,71.88,71.89,71.87,71.85,71.83,71.78,71.73,71.68,71.66,71.65,71.65,71.62,71.62,71.64,71.61,71.60,71.60,71.60,71.60,71.60,71.58,71.54,71.52,71.57,71.54,71.53
74.27,74.25,74.22,74.20,74.12,74.05,74.00,73.90,73.82,73.81,73.85,73.89,73.91,73.94,73.98,74.02,74.02,74.07,74.12,74.13,74.13,74.14,74.19,74.25,74.21,74.20,74.19,74.18,74.14,74.11,74.10,74.11,74.12,74.11,74.17,74.19,74.16,74.08,74.02,74.00,73.98,73.96,73.95,73.95,73.92,73.85,73.76,73.78,73.77,73.78,73.86,73.91,73.91,73.90,73.88,73.85,73.85,73.82,73.81,73.84,73.77,73.70,73.63,73.57,73.49,73.49,73.52,73.52,73.45,73.45,73.50,73.51,73.46,73.49,73.43,73.39,73.38,73.38,73.39,73.38,73.38,73.41,73.37,73.39,73.39,73.34,73.35,73.37,73.37,73.35,73.38,73.35,73.36,73.37,73.37,73.37,73.38,73.39,73.40,73.38,73.38,73.39,73.41,73.46,73.46,73.46,73.50,73.57,73.58,73.57,73.67,73.85,74.01,74.14,74.17,74.18,74.20,74.21,74.25,74.28,74.30,74.33,74.29,74.13,73.81,73.32,73.29,73.34,73.41,73.46,73.43,73.46,73.50,73.52,73.55,73.57,73.58,73.58,73.54,73.46,73.43,73.48,73.57,73.55,73.47,73.42,73.39,73.35,73.36,73.37,73.34,73.26,73.26,73.21,73.13,73.07,73.07,73.14,73.15,73.09,72.96,72.85,72.85,72.92,73.02,73.05,73.04,73.01,72.97,72.96,72.98,72.99,72.98,72.97,73.02,73.02,73.00,72.96,72.93,72.79,72.59,72.41,72.33,72.34,72.37,72.39,72.42,72.44,72.46,72.47,72.48,72.45,72.38,72.31,72.25,72.22,72.21,72.13,72.00,71.85,71.75,71.67,71.66,71.67,71.66,71.61,71.65,71.70,71.74,71.75,71.76,71.76,71.78,71.83,71.82,71.82,71.83,71.85,71.88,71.87,71.87,71.87,71.91,71.91,71.89,71.87,71.89,71.92,71.93,71.92,71.92,71.95,71.94,71.91,71.87,71.81,71.77,71.74,71.72,71.69,71.71,71.71,71.70,71.70,71.66,71.63,71.57,71.53,71.55,71.58,71.56,71.52,71.51,71.57,71.59,71.59
74.24,74.21,74.18,74.16,74.09,74.03,73.98,73.85,73.80,73.81,73.86,73.89,73.89,73.90,73.92,73.95,73.92,73.98,74.04,74.06,74.06,74.05,74.11,74.19,74.18,74.17,74.17,74.15,74.11,74.11,74.10,74.09,74.09,74.12,74.17,74.19,74.17,74.10,74.03,74.00,73.98,73.96,73.96,73.95,73.88,73.77,73.71,73.75,73.76,73.80,73.93,73.98,73.96,73.92,73.88,73.87,73.86,73.83,73.83,73.86,73.78,73.71,73.65,73.56,73.44,73.42,73.48,73.53,73.48,73.48,73.53,73.55,73.49,73.51,73.45,73.41,73.41,73.41,73.37,73.37,73.40,73.44,73.42,73.43,73.42,73.38,73.38,73.37,73.34,73.33,73.36,73.32,73.29,73.29,73.28,73.26,73.28,73.32,73.34,73.31,73.34,73.36,73.37,73.41,73.40,73.39,73.42,73.48,73.47,73.46,73.54,73.68,73.82,73.95,74.02,74.05,74.06,74.05,74.11,74.17,74.21,74.23,74.21,74.08,73.79,73.31,73.31,73.35,73.41,73.46,73.42,73.44,73.48,73.52,73.56,73.60,73.63,73.65,73.64,73.57,73.54,73.55,73.60,73.61,73.57,73.52,73.48,73.43,73.43,73.39,73.35,73.30,73.29,73.24,73.18,73.13,73.13,73.17,73.18,73.13,72.99,72.84,72.83,72.90,72.99,73.00,72.99,72.95,72.92,72.92,72.95,72.97,72.98,73.00,73.03,73.03,73.00,72.96,72.94,72.74,72.51,72.35,72.32,72.32,72.35,72.38,72.40,72.40,72.40,72.41,72.42,72.42,72.37,72.31,72.26,72.21,72.18,72.12,72.01,71.87,71.75,71.67,71.67,71.69,71.66,71.61,71.66,71.72,71.76,71.77,71.77,71.76,71.76,71.79,71.78,71.78,71.78,71.79,71.82,71.81,71.81,71.83,71.87,71.88,71.86,71.85,71.89,71.94,71.95,71.95,71.94,71.97,71.98,71.96,71.90,71.83,71.80,71.79,71.78,71.74,71.75,71.77,71.78,71.75,71.70,71.65,71.58,71.52,71.53,71.60,71.58,71.53,71.50,71.57,71.63,71.64
74.19,74.17,74.12,74.06,74.02,73.99,73.96,73.81,73.74,73.75,73.81,73.86,73.87,73.89,73.91,73.92,73.91,73.94,73.97,73.99,73.99,73.96,74.00,74.07,74.09,74.10,74.11,74.11,74.10,74.12,74.11,74.08,74.06,74.13,74.18,74.18,74.15,74.08,74.02,73.97,73.93,73.89,73.88,73.86,73.79,73.72,73.70,73.73,73.78,73.87,73.98,74.00,73.99,73.93,73.85,73.85,73.80,73.79,73.81,73.81,73.70,73.65,73.62,73.57,73.49,73.42,73.44,73.50,73.49,73.46,73.44,73.44,73.45,73.43,73.43,73.48,73.52,73.52,73.46,73.46,73.48,73.49,73.45,73.49,73.48,73.40,73.40,73.37,73.35,73.35,73.35,73.31,73.28,73.26,73.26,73.28,73.27,73.28,73.31,73.30,73.31,73.31,73.31,73.32,73.31,73.30,73.31,73.35,73.33,73.32,73.35,73.42,73.50,73.61,73.69,73.74,73.73,73.74,73.83,73.94,74.03,74.09,74.10,74.02,73.79,73.34,73.31,73.32,73.37,73.43,73.41,73.41,73.44,73.48,73.53,73.59,73.62,73.61,73.57,73.54,73.53,73.54,73.58,73.62,73.62,73.61,73.59,73.57,73.53,73.45,73.37,73.32,73.30,73.29,73.28,73.27,73.23,73.17,73.15,73.10,72.99,72.83,72.82,72.88,72.94,72.96,72.95,72.90,72.85,72.85,72.90,72.91,72.90,72.90,72.91,72.92,72.91,72.92,72.95,72.71,72.45,72.29,72.31,72.30,72.33,72.37,72.40,72.40,72.40,72.42,72.44,72.44,72.37,72.30,72.23,72.16,72.10,72.03,71.94,71.84,71.75,71.67,71.68,71.69,71.63,71.62,71.69,71.76,71.79,71.79,71.80,71.81,71.84,71.87,71.83,71.81,71.79,71.79,71.80,71.80,71.82,71.85,71.85,71.83,71.81,71.84,71.92,71.93,71.92,71.91,71.91,71.97,71.99,71.97,71.91,71.83,71.80,71.83,71.84,71.80,71.74,71.80,71.83,71.79,71.72,71.70,71.65,71.60,71.59,71.71,71.67,71.56,71.46,71.55,71.64,71.68
74.13,74.11,74.07,74.02,73.98,73.94,73.90,73.77,73.71,73.75,73.82,73.84,73.86,73.90,73.92,73.89,73.89,73.91,73.93,73.93,73.92,73.90,73.93,73.99,74.03,74.04,74.05,74.07,74.08,74.14,74.13,74.09,74.06,74.11,74.15,74.17,74.13,74.05,74.01,73.95,73.89,73.86,73.84,73.78,73.73,73.69,73.68,73.74,73.81,73.89,73.96,73.97,73.97,73.93,73.87,73.84,73.79,73.78,73.78,73.76,73.63,73.58,73.57,73.58,73.57,73.52,73.51,73.55,73.58,73.55,73.52,73.51,73.52,73.48,73.47,73.49,73.53,73.53,73.49,73.49,73.50,73.50,73.48,73.51,73.52,73.48,73.48,73.41,73.39,73.42,73.44,73.39,73.37,73.35,73.31,73.36,73.35,73.32,73.30,73.30,73.30,73.30,73.29,73.26,73.26,73.27,73.28,73.28,73.28,73.28,73.28,73.28,73.32,73.39,73.44,73.45,73.45,73.46,73.51,73.57,73.63,73.70,73.74,73.71,73.57,73.30,73.30,73.31,73.34,73.39,73.40,73.40,73.42,73.45,73.50,73.53,73.57,73.57,73.50,73.46,73.48,73.50,73.50,73.54,73.55,73.55,73.55,73.57,73.55,73.48,73.40,73.35,73.33,73.32,73.33,73.34,73.27,73.16,73.10,73.04,72.91,72.77,72.79,72.85,72.92,72.92,72.90,72.87,72.84,72.85,72.85,72.85,72.84,72.84,72.85,72.85,72.86,72.88,72.92,72.68,72.42,72.27,72.30,72.30,72.32,72.34,72.38,72.39,72.38,72.38,72.40,72.42,72.36,72.29,72.22,72.14,72.05,71.97,71.90,71.83,71.74,71.67,71.68,71.69,71.62,71.60,71.68,71.76,71.81,71.81,71.81,71.84,71.88,71.93,71.92,71.88,71.84,71.82,71.84,71.85,71.86,71.88,71.87,71.83,71.81,71.84,71.93,71.93,71.92,71.90,71.91,71.96,71.99,71.97,71.92,71.87,71.85,71.83,71.81,71.80,71.76,71.82,71.85,71.81,71.76,71.73,71.71,71.70,71.70,71.74,71.66,71.55,71.47,71.52,71.62,71.66
74.05,74.03,74.00,73.99,73.96,73.91,73.85,73.73,73.70,73.75,73.84,73.82,73.84,73.89,73.90,73.86,73.88,73.89,73.89,73.89,73.87,73.85,73.87,73.92,73.98,73.98,74.00,74.03,74.05,74.14,74.14,74.10,74.06,74.08,74.11,74.13,74.10,74.02,74.00,73.93,73.88,73.85,73.79,73.69,73.66,73.68,73.66,73.75,73.84,73.89,73.93,73.93,73.94,73.91,73.87,73.83,73.78,73.76,73.75,73.74,73.58,73.52,73.52,73.58,73.65,73.62,73.60,73.62,73.67,73.65,73.63,73.62,73.62,73.57,73.54,73.52,73.52,73.52,73.51,73.51,73.51,73.51,73.52,73.53,73.55,73.58,73.56,73.46,73.45,73.51,73.56,73.49,73.49,73.47,73.38,73.45,73.45,73.39,73.32,73.32,73.33,73.32,73.29,73.25,73.24,73.26,73.27,73.24,73.27,73.27,73.24,73.20,73.21,73.25,73.24,73.22,73.22,73.23,73.23,73.23,73.24,73.31,73.36,73.37,73.33,73.24,73.28,73.28,73.29,73.32,73.37,73.37,73.39,73.43,73.46,73.45,73.49,73.50,73.42,73.36,73.40,73.42,73.40,73.43,73.45,73.45,73.46,73.53,73.55,73.50,73.43,73.38,73.36,73.35,73.36,73.36,73.28,73.15,73.06,72.96,72.81,72.73,72.76,72.84,72.90,72.90,72.87,72.84,72.84,72.85,72.82,72.81,72.80,72.80,72.80,72.80,72.81,72.84,72.88,72.65,72.40,72.26,72.30,72.29,72.29,72.31,72.35,72.37,72.34,72.34,72.35,72.37,72.34,72.27,72.20,72.12,72.01,71.93,71.87,71.82,71.75,71.67,71.67,71.68,71.62,71.57,71.65,71.75,71.82,71.83,71.84,71.87,71.93,71.98,72.01,71.96,71.90,71.87,71.90,71.92,71.92,71.91,71.90,71.84,71.81,71.84,71.92,71.92,71.91,71.90,71.91,71.96,71.99,71.97,71.93,71.91,71.90,71.83,71.78,71.78,71.78,71.84,71.85,71.83,71.80,71.76,71.76,71.79,71.80,71.76,71.63,71.52,71.47,71.48,71.58,71.62
73.91,73.88,73.89,73.92,73.92,73.89,73.83,73.73,73.70,73.74,73.80,73.77,73.77,73.80,73.82,73.78,73.82,73.83,73.86,73.88,73.88,73.84,73.84,73.86,73.92,73.92,73.96,74.00,74.02,74.10,74.17,74.14,74.05,74.04,74.05,74.03,74.01,74.00,73.96,73.92,73.89,73.86,73.68,73.62,73.62,73.65,73.72,73.78,73.81,73.85,73.90,73.91,73.91,73.86,73.77,73.75,73.73,73.72,73.74,73.76,73.57,73.51,73.53,73.60,73.68,73.63,73.60,73.62,73.69,73.64,73.65,73.70,73.74,73.66,73.65,73.64,73.64,73.64,73.59,73.57,73.57,73.58,73.63,73.61,73.61,73.64,73.53,73.44,73.48,73.59,73.65,73.59,73.60,73.58,73.48,73.55,73.55,73.51,73.45,73.46,73.49,73.45,73.39,73.40,73.30,73.25,73.25,73.27,73.23,73.23,73.22,73.21,73.21,73.22,73.21,73.21,73.21,73.21,73.21,73.20,73.21,73.23,73.25,73.25,73.24,73.21,73.21,73.18,73.17,73.19,73.22,73.23,73.30,73.38,73.38,73.33,73.33,73.33,73.29,73.24,73.26,73.29,73.31,73.32,73.33,73.34,73.38,73.47,73.52,73.48,73.40,73.34,73.36,73.34,73.31,73.28,73.23,73.13,73.04,72.92,72.77,72.76,72.84,72.91,72.93,72.88,72.84,72.81,72.80,72.82,72.86,72.85,72.82,72.81,72.79,72.77,72.75,72.76,72.79,72.59,72.38,72.26,72.27,72.24,72.25,72.27,72.29,72.28,72.27,72.29,72.30,72.29,72.25,72.22,72.17,72.10,71.99,71.91,71.87,71.83,71.76,71.67,71.66,71.67,71.62,71.58,71.65,71.75,71.85,71.90,71.93,71.99,72.03,72.04,72.06,72.04,72.02,72.02,72.00,71.99,71.96,71.94,71.91,71.82,71.80,71.83,71.88,71.88,71.89,71.90,71.91,71.94,71.96,71.96,71.94,71.90,71.88,71.84,71.80,71.79,71.79,71.84,71.85,71.83,71.82,71.80,71.79,71.80,71.80,71.79,71.66,71.52,71.44,71.45,71.52,71.57
73.87,73.83,73.81,73.83,73.84,73.82,73.78,73.74,73.71,73.73,73.75,73.71,73.71,73.74,73.75,73.71,73.75,73.75,73.78,73.83,73.85,73.82,73.81,73.82,73.86,73.89,73.94,73.99,74.01,74.08,74.15,74.11,74.00,73.98,73.98,73.97,73.95,73.89,73.78,73.73,73.74,73.75,73.62,73.62,73.62,73.64,73.73,73.78,73.80,73.83,73.88,73.87,73.86,73.81,73.71,73.65,73.66,73.68,73.70,73.70,73.55,73.52,73.56,73.62,73.66,73.64,73.63,73.65,73.70,73.65,73.67,73.71,73.74,73.70,73.69,73.70,73.70,73.69,73.64,73.61,73.61,73.64,73.68,73.64,73.62,73.63,73.49,73.43,73.46,73.54,73.61,73.57,73.60,73.61,73.55,73.59,73.59,73.56,73.52,73.54,73.58,73.53,73.46,73.45,73.33,73.28,73.30,73.36,73.32,73.31,73.30,73.29,73.29,73.30,73.28,73.26,73.22,73.23,73.20,73.19,73.20,73.21,73.20,73.20,73.19,73.18,73.18,73.15,73.14,73.15,73.16,73.16,73.21,73.28,73.24,73.19,73.17,73.16,73.15,73.13,73.15,73.17,73.17,73.17,73.18,73.21,73.27,73.34,73.39,73.37,73.31,73.26,73.28,73.24,73.21,73.18,73.15,73.09,72.99,72.87,72.73,72.76,72.86,72.93,72.93,72.90,72.87,72.84,72.82,72.82,72.87,72.85,72.83,72.83,72.82,72.79,72.77,72.76,72.75,72.56,72.37,72.26,72.26,72.23,72.22,72.23,72.24,72.24,72.25,72.26,72.27,72.25,72.22,72.17,72.13,72.07,71.98,71.90,71.86,71.82,71.76,71.67,71.66,71.67,71.63,71.58,71.64,71.75,71.87,71.93,71.96,72.02,72.07,72.07,72.07,72.05,72.04,72.04,72.01,71.99,71.96,71.93,71.89,71.80,71.77,71.79,71.81,71.80,71.83,71.86,71.89,71.91,71.90,71.90,71.90,71.86,71.84,71.82,71.81,71.80,71.79,71.84,71.85,71.83,71.83,71.81,71.80,71.78,71.79,71.78,71.65,71.51,71.42,71.40,71.44,71.49
73.90,73.86,73.76,73.72,73.71,73.71,73.72,73.76,73.74,73.72,73.69,73.63,73.66,73.69,73.68,73.63,73.67,73.65,73.67,73.76,73.80,73.80,73.80,73.80,73.80,73.86,73.93,73.99,74.01,74.07,74.09,74.03,73.93,73.90,73.90,73.94,73.91,73.73,73.50,73.42,73.47,73.57,73.60,73.65,73.65,73.64,73.69,73.77,73.80,73.83,73.87,73.81,73.79,73.76,73.68,73.55,73.58,73.63,73.65,73.59,73.53,73.54,73.60,73.66,73.60,73.65,73.68,73.69,73.69,73.69,73.68,73.68,73.68,73.70,73.70,73.71,73.72,73.70,73.69,73.64,73.63,73.70,73.70,73.65,73.61,73.57,73.44,73.42,73.41,73.41,73.48,73.47,73.53,73.59,73.60,73.60,73.59,73.57,73.54,73.60,73.61,73.58,73.51,73.43,73.35,73.34,73.40,73.50,73.50,73.48,73.45,73.43,73.43,73.44,73.42,73.35,73.26,73.27,73.22,73.19,73.20,73.22,73.21,73.20,73.18,73.15,73.18,73.18,73.17,73.17,73.15,73.13,73.13,73.14,73.08,73.04,73.01,73.00,73.00,73.03,73.05,73.05,73.01,72.99,73.01,73.07,73.13,73.17,73.18,73.19,73.18,73.14,73.14,73.09,73.06,73.06,73.06,73.03,72.94,72.81,72.68,72.74,72.84,72.91,72.92,72.94,72.94,72.92,72.88,72.84,72.86,72.84,72.84,72.87,72.88,72.85,72.83,72.81,72.76,72.55,72.37,72.27,72.28,72.24,72.21,72.20,72.20,72.23,72.24,72.25,72.25,72.25,72.21,72.14,72.08,72.04,71.98,71.89,71.84,71.81,71.76,71.67,71.66,71.67,71.66,71.59,71.63,71.74,71.88,71.92,71.95,72.00,72.05,72.06,72.04,72.02,71.99,71.98,71.95,71.94,71.92,71.89,71.85,71.78,71.74,71.73,71.74,71.70,71.74,71.82,71.88,71.86,71.81,71.80,71.82,71.81,71.80,71.80,71.80,71.80,71.77,71.83,71.85,71.83,71.82,71.81,71.78,71.76,71.78,71.76,71.63,71.50,71.41,71.35,71.35,71.36
73.99,73.98,73.90,73.83,73.79,73.75,73.72,73.72,73.69,73.66,73.64,73.62,73.61,73.62,73.64,73.63,73.61,73.58,73.60,73.67,73.68,73.68,73.69,73.70,73.71,73.75,73.83,73.89,73.90,73.97,74.00,73.97,73.91,73.92,73.86,73.84,73.79,73.62,73.41,73.47,73.56,73.59,73.58,73.61,73.67,73.71,73.70,73.76,73.78,73.79,73.81,73.75,73.73,73.70,73.68,73.64,73.67,73.64,73.58,73.53,73.49,73.44,73.44,73.50,73.51,73.56,73.57,73.57,73.61,73.63,73.63,73.62,73.61,73.66,73.66,73.69,73.73,73.68,73.66,73.63,73.63,73.70,73.68,73.67,73.66,73.63,73.51,73.50,73.46,73.43,73.48,73.42,73.45,73.53,73.58,73.60,73.60,73.59,73.58,73.63,73.66,73.65,73.61,73.52,73.40,73.37,73.42,73.51,73.45,73.43,73.42,73.42,73.43,73.52,73.53,73.48,73.42,73.42,73.37,73.34,73.35,73.33,73.29,73.27,73.26,73.24,73.23,73.21,73.20,73.19,73.18,73.15,73.13,73.11,73.08,73.04,73.01,73.00,73.00,73.00,73.00,72.99,72.95,72.92,72.95,72.97,73.00,73.02,73.00,73.00,73.00,72.98,72.94,72.92,72.93,72.94,72.95,72.95,72.87,72.76,72.67,72.72,72.82,72.89,72.92,72.95,72.96,72.92,72.87,72.84,72.86,72.82,72.81,72.84,72.86,72.83,72.82,72.81,72.73,72.48,72.33,72.26,72.26,72.22,72.19,72.17,72.16,72.19,72.21,72.20,72.18,72.16,72.15,72.10,72.05,72.01,71.97,71.89,71.83,71.80,71.76,71.65,71.63,71.64,71.62,71.57,71.64,71.76,71.88,71.91,71.95,71.99,72.02,72.02,72.02,72.00,71.99,71.98,71.94,71.92,71.89,71.85,71.79,71.74,71.72,71.71,71.71,71.66,71.65,71.65,71.67,71.66,71.64,71.62,71.61,71.62,71.66,71.70,71.74,71.78,71.78,71.78,71.77,71.76,71.79,71.77,71.72,71.70,71.76,71.74,71.57,71.42,71.36,71.44,71.51,71.54
74.08,74.07,74.02,73.93,73.86,73.79,73.71,73.69,73.67,73.66,73.65,73.65,73.62,73.63,73.65,73.65,73.62,73.58,73.58,73.62,73.62,73.61,73.62,73.62,73.62,73.63,73.69,73.74,73.75,73.83,73.87,73.86,73.82,73.85,73.77,73.73,73.68,73.57,73.42,73.50,73.59,73.60,73.57,73.60,73.68,73.75,73.71,73.74,73.75,73.75,73.75,73.70,73.66,73.64,73.64,73.67,73.69,73.63,73.54,73.50,73.46,73.39,73.36,73.40,73.45,73.48,73.47,73.46,73.51,73.55,73.58,73.57,73.55,73.62,73.60,73.64,73.70,73.63,73.62,73.61,73.62,73.67,73.65,73.68,73.69,73.66,73.58,73.55,73.51,73.47,73.51,73.43,73.44,73.49,73.53,73.54,73.55,73.56,73.58,73.64,73.68,73.69,73.66,73.56,73.42,73.38,73.42,73.51,73.41,73.41,73.42,73.42,73.44,73.54,73.57,73.55,73.53,73.52,73.46,73.44,73.45,73.41,73.34,73.32,73.33,73.32,73.29,73.25,73.23,73.23,73.23,73.19,73.16,73.14,73.13,73.09,73.06,73.04,73.03,73.01,72.97,72.94,72.92,72.88,72.90,72.90,72.91,72.92,72.89,72.87,72.87,72.86,72.81,72.81,72.83,72.84,72.83,72.84,72.78,72.70,72.64,72.69,72.77,72.83,72.87,72.90,72.90,72.86,72.81,72.79,72.82,72.79,72.78,72.80,72.82,72.81,72.82,72.81,72.69,72.41,72.27,72.23,72.24,72.21,72.17,72.14,72.13,72.15,72.17,72.16,72.12,72.09,72.08,72.06,72.04,72.01,71.96,71.89,71.83,71.79,71.75,71.64,71.61,71.62,71.61,71.57,71.65,71.76,71.86,71.89,71.94,71.98,72.01,72.01,71.99,71.98,71.98,71.97,71.93,71.91,71.88,71.82,71.75,71.71,71.70,71.71,71.70,71.66,71.61,71.58,71.58,71.59,71.57,71.53,71.49,71.50,71.56,71.60,71.64,71.68,71.69,71.67,71.64,71.62,71.66,71.65,71.60,71.61,71.72,71.68,71.50,71.36,71.34,71.52,71.63,71.64
74.13,74.12,74.09,74.03,73.92,73.80,73.69,73.68,73.71,73.72,73.73,73.73,73.72,73.74,73.75,73.72,73.74,73.71,73.66,73.61,73.63,73.64,73.61,73.57,73.56,73.51,73.50,73.51,73.54,73.64,73.68,73.67,73.64,73.64,73.60,73.60,73.61,73.59,73.54,73.52,73.54,73.58,73.56,73.61,73.68,73.73,73.71,73.71,73.71,73.71,73.70,73.66,73.60,73.56,73.56,73.59,73.62,73.59,73.54,73.50,73.43,73.41,73.40,73.39,73.45,73.43,73.37,73.34,73.40,73.47,73.52,73.53,73.51,73.55,73.53,73.55,73.59,73.56,73.57,73.59,73.60,73.59,73.60,73.66,73.69,73.67,73.65,73.57,73.53,73.54,73.58,73.53,73.52,73.50,73.44,73.42,73.42,73.45,73.52,73.63,73.68,73.69,73.64,73.51,73.42,73.36,73.40,73.50,73.40,73.44,73.45,73.45,73.46,73.51,73.53,73.54,73.58,73.53,73.49,73.48,73.49,73.46,73.37,73.36,73.39,73.39,73.36,73.31,73.29,73.29,73.29,73.27,73.25,73.24,73.24,73.21,73.17,73.14,73.12,73.05,72.97,72.92,72.91,72.88,72.86,72.88,72.90,72.90,72.88,72.84,72.81,72.81,72.79,72.79,72.78,72.74,72.69,72.71,72.67,72.62,72.61,72.62,72.66,72.71,72.74,72.75,72.73,72.69,72.66,72.68,72.72,72.74,72.74,72.73,72.72,72.77,72.82,72.80,72.65,72.33,72.19,72.18,72.21,72.20,72.17,72.13,72.10,72.11,72.11,72.11,72.09,72.06,72.02,72.03,72.05,72.03,71.96,71.89,71.83,71.79,71.75,71.63,71.60,71.62,71.63,71.60,71.66,71.75,71.82,71.86,71.93,72.00,72.04,72.04,71.97,71.96,71.96,71.94,71.91,71.90,71.88,71.82,71.75,71.67,71.69,71.73,71.72,71.70,71.66,71.64,71.67,71.70,71.66,71.60,71.53,71.48,71.50,71.48,71.46,71.45,71.46,71.45,71.41,71.37,71.37,71.40,71.41,71.47,71.65,71.56,71.43,71.33,71.34,71.55,71.65,71.66
74.19,74.17,74.12,74.05,73.94,73.80,73.69,73.68,73.73,73.76,73.77,73.77,73.79,73.81,73.81,73.79,73.82,73.81,73.77,73.71,73.70,73.69,73.66,73.62,73.61,73.55,73.51,73.51,73.52,73.58,73.58,73.56,73.54,73.53,73.50,73.48,73.48,73.51,73.48,73.48,73.51,73.55,73.57,73.64,73.69,73.71,73.70,73.67,73.66,73.66,73.66,73.63,73.61,73.56,73.50,73.50,73.51,73.50,73.48,73.46,73.45,73.45,73.45,73.45,73.51,73.50,73.44,73.40,73.43,73.46,73.48,73.46,73.42,73.43,73.42,73.44,73.50,73.56,73.58,73.57,73.55,73.54,73.59,73.66,73.69,73.68,73.68,73.60,73.54,73.54,73.60,73.58,73.57,73.55,73.50,73.49,73.45,73.42,73.41,73.47,73.50,73.53,73.52,73.45,73.41,73.41,73.44,73.50,73.45,73.47,73.48,73.48,73.48,73.50,73.51,73.52,73.54,73.51,73.47,73.47,73.48,73.43,73.36,73.36,73.38,73.35,73.33,73.27,73.23,73.20,73.22,73.26,73.26,73.23,73.25,73.28,73.25,73.22,73.21,73.16,73.09,73.06,73.05,73.04,73.01,72.97,72.93,72.88,72.85,72.81,72.78,72.76,72.76,72.75,72.73,72.70,72.65,72.69,72.68,72.64,72.60,72.60,72.61,72.63,72.63,72.61,72.58,72.53,72.47,72.47,72.51,72.52,72.53,72.54,72.53,72.56,72.59,72.58,72.50,72.29,72.20,72.18,72.20,72.18,72.15,72.12,72.10,72.10,72.08,72.06,72.04,72.01,71.97,71.97,71.97,71.95,71.88,71.84,71.81,71.78,71.76,71.67,71.62,71.61,71.62,71.58,71.64,71.74,71.84,71.88,71.91,71.96,72.01,72.02,71.98,71.96,71.94,71.92,71.89,71.89,71.88,71.84,71.75,71.69,71.70,71.72,71.72,71.71,71.70,71.72,71.75,71.80,71.77,71.73,71.67,71.62,71.58,71.54,71.50,71.48,71.49,71.47,71.44,71.40,71.41,71.41,71.40,71.43,71.51,71.40,71.34,71.32,71.36,71.52,71.62,71.64
74.21,74.18,74.11,74.04,73.93,73.80,73.69,73.68,73.74,73.78,73.80,73.80,73.83,73.86,73.86,73.85,73.88,73.89,73.86,73.79,73.77,73.74,73.71,73.68,73.66,73.61,73.57,73.56,73.56,73.59,73.55,73.52,73.51,73.51,73.45,73.40,73.38,73.42,73.40,73.43,73.48,73.53,73.59,73.66,73.69,73.69,73.69,73.64,73.62,73.62,73.64,73.63,73.65,73.58,73.45,73.42,73.41,73.41,73.41,73.41,73.47,73.49,73.50,73.52,73.57,73.56,73.52,73.47,73.48,73.48,73.45,73.40,73.36,73.35,73.35,73.38,73.44,73.58,73.58,73.54,73.51,73.50,73.57,73.63,73.66,73.66,73.67,73.61,73.55,73.53,73.60,73.60,73.60,73.59,73.58,73.58,73.52,73.43,73.35,73.35,73.34,73.37,73.40,73.40,73.41,73.46,73.49,73.50,73.50,73.50,73.49,73.49,73.49,73.49,73.49,73.49,73.49,73.47,73.44,73.44,73.45,73.39,73.34,73.34,73.35,73.30,73.28,73.23,73.17,73.12,73.15,73.22,73.23,73.20,73.22,73.30,73.28,73.24,73.24,73.23,73.20,73.18,73.20,73.19,73.16,73.07,72.96,72.88,72.85,72.82,72.79,72.76,72.75,72.73,72.71,72.69,72.66,72.70,72.71,72.67,72.60,72.59,72.58,72.57,72.53,72.50,72.47,72.40,72.32,72.28,72.32,72.31,72.32,72.35,72.34,72.33,72.33,72.34,72.33,72.25,72.21,72.19,72.19,72.16,72.13,72.10,72.09,72.08,72.05,72.02,71.99,71.97,71.93,71.91,71.89,71.85,71.80,71.80,71.79,71.77,71.77,71.71,71.65,71.60,71.60,71.55,71.62,71.74,71.86,71.89,71.90,71.93,71.97,72.00,72.00,71.96,71.92,71.89,71.87,71.88,71.88,71.85,71.73,71.69,71.70,71.72,71.72,71.73,71.76,71.79,71.83,71.87,71.87,71.84,71.80,71.76,71.67,71.62,71.58,71.56,71.57,71.55,71.53,71.50,71.52,71.48,71.45,71.44,71.41,71.28,71.27,71.30,71.35,71.47,71.57,71.60
74.09,74.07,74.05,73.99,73.90,73.79,73.67,73.67,73.74,73.78,73.80,73.80,73.81,73.85,73.87,73.89,73.89,73.90,73.85,73.77,73.78,73.77,73.74,73.69,73.64,73.61,73.59,73.60,73.65,73.71,73.68,73.67,73.70,73.71,73.57,73.46,73.41,73.41,73.40,73.44,73.49,73.52,73.64,73.68,73.67,73.63,73.62,73.61,73.61,73.65,73.74,73.75,73.72,73.62,73.49,73.42,73.36,73.37,73.38,73.34,73.45,73.49,73.52,73.57,73.59,73.50,73.47,73.49,73.50,73.50,73.45,73.45,73.52,73.47,73.46,73.44,73.44,73.58,73.54,73.50,73.49,73.49,73.51,73.49,73.49,73.54,73.54,73.56,73.57,73.58,73.60,73.60,73.60,73.60,73.60,73.59,73.58,73.55,73.51,73.47,73.42,73.38,73.37,73.40,73.42,73.47,73.50,73.49,73.50,73.48,73.45,73.42,73.42,73.42,73.42,73.42,73.42,73.42,73.41,73.41,73.41,73.38,73.33,73.31,73.31,73.28,73.26,73.25,73.23,73.18,73.17,73.20,73.20,73.17,73.13,73.16,73.12,73.08,73.08,73.10,73.11,73.14,73.18,73.16,73.15,73.08,72.99,72.91,72.92,72.92,72.92,72.93,72.90,72.83,72.79,72.77,72.73,72.70,72.66,72.63,72.58,72.56,72.54,72.52,72.50,72.47,72.44,72.39,72.33,72.30,72.28,72.25,72.23,72.24,72.22,72.20,72.19,72.19,72.18,72.16,72.16,72.17,72.15,72.13,72.11,72.09,72.07,72.05,72.02,72.01,71.98,71.93,71.89,71.88,71.86,71.83,71.80,71.81,71.81,71.80,71.79,71.72,71.66,71.62,71.61,71.57,71.64,71.74,71.84,71.88,71.90,71.93,71.97,72.00,71.98,71.94,71.89,71.86,71.84,71.84,71.84,71.80,71.67,71.64,71.68,71.74,71.76,71.76,71.81,71.86,71.88,71.87,71.87,71.85,71.81,71.76,71.69,71.65,71.62,71.60,71.61,71.61,71.62,71.63,71.62,71.58,71.56,71.55,71.52,71.36,71.28,71.26,71.28,71.39,71.47,71.50
74.02,73.97,73.96,73.94,73.87,73.76,73.65,73.67,73.75,73.80,73.81,73.80,73.79,73.82,73.86,73.87,73.88,73.90,73.86,73.78,73.76,73.77,73.75,73.71,73.68,73.68,73.66,73.66,73.71,73.79,73.79,73.78,73.79,73.79,73.64,73.51,73.42,73.40,73.40,73.43,73.49,73.57,73.67,73.69,73.66,73.62,73.64,73.61,73.62,73.68,73.78,73.77,73.72,73.61,73.49,73.41,73.34,73.35,73.37,73.34,73.43,73.47,73.50,73.54,73.55,73.50,73.50,73.53,73.53,73.51,73.47,73.48,73.55,73.51,73.50,73.47,73.45,73.54,73.48,73.45,73.45,73.45,73.45,73.42,73.42,73.45,73.43,73.44,73.48,73.53,73.58,73.58,73.58,73.58,73.58,73.58,73.59,73.60,73.59,73.55,73.50,73.44,73.40,73.42,73.44,73.50,73.51,73.46,73.48,73.47,73.43,73.40,73.40,73.40,73.40,73.40,73.40,73.40,73.40,73.40,73.40,73.38,73.32,73.30,73.30,73.29,73.27,73.28,73.27,73.23,73.18,73.18,73.17,73.13,73.06,73.07,73.06,73.03,73.02,73.06,73.11,73.16,73.19,73.16,73.14,73.08,73.00,72.92,72.94,72.97,72.99,73.00,72.96,72.90,72.86,72.85,72.81,72.76,72.69,72.63,72.60,72.62,72.61,72.59,72.56,72.53,72.50,72.43,72.37,72.32,72.29,72.23,72.20,72.20,72.18,72.16,72.14,72.12,72.11,72.10,72.12,72.13,72.11,72.07,72.05,72.03,72.01,71.99,71.98,71.97,71.94,71.89,71.86,71.84,71.83,71.81,71.82,71.84,71.84,71.83,71.80,71.72,71.66,71.64,71.63,71.59,71.64,71.72,71.80,71.84,71.87,71.92,71.97,71.98,71.96,71.90,71.85,71.81,71.79,71.80,71.80,71.76,71.64,71.63,71.68,71.76,71.78,71.80,71.85,71.86,71.83,71.80,71.81,71.81,71.78,71.74,71.68,71.65,71.63,71.63,71.63,71.64,71.65,71.66,71.64,71.61,71.59,71.57,71.54,71.38,71.29,71.23,71.19,71.23,71.30,71.33
73.97,73.88,73.87,73.89,73.83,73.72,73.63,73.66,73.78,73.84,73.83,73.80,73.76,73.79,73.83,73.82,73.86,73.89,73.87,73.81,73.74,73.75,73.74,73.73,73.76,73.79,73.76,73.73,73.76,73.83,73.87,73.85,73.81,73.78,73.68,73.54,73.43,73.40,73.40,73.41,73.50,73.64,73.69,73.70,73.66,73.64,73.69,73.63,73.65,73.72,73.78,73.72,73.67,73.58,73.48,73.41,73.34,73.34,73.37,73.37,73.39,73.42,73.45,73.47,73.50,73.55,73.57,73.57,73.57,73.51,73.50,73.50,73.50,73.50,73.50,73.49,73.47,73.47,73.42,73.40,73.40,73.40,73.40,73.40,73.40,73.39,73.34,73.29,73.33,73.43,73.55,73.56,73.54,73.54,73.56,73.56,73.58,73.60,73.60,73.60,73.56,73.52,73.48,73.44,73.46,73.53,73.52,73.42,73.45,73.45,73.42,73.40,73.40,73.40,73.40,73.40,73.40,73.40,73.40,73.40,73.40,73.38,73.32,73.30,73.30,73.30,73.30,73.30,73.29,73.26,73.17,73.15,73.13,73.09,73.00,73.02,73.05,73.05,73.02,73.08,73.17,73.23,73.22,73.17,73.14,73.08,73.00,72.92,72.91,72.98,73.03,73.00,72.97,72.94,72.93,72.93,72.90,72.85,72.75,72.66,72.65,72.73,72.74,72.72,72.67,72.65,72.60,72.52,72.42,72.36,72.32,72.25,72.20,72.20,72.20,72.17,72.13,72.10,72.09,72.07,72.08,72.09,72.06,72.01,71.98,71.95,71.93,71.93,71.93,71.92,71.89,71.85,71.82,71.79,71.79,71.80,71.84,71.87,71.87,71.84,71.80,71.72,71.67,71.65,71.65,71.61,71.64,71.69,71.74,71.77,71.84,71.91,71.96,71.96,71.92,71.87,71.81,71.74,71.72,71.75,71.76,71.73,71.63,71.64,71.70,71.77,71.80,71.84,71.87,71.84,71.74,71.70,71.72,71.73,71.72,71.71,71.66,71.62,71.62,71.65,71.62,71.64,71.65,71.63,71.60,71.60,71.57,71.53,71.50,71.38,71.31,71.22,71.09,71.04,71.09,71.12
73.98,73.94,73.91,73.89,73.81,73.70,73.62,73.66,73.76,73.83,73.85,73.81,73.77,73.77,73.79,73.80,73.86,73.88,73.85,73.77,73.71,73.71,73.71,73.71,73.74,73.76,73.73,73.70,73.71,73.77,73.79,73.79,73.77,73.72,73.65,73.52,73.40,73.38,73.39,73.45,73.53,73.61,73.66,73.68,73.66,73.63,73.66,73.62,73.67,73.74,73.79,73.75,73.65,73.55,73.45,73.38,73.33,73.32,73.32,73.29,73.28,73.28,73.32,73.39,73.42,73.47,73.49,73.49,73.49,73.44,73.43,73.44,73.46,73.49,73.50,73.43,73.33,73.38,73.40,73.40,73.40,73.40,73.40,73.38,73.37,73.39,73.33,73.30,73.27,73.26,73.36,73.40,73.41,73.45,73.52,73.52,73.55,73.56,73.57,73.59,73.54,73.51,73.49,73.48,73.47,73.51,73.49,73.41,73.42,73.43,73.42,73.39,73.36,73.39,73.40,73.40,73.40,73.39,73.37,73.37,73.39,73.34,73.31,73.30,73.30,73.30,73.30,73.30,73.30,73.29,73.24,73.13,73.09,73.10,73.08,73.07,73.07,73.08,73.07,73.15,73.24,73.29,73.28,73.18,73.10,73.05,73.01,72.97,72.97,73.02,73.04,73.00,72.98,72.97,72.98,72.99,72.99,72.89,72.74,72.64,72.69,72.81,72.84,72.83,72.83,72.83,72.76,72.64,72.52,72.44,72.40,72.36,72.34,72.34,72.30,72.24,72.20,72.18,72.21,72.15,72.08,72.04,72.02,71.98,71.95,71.92,71.91,71.91,71.91,71.91,71.89,71.85,71.81,71.79,71.78,71.77,71.76,71.77,71.77,71.76,71.74,71.71,71.71,71.71,71.70,71.64,71.63,71.65,71.69,71.72,71.80,71.85,71.86,71.79,71.76,71.73,71.69,71.65,71.64,71.68,71.71,71.69,71.60,71.62,71.67,71.74,71.78,71.84,71.88,71.86,71.79,71.73,71.71,71.73,71.74,71.72,71.65,71.59,71.55,71.52,71.52,71.60,71.64,71.63,71.61,71.63,71.60,71.52,71.44,71.28,71.22,71.23,71.25,71.19,71.15,71.10
73.98,73.96,73.92,73.87,73.77,73.66,73.59,73.65,73.74,73.80,73.82,73.81,73.78,73.76,73.77,73.79,73.86,73.86,73.80,73.72,73.66,73.67,73.68,73.70,73.73,73.74,73.71,73.68,73.68,73.70,73.72,73.74,73.73,73.65,73.57,73.46,73.37,73.35,73.39,73.48,73.56,73.60,73.63,73.66,73.65,73.62,73.63,73.61,73.67,73.75,73.79,73.76,73.65,73.53,73.44,73.35,73.32,73.30,73.29,73.27,73.22,73.19,73.21,73.28,73.33,73.39,73.41,73.41,73.41,73.38,73.37,73.37,73.40,73.46,73.49,73.40,73.26,73.30,73.37,73.39,73.38,73.40,73.38,73.35,73.36,73.41,73.37,73.36,73.29,73.22,73.28,73.27,73.28,73.34,73.43,73.45,73.49,73.51,73.53,73.55,73.51,73.49,73.48,73.50,73.48,73.51,73.49,73.40,73.40,73.43,73.42,73.38,73.35,73.39,73.40,73.41,73.41,73.38,73.34,73.34,73.36,73.32,73.30,73.30,73.30,73.30,73.30,73.30,73.30,73.30,73.26,73.12,73.08,73.11,73.12,73.09,73.08,73.08,73.11,73.17,73.24,73.28,73.25,73.15,73.06,73.02,73.00,72.97,73.00,73.05,73.06,73.03,73.02,73.02,73.02,73.03,73.02,72.89,72.72,72.62,72.69,72.84,72.89,72.90,72.92,72.94,72.86,72.75,72.63,72.55,72.53,72.51,72.49,72.48,72.42,72.33,72.27,72.24,72.25,72.19,72.12,72.07,72.06,72.03,72.00,71.97,71.95,71.96,71.93,71.89,71.85,71.82,71.79,71.78,71.77,71.74,71.70,71.69,71.70,71.70,71.70,71.70,71.72,71.75,71.74,71.66,71.62,71.62,71.64,71.63,71.69,71.73,71.71,71.62,71.62,71.61,71.59,71.56,71.56,71.60,71.63,71.62,71.54,71.58,71.64,71.71,71.76,71.82,71.85,71.84,71.79,71.72,71.70,71.71,71.74,71.72,71.65,71.57,71.50,71.45,71.48,71.57,71.62,71.62,71.61,71.64,71.59,71.50,71.39,71.22,71.18,71.23,71.33,71.28,71.20,71.12
73.95,73.92,73.88,73.83,73.72,73.61,73.56,73.64,73.71,73.74,73.76,73.78,73.77,73.76,73.77,73.79,73.86,73.82,73.74,73.65,73.61,73.63,73.66,73.69,73.73,73.72,73.69,73.67,73.66,73.61,73.65,73.69,73.68,73.59,73.44,73.36,73.32,73.31,73.41,73.52,73.58,73.60,73.60,73.63,73.62,73.60,73.60,73.60,73.66,73.74,73.79,73.75,73.66,73.55,73.43,73.32,73.30,73.30,73.31,73.33,73.25,73.17,73.11,73.12,73.22,73.30,73.33,73.33,73.33,73.31,73.31,73.30,73.28,73.40,73.47,73.41,73.26,73.23,73.35,73.36,73.35,73.40,73.34,73.31,73.36,73.47,73.46,73.46,73.40,73.33,73.33,73.19,73.15,73.20,73.28,73.34,73.40,73.46,73.49,73.45,73.48,73.46,73.45,73.50,73.50,73.54,73.51,73.40,73.41,73.45,73.44,73.40,73.39,73.40,73.40,73.42,73.44,73.34,73.31,73.31,73.32,73.30,73.30,73.30,73.30,73.30,73.30,73.30,73.29,73.27,73.20,73.13,73.10,73.10,73.10,73.09,73.06,73.05,73.10,73.13,73.17,73.16,73.12,73.08,73.03,72.99,72.97,72.94,73.01,73.07,73.09,73.09,73.09,73.09,73.07,73.04,72.97,72.84,72.68,72.59,72.63,72.81,72.88,72.91,72.93,72.96,72.89,72.82,72.75,72.71,72.70,72.69,72.68,72.64,72.57,72.46,72.35,72.26,72.22,72.20,72.21,72.22,72.20,72.18,72.16,72.12,72.06,72.09,72.00,71.88,71.77,71.74,71.75,71.75,71.74,71.72,71.67,71.65,71.66,71.68,71.69,71.70,71.72,71.74,71.74,71.67,71.63,71.60,71.57,71.49,71.50,71.50,71.49,71.47,71.51,71.51,71.49,71.46,71.46,71.50,71.52,71.50,71.46,71.50,71.59,71.69,71.76,71.77,71.77,71.76,71.72,71.68,71.67,71.68,71.70,71.70,71.65,71.57,71.50,71.47,71.50,71.56,71.59,71.59,71.62,71.62,71.55,71.45,71.34,71.21,71.18,71.23,71.32,71.31,71.26,71.19
73.93,73.91,73.88,73.81,73.70,73.61,73.58,73.62,73.67,73.71,73.71,73.69,73.69,73.72,73.77,73.83,73.88,73.85,73.78,73.68,73.62,73.61,73.64,73.68,73.71,73.68,73.63,73.60,73.59,73.58,73.66,73.71,73.68,73.53,73.39,73.32,73.31,73.34,73.44,73.48,73.52,73.55,73.59,73.61,73.61,73.60,73.60,73.60,73.63,73.67,73.69,73.67,73.61,73.51,73.41,73.32,73.30,73.30,73.32,73.36,73.29,73.24,73.22,73.24,73.22,73.21,73.19,73.18,73.25,73.28,73.32,73.34,73.34,73.39,73.40,73.35,73.28,73.26,73.36,73.35,73.32,73.35,73.32,73.31,73.39,73.54,73.54,73.54,73.52,73.47,73.43,73.35,73.30,73.28,73.28,73.23,73.25,73.31,73.37,73.35,73.41,73.44,73.45,73.44,73.45,73.47,73.46,73.40,73.40,73.42,73.42,73.40,73.40,73.42,73.39,73.38,73.41,73.35,73.32,73.30,73.30,73.30,73.30,73.32,73.32,73.29,73.29,73.29,73.27,73.23,73.19,73.12,73.09,73.10,73.09,73.07,73.04,73.02,73.05,73.09,73.10,73.08,73.04,73.05,73.04,72.99,72.95,72.95,73.05,73.11,73.14,73.17,73.17,73.15,73.09,72.99,72.88,72.75,72.65,72.63,72.67,72.84,72.89,72.91,72.93,72.96,72.94,72.91,72.88,72.87,72.88,72.87,72.84,72.77,72.67,72.56,72.45,72.36,72.31,72.26,72.26,72.27,72.26,72.25,72.23,72.19,72.14,72.16,72.07,71.94,71.84,71.84,71.87,71.87,71.85,71.81,71.75,71.70,71.69,71.69,71.70,71.71,71.71,71.72,71.72,71.68,71.65,71.62,71.56,71.48,71.47,71.46,71.45,71.43,71.44,71.44,71.41,71.37,71.37,71.40,71.41,71.40,71.37,71.39,71.44,71.51,71.56,71.56,71.57,71.57,71.57,71.56,71.56,71.59,71.61,71.62,71.62,71.55,71.48,71.44,71.48,71.54,71.57,71.55,71.56,71.56,71.52,71.44,71.33,71.23,71.20,71.23,71.29,71.29,71.26,71.21
73.91,73.89,73.88,73.80,73.69,73.61,73.59,73.61,73.65,73.67,73.67,73.60,73.61,73.67,73.76,73.83,73.86,73.86,73.80,73.71,73.62,73.60,73.63,73.66,73.68,73.64,73.59,73.54,73.51,73.55,73.66,73.70,73.64,73.46,73.35,73.31,73.33,73.39,73.47,73.45,73.45,73.50,73.57,73.59,73.60,73.60,73.60,73.60,73.59,73.59,73.61,73.60,73.55,73.47,73.38,73.30,73.30,73.30,73.32,73.38,73.33,73.32,73.34,73.37,73.26,73.19,73.11,73.08,73.18,73.25,73.32,73.36,73.38,73.37,73.32,73.30,73.30,73.29,73.35,73.34,73.30,73.30,73.29,73.30,73.41,73.59,73.59,73.60,73.61,73.60,73.53,73.52,73.48,73.42,73.35,73.20,73.17,73.21,73.27,73.26,73.33,73.40,73.43,73.38,73.40,73.41,73.41,73.40,73.40,73.39,73.38,73.38,73.41,73.43,73.37,73.33,73.37,73.36,73.33,73.30,73.30,73.30,73.30,73.32,73.32,73.27,73.27,73.26,73.24,73.20,73.18,73.11,73.09,73.10,73.08,73.06,73.02,72.99,72.99,73.03,73.03,73.01,72.98,73.01,73.03,72.99,72.94,72.97,73.11,73.16,73.19,73.24,73.24,73.20,73.10,72.95,72.80,72.66,72.63,72.66,72.71,72.85,72.89,72.91,72.93,72.96,72.97,72.96,72.96,72.98,73.00,73.00,72.96,72.87,72.76,72.64,72.55,72.49,72.42,72.33,72.30,72.30,72.30,72.30,72.28,72.24,72.20,72.20,72.12,72.01,71.93,71.95,71.99,71.99,71.96,71.91,71.84,71.77,71.73,71.72,71.72,71.73,71.71,71.70,71.69,71.67,71.66,71.62,71.56,71.50,71.47,71.46,71.45,71.42,71.40,71.38,71.35,71.31,71.30,71.32,71.32,71.31,71.29,71.29,71.31,71.33,71.37,71.35,71.36,71.39,71.41,71.40,71.42,71.45,71.47,71.47,71.54,71.50,71.42,71.38,71.42,71.49,71.52,71.51,71.48,71.50,71.49,71.43,71.32,71.24,71.21,71.22,71.26,71.25,71.24,71.21
73.88,73.88,73.84,73.76,73.65,73.57,73.57,73.64,73.64,73.63,73.61,73.60,73.60,73.62,73.65,73.71,73.74,73.74,73.71,73.65,73.60,73.59,73.60,73.61,73.61,73.61,73.59,73.56,73.51,73.51,73.56,73.57,73.51,73.38,73.32,73.33,73.39,73.47,73.49,73.45,73.45,73.50,73.57,73.59,73.60,73.60,73.60,73.60,73.57,73.56,73.59,73.55,73.52,73.44,73.33,73.24,73.26,73.29,73.31,73.34,73.37,73.38,73.39,73.39,73.36,73.34,73.30,73.23,73.17,73.18,73.20,73.24,73.29,73.24,73.25,73.28,73.29,73.25,73.30,73.31,73.30,73.30,73.24,73.30,73.43,73.56,73.57,73.61,73.65,73.66,73.58,73.60,73.60,73.59,73.54,73.39,73.33,73.28,73.23,73.17,73.21,73.28,73.34,73.35,73.42,73.44,73.43,73.40,73.39,73.36,73.34,73.34,73.39,73.37,73.33,73.32,73.34,73.33,73.32,73.31,73.28,73.29,73.28,73.27,73.26,73.22,73.22,73.22,73.22,73.21,73.15,73.09,73.08,73.10,73.08,73.05,73.03,72.99,72.95,72.94,72.96,72.95,72.93,72.96,72.96,72.92,72.92,73.02,73.18,73.23,73.25,73.28,73.28,73.22,73.11,72.96,72.80,72.64,72.60,72.63,72.69,72.80,72.86,72.91,72.96,72.96,72.91,72.87,72.86,72.89,72.96,73.01,72.99,72.89,72.79,72.70,72.65,72.62,72.55,72.40,72.32,72.30,72.30,72.30,72.28,72.24,72.20,72.20,72.12,72.02,71.96,71.99,72.00,72.00,71.99,71.97,71.93,71.87,71.82,71.79,71.78,71.77,71.73,71.68,71.64,71.64,71.62,71.60,71.56,71.52,71.50,71.48,71.46,71.43,71.42,71.39,71.36,71.32,71.31,71.31,71.29,71.27,71.25,71.26,71.27,71.28,71.29,71.25,71.24,71.24,71.23,71.22,71.23,71.23,71.21,71.20,71.27,71.30,71.29,71.28,71.29,71.35,71.40,71.43,71.40,71.42,71.43,71.39,71.28,71.19,71.18,71.20,71.22,71.21,71.21,71.20
73.76,73.76,73.70,73.65,73.57,73.51,73.52,73.59,73.59,73.56,73.55,73.57,73.57,73.58,73.60,73.64,73.67,73.67,73.65,73.61,73.57,73.55,73.54,73.54,73.55,73.58,73.58,73.54,73.48,73.46,73.49,73.47,73.40,73.32,73.30,73.33,73.41,73.49,73.50,73.46,73.46,73.52,73.58,73.59,73.60,73.60,73.60,73.60,73.58,73.57,73.59,73.55,73.50,73.41,73.29,73.20,73.23,73.27,73.31,73.35,73.39,73.40,73.40,73.40,73.41,73.41,73.36,73.29,73.23,73.23,73.21,73.21,73.26,73.20,73.20,73.24,73.29,73.28,73.29,73.30,73.30,73.30,73.22,73.27,73.36,73.45,73.47,73.55,73.63,73.67,73.62,73.65,73.69,73.70,73.64,73.53,73.47,73.41,73.35,73.27,73.26,73.28,73.31,73.33,73.42,73.44,73.41,73.38,73.39,73.37,73.33,73.32,73.37,73.34,73.32,73.31,73.33,73.31,73.32,73.31,73.27,73.28,73.25,73.23,73.23,73.22,73.20,73.21,73.22,73.23,73.13,73.09,73.09,73.11,73.12,73.10,73.07,73.03,72.98,72.95,72.97,72.97,72.97,72.98,72.93,72.88,72.89,73.03,73.20,73.26,73.28,73.30,73.28,73.19,73.06,72.92,72.76,72.59,72.57,72.61,72.65,72.73,72.80,72.87,72.92,72.92,72.86,72.80,72.76,72.77,72.86,72.94,72.97,72.90,72.84,72.78,72.76,72.73,72.63,72.42,72.31,72.29,72.30,72.30,72.28,72.24,72.20,72.20,72.12,72.04,71.98,72.00,72.00,71.99,71.98,71.96,71.94,71.90,71.86,71.82,71.80,71.79,71.73,71.66,71.60,71.64,71.66,71.67,71.64,71.62,71.57,71.56,71.56,71.57,71.55,71.50,71.45,71.41,71.39,71.36,71.33,71.28,71.24,71.23,71.24,71.23,71.21,71.17,71.16,71.16,71.17,71.17,71.18,71.16,71.12,71.10,71.15,71.18,71.17,71.13,71.11,71.15,71.20,71.21,71.18,71.21,71.25,71.24,71.17,71.10,71.11,71.14,71.16,71.18,71.17,71.18
73.59,73.59,73.51,73.51,73.48,73.45,73.46,73.51,73.50,73.48,73.48,73.51,73.53,73.54,73.57,73.59,73.62,73.63,73.61,73.57,73.52,73.49,73.47,73.47,73.49,73.55,73.54,73.50,73.45,73.42,73.42,73.38,73.30,73.29,73.28,73.32,73.41,73.50,73.51,73.48,73.48,73.55,73.58,73.60,73.60,73.60,73.60,73.60,73.60,73.60,73.60,73.56,73.48,73.37,73.26,73.18,73.18,73.23,73.31,73.38,73.39,73.40,73.40,73.40,73.43,73.41,73.36,73.32,73.34,73.35,73.28,73.23,73.25,73.21,73.17,73.21,73.30,73.35,73.31,73.30,73.30,73.30,73.22,73.23,73.27,73.30,73.33,73.46,73.58,73.64,73.64,73.68,73.75,73.77,73.69,73.63,73.58,73.56,73.54,73.46,73.40,73.34,73.30,73.30,73.41,73.41,73.37,73.35,73.39,73.39,73.35,73.31,73.34,73.33,73.31,73.31,73.33,73.31,73.32,73.30,73.27,73.28,73.23,73.21,73.22,73.25,73.21,73.21,73.23,73.24,73.12,73.10,73.11,73.14,73.19,73.16,73.12,73.08,73.05,73.01,73.03,73.05,73.04,73.03,72.94,72.85,72.85,73.02,73.20,73.28,73.30,73.29,73.25,73.13,72.99,72.86,72.70,72.54,72.54,72.60,72.61,72.65,72.72,72.79,72.84,72.85,72.82,72.74,72.66,72.63,72.73,72.85,72.91,72.89,72.87,72.86,72.86,72.83,72.68,72.42,72.29,72.27,72.30,72.30,72.27,72.24,72.20,72.20,72.13,72.05,71.99,72.00,72.00,71.98,71.94,71.91,71.91,71.90,71.87,71.83,71.80,71.80,71.72,71.63,71.57,71.67,71.74,71.78,71.77,71.73,71.66,71.66,71.70,71.77,71.73,71.67,71.59,71.52,71.49,71.45,71.39,71.32,71.25,71.22,71.21,71.19,71.16,71.13,71.11,71.13,71.17,71.19,71.20,71.17,71.12,71.10,71.10,71.10,71.06,70.97,70.91,70.95,70.95,70.93,70.90,70.95,71.01,71.05,71.02,71.00,71.03,71.06,71.09,71.14,71.12,71.13
73.65,73.65,73.56,73.57,73.54,73.51,73.48,73.49,73.46,73.44,73.42,73.41,73.41,73.44,73.46,73.47,73.47,73.47,73.47,73.46,73.46,73.42,73.41,73.42,73.45,73.49,73.49,73.47,73.44,73.41,73.41,73.36,73.29,73.29,73.28,73.34,73.41,73.44,73.45,73.49,73.51,73.53,73.58,73.59,73.60,73.60,73.60,73.57,73.56,73.57,73.58,73.51,73.43,73.35,73.26,73.18,73.16,73.14,73.16,73.25,73.30,73.33,73.35,73.36,73.38,73.40,73.38,73.37,73.42,73.40,73.35,73.32,73.32,73.28,73.22,73.23,73.30,73.33,73.31,73.30,73.30,73.30,73.26,73.26,73.24,73.19,73.19,73.26,73.37,73.47,73.48,73.57,73.65,73.70,73.70,73.67,73.65,73.64,73.61,73.54,73.45,73.33,73.25,73.24,73.34,73.35,73.33,73.32,73.34,73.34,73.32,73.30,73.31,73.31,73.30,73.30,73.30,73.25,73.26,73.27,73.29,73.29,73.26,73.23,73.21,73.22,73.20,73.20,73.21,73.22,73.17,73.16,73.16,73.18,73.21,73.22,73.19,73.15,73.14,73.13,73.13,73.13,73.12,73.11,73.08,72.96,72.89,73.05,73.24,73.32,73.32,73.27,73.20,73.07,72.94,72.82,72.67,72.55,72.55,72.57,72.54,72.57,72.64,72.70,72.73,72.71,72.71,72.67,72.64,72.68,72.79,72.83,72.82,72.76,72.73,72.83,72.84,72.73,72.52,72.36,72.30,72.29,72.30,72.28,72.24,72.21,72.20,72.20,72.14,72.04,71.96,71.93,71.93,71.93,71.91,71.90,71.90,71.90,71.88,71.84,71.80,71.78,71.71,71.63,71.58,71.65,71.71,71.74,71.75,71.67,71.58,71.58,71.64,71.72,71.72,71.67,71.59,71.52,71.49,71.47,71.46,71.45,71.43,71.42,71.38,71.33,71.31,71.28,71.24,71.20,71.17,71.14,71.12,71.11,71.11,71.09,71.09,71.09,71.07,71.01,70.97,70.97,70.97,70.96,70.94,70.92,70.93,70.95,70.96,70.95,70.93,70.91,70.91,70.95,70.94,70.96
73.73,73.73,73.65,73.65,73.63,73.59,73.55,73.50,73.47,73.44,73.42,73.39,73.38,73.40,73.42,73.41,73.39,73.38,73.36,73.35,73.39,73.36,73.36,73.37,73.40,73.41,73.41,73.41,73.40,73.39,73.36,73.31,73.27,73.27,73.30,73.38,73.43,73.41,73.42,73.48,73.52,73.52,73.59,73.60,73.59,73.58,73.57,73.56,73.54,73.54,73.56,73.50,73.46,73.37,73.26,73.19,73.15,73.07,73.03,73.08,73.12,73.19,73.24,73.27,73.31,73.35,73.37,73.39,73.44,73.42,73.39,73.39,73.40,73.32,73.24,73.23,73.28,73.32,73.31,73.29,73.27,73.25,73.30,73.31,73.28,73.21,73.20,73.21,73.24,73.29,73.28,73.38,73.49,73.58,73.64,73.64,73.65,73.64,73.60,73.50,73.40,73.29,73.20,73.19,73.31,73.34,73.33,73.30,73.31,73.32,73.32,73.32,73.30,73.28,73.29,73.29,73.26,73.22,73.22,73.25,73.29,73.27,73.26,73.23,73.20,73.21,73.20,73.20,73.19,73.18,73.18,73.17,73.16,73.18,73.21,73.24,73.22,73.19,73.20,73.21,73.20,73.20,73.19,73.15,73.11,72.98,72.92,73.11,73.29,73.35,73.31,73.22,73.15,73.05,72.94,72.82,72.64,72.55,72.54,72.53,72.50,72.52,72.57,72.61,72.61,72.59,72.60,72.59,72.60,72.68,72.79,72.79,72.74,72.67,72.64,72.75,72.75,72.62,72.43,72.35,72.31,72.30,72.29,72.26,72.23,72.21,72.20,72.19,72.14,72.04,71.96,71.91,71.90,71.90,71.90,71.90,71.90,71.90,71.88,71.85,71.81,71.79,71.72,71.63,71.57,71.62,71.68,71.73,71.73,71.65,71.56,71.53,71.56,71.62,71.63,71.61,71.56,71.50,71.46,71.46,71.48,71.50,71.52,71.52,71.48,71.43,71.41,71.39,71.33,71.28,71.24,71.19,71.17,71.17,71.17,71.13,71.12,71.11,71.09,71.05,71.03,71.01,71.01,71.00,70.97,70.91,70.88,70.89,70.91,70.92,70.88,70.83,70.81,70.82,70.82,70.84
73.83,73.84,73.79,73.76,73.75,73.72,73.67,73.57,73.53,73.51,73.48,73.45,73.44,73.45,73.45,73.42,73.39,73.35,73.30,73.27,73.30,73.31,73.32,73.32,73.33,73.29,73.30,73.32,73.33,73.33,73.28,73.24,73.23,73.23,73.35,73.44,73.47,73.42,73.41,73.46,73.50,73.52,73.63,73.63,73.58,73.53,73.52,73.56,73.54,73.51,73.52,73.55,73.56,73.44,73.26,73.20,73.14,73.03,72.92,72.87,72.87,72.96,73.06,73.14,73.20,73.28,73.34,73.39,73.41,73.40,73.40,73.42,73.47,73.33,73.25,73.21,73.22,73.30,73.30,73.26,73.19,73.13,73.33,73.39,73.39,73.38,73.38,73.32,73.22,73.10,73.03,73.11,73.24,73.38,73.51,73.51,73.57,73.56,73.47,73.32,73.25,73.21,73.18,73.14,73.34,73.39,73.36,73.30,73.30,73.31,73.34,73.36,73.29,73.24,73.26,73.26,73.21,73.20,73.21,73.24,73.27,73.21,73.21,73.20,73.20,73.20,73.19,73.19,73.16,73.12,73.16,73.11,73.11,73.15,73.20,73.20,73.20,73.20,73.22,73.26,73.24,73.23,73.24,73.16,73.01,72.91,72.95,73.18,73.33,73.34,73.26,73.14,73.11,73.08,72.99,72.85,72.64,72.54,72.50,72.50,72.49,72.50,72.52,72.52,72.49,72.48,72.48,72.49,72.53,72.61,72.70,72.71,72.68,72.62,72.61,72.64,72.61,72.53,72.44,72.38,72.33,72.30,72.29,72.26,72.24,72.22,72.20,72.18,72.13,72.05,71.98,71.94,71.91,71.90,71.90,71.90,71.90,71.90,71.89,71.86,71.83,71.82,71.74,71.63,71.53,71.59,71.68,71.73,71.72,71.66,71.59,71.53,71.47,71.43,71.48,71.50,71.48,71.44,71.41,71.41,71.44,71.49,71.52,71.52,71.50,71.47,71.47,71.44,71.39,71.36,71.36,71.37,71.36,71.35,71.32,71.24,71.19,71.17,71.14,71.10,71.09,71.06,71.05,71.04,71.01,70.92,70.87,70.86,70.89,70.90,70.86,70.82,70.80,70.77,70.76,70.76
73.97,73.93,73.84,73.75,73.70,73.67,73.64,73.56,73.53,73.51,73.50,73.48,73.48,73.48,73.48,73.46,73.45,73.41,73.36,73.34,73.38,73.41,73.40,73.37,73.33,73.30,73.28,73.26,73.26,73.29,73.28,73.26,73.25,73.22,73.31,73.34,73.35,73.38,73.39,73.42,73.47,73.54,73.64,73.62,73.55,73.47,73.45,73.50,73.46,73.42,73.44,73.50,73.53,73.42,73.24,73.20,73.13,73.07,73.02,73.02,73.03,73.01,73.00,73.03,73.05,73.16,73.23,73.28,73.37,73.31,73.31,73.35,73.38,73.31,73.24,73.19,73.19,73.28,73.26,73.23,73.18,73.11,73.33,73.37,73.37,73.40,73.40,73.37,73.31,73.25,73.22,73.15,73.15,73.20,73.26,73.35,73.38,73.38,73.35,73.28,73.20,73.17,73.20,73.23,73.36,73.36,73.33,73.30,73.30,73.30,73.32,73.33,73.30,73.26,73.24,73.23,73.20,73.20,73.23,73.25,73.24,73.20,73.20,73.19,73.18,73.18,73.18,73.17,73.14,73.10,73.09,73.05,73.10,73.19,73.20,73.22,73.22,73.22,73.23,73.24,73.23,73.23,73.21,73.14,72.94,72.87,72.96,73.21,73.31,73.31,73.25,73.14,73.09,73.08,73.01,72.85,72.61,72.52,72.50,72.49,72.48,72.45,72.45,72.45,72.43,72.42,72.39,72.40,72.42,72.44,72.48,72.50,72.48,72.45,72.47,72.51,72.50,72.45,72.39,72.35,72.30,72.27,72.26,72.24,72.24,72.23,72.20,72.15,72.10,72.02,71.95,71.93,71.92,71.92,71.92,71.93,71.92,71.91,71.89,71.88,71.85,71.83,71.74,71.63,71.52,71.59,71.67,71.72,71.73,71.72,71.69,71.64,71.59,71.52,71.50,71.51,71.52,71.52,71.52,71.53,71.52,71.50,71.47,71.44,71.43,71.42,71.42,71.40,71.36,71.34,71.35,71.37,71.39,71.38,71.34,71.25,71.22,71.23,71.25,71.24,71.27,71.28,71.26,71.22,71.22,71.19,71.12,71.05,71.01,70.96,70.91,70.87,70.84,70.81,70.77,70.73
74.10,74.02,73.89,73.75,73.68,73.64,73.62,73.58,73.55,73.54,73.53,73.52,73.51,73.50,73.50,73.49,73.48,73.45,73.42,73.43,73.50,73.53,73.52,73.47,73.39,73.37,73.32,73.26,73.23,73.25,73.27,73.28,73.27,73.22,73.27,73.26,73.26,73.33,73.35,73.36,73.41,73.51,73.60,73.57,73.49,73.41,73.39,73.44,73.38,73.33,73.36,73.44,73.46,73.37,73.22,73.18,73.13,73.11,73.12,73.16,73.19,73.09,73.01,72.99,72.98,73.07,73.12,73.15,73.27,73.20,73.21,73.26,73.29,73.27,73.23,73.19,73.17,73.25,73.21,73.20,73.18,73.12,73.30,73.33,73.35,73.39,73.39,73.40,73.41,73.41,73.41,73.24,73.15,73.11,73.10,73.22,73.21,73.20,73.21,73.24,73.16,73.15,73.20,73.31,73.37,73.34,73.30,73.29,73.30,73.29,73.29,73.29,73.29,73.26,73.22,73.20,73.21,73.21,73.23,73.24,73.23,73.20,73.19,73.17,73.16,73.16,73.17,73.15,73.12,73.08,73.03,73.02,73.11,73.23,73.21,73.23,73.25,73.25,73.24,73.21,73.22,73.22,73.20,73.12,72.90,72.85,72.98,73.23,73.29,73.29,73.23,73.14,73.07,73.07,73.01,72.84,72.58,72.52,72.50,72.50,72.48,72.43,72.42,72.42,72.42,72.41,72.37,72.35,72.33,72.29,72.30,72.31,72.30,72.28,72.31,72.37,72.39,72.36,72.31,72.28,72.24,72.21,72.20,72.19,72.22,72.21,72.17,72.11,72.06,71.99,71.92,71.92,71.93,71.94,71.95,71.96,71.94,71.91,71.90,71.89,71.86,71.83,71.74,71.62,71.52,71.59,71.66,71.70,71.73,71.77,71.77,71.76,71.72,71.64,71.58,71.58,71.60,71.62,71.65,71.66,71.63,71.56,71.49,71.44,71.42,71.42,71.42,71.41,71.37,71.35,71.34,71.35,71.38,71.38,71.33,71.25,71.22,71.26,71.31,71.35,71.41,71.46,71.46,71.41,71.43,71.43,71.35,71.24,71.15,71.08,71.03,70.99,70.96,70.91,70.85,70.78
74.14,74.10,73.99,73.86,73.80,73.77,73.72,73.68,73.67,73.66,73.64,73.60,73.56,73.52,73.48,73.45,73.41,73.41,73.44,73.50,73.62,73.67,73.67,73.64,73.59,73.58,73.50,73.39,73.30,73.21,73.21,73.23,73.24,73.21,73.28,73.29,73.27,73.28,73.27,73.28,73.31,73.35,73.43,73.41,73.38,73.35,73.34,73.37,73.33,73.29,73.31,73.36,73.38,73.31,73.19,73.13,73.13,73.12,73.11,73.12,73.18,73.17,73.15,73.15,73.13,73.08,73.04,73.03,73.08,73.09,73.12,73.18,73.26,73.22,73.21,73.20,73.19,73.18,73.17,73.18,73.18,73.14,73.22,73.30,73.34,73.33,73.36,73.39,73.43,73.47,73.44,73.34,73.30,73.27,73.21,73.20,73.15,73.09,73.06,73.13,73.11,73.11,73.17,73.30,73.35,73.32,73.29,73.26,73.30,73.27,73.26,73.26,73.25,73.22,73.21,73.22,73.24,73.21,73.21,73.23,73.23,73.20,73.16,73.13,73.12,73.13,73.19,73.13,73.08,73.08,73.05,73.09,73.16,73.23,73.21,73.24,73.27,73.28,73.27,73.22,73.23,73.24,73.23,73.15,72.89,72.85,73.00,73.23,73.29,73.28,73.20,73.08,73.04,73.07,73.01,72.84,72.58,72.52,72.51,72.52,72.52,72.48,72.49,72.50,72.50,72.54,72.48,72.42,72.35,72.26,72.23,72.22,72.21,72.18,72.17,72.20,72.22,72.21,72.17,72.13,72.10,72.09,72.09,72.08,72.09,72.09,72.08,72.04,72.00,71.95,71.91,71.91,71.94,71.96,71.98,71.99,71.95,71.92,71.89,71.86,71.82,71.81,71.73,71.61,71.51,71.58,71.64,71.67,71.69,71.76,71.78,71.81,71.81,71.75,71.70,71.71,71.73,71.71,71.73,71.78,71.79,71.74,71.70,71.67,71.63,71.58,71.57,71.59,71.54,71.47,71.39,71.34,71.33,71.32,71.30,71.24,71.21,71.22,71.25,71.30,71.38,71.48,71.54,71.55,71.56,71.53,71.45,71.38,71.33,71.32,71.30,71.27,71.22,71.10,71.05,70.99
74.16,74.14,74.05,73.96,73.91,73.87,73.80,73.75,73.75,73.76,73.76,73.73,73.65,73.60,73.55,73.51,73.48,73.51,73.54,73.58,73.68,73.74,73.73,73.70,73.67,73.68,73.58,73.43,73.32,73.20,73.20,73.22,73.24,73.24,73.34,73.37,73.35,73.32,73.30,73.29,73.30,73.32,73.35,73.33,73.30,73.28,73.27,73.30,73.26,73.23,73.25,73.29,73.30,73.24,73.14,73.10,73.14,73.13,73.11,73.12,73.18,73.20,73.20,73.20,73.22,73.15,73.10,73.08,73.05,73.06,73.07,73.10,73.17,73.19,73.18,73.15,73.10,73.06,73.13,73.18,73.19,73.15,73.16,73.24,73.28,73.24,73.29,73.35,73.42,73.48,73.47,73.42,73.40,73.37,73.30,73.27,73.23,73.16,73.08,73.09,73.09,73.08,73.14,73.30,73.32,73.31,73.27,73.23,73.26,73.24,73.23,73.23,73.22,73.21,73.20,73.22,73.23,73.21,73.20,73.20,73.18,73.16,73.13,73.11,73.10,73.11,73.15,73.09,73.05,73.08,73.04,73.10,73.17,73.23,73.24,73.23,73.25,73.26,73.25,73.21,73.22,73.22,73.20,73.08,72.85,72.83,72.98,73.18,73.21,73.19,73.12,73.00,72.99,73.02,72.96,72.80,72.54,72.50,72.52,72.55,72.56,72.55,72.57,72.59,72.58,72.59,72.55,72.49,72.41,72.28,72.22,72.20,72.19,72.17,72.17,72.18,72.17,72.13,72.10,72.05,72.03,72.02,72.01,71.99,71.99,71.99,71.98,71.97,71.95,71.92,71.90,71.91,71.92,71.95,71.97,71.97,71.94,71.90,71.86,71.83,71.81,71.79,71.72,71.62,71.53,71.59,71.65,71.69,71.72,71.78,71.78,71.79,71.81,71.79,71.77,71.77,71.78,71.77,71.78,71.82,71.85,71.83,71.79,71.77,71.73,71.68,71.66,71.70,71.67,71.60,71.54,71.50,71.49,71.46,71.41,71.36,71.29,71.24,71.23,71.28,71.35,71.46,71.53,71.57,71.56,71.50,71.45,71.40,71.38,71.36,71.35,71.31,71.24,71.17,71.14,71.10
74.18,74.17,74.11,74.06,74.02,73.96,73.88,73.81,73.81,73.85,73.88,73.87,73.76,73.70,73.66,73.61,73.62,73.66,73.67,73.64,73.70,73.76,73.74,73.69,73.69,73.72,73.60,73.44,73.31,73.21,73.21,73.23,73.25,73.29,73.41,73.46,73.45,73.41,73.37,73.34,73.34,73.35,73.33,73.30,73.25,73.22,73.21,73.23,73.20,73.17,73.18,73.22,73.23,73.16,73.06,73.07,73.14,73.14,73.11,73.14,73.17,73.19,73.20,73.21,73.28,73.24,73.22,73.19,73.11,73.08,73.04,73.03,73.07,73.17,73.15,73.07,72.96,72.91,73.07,73.17,73.18,73.14,73.11,73.17,73.19,73.15,73.22,73.30,73.38,73.46,73.49,73.47,73.47,73.44,73.38,73.37,73.35,73.29,73.18,73.08,73.07,73.05,73.10,73.29,73.29,73.29,73.26,73.20,73.22,73.21,73.20,73.20,73.20,73.20,73.20,73.21,73.22,73.20,73.19,73.16,73.12,73.12,73.11,73.10,73.10,73.10,73.10,73.05,73.04,73.07,73.03,73.10,73.17,73.23,73.27,73.22,73.21,73.22,73.21,73.20,73.20,73.19,73.15,72.98,72.80,72.80,72.93,73.11,73.11,73.08,73.01,72.92,72.93,72.95,72.89,72.72,72.49,72.47,72.53,72.60,72.60,72.62,72.67,72.68,72.65,72.61,72.60,72.57,72.48,72.33,72.24,72.21,72.21,72.21,72.23,72.23,72.17,72.10,72.07,72.03,72.01,72.00,71.97,71.94,71.92,71.91,71.91,71.91,71.90,71.90,71.89,71.89,71.90,71.92,71.94,71.94,71.90,71.87,71.83,71.80,71.80,71.78,71.71,71.63,71.55,71.59,71.66,71.72,71.77,71.81,71.77,71.76,71.77,71.80,71.80,71.79,71.79,71.80,71.80,71.83,71.86,71.86,71.83,71.81,71.78,71.74,71.72,71.76,71.76,71.74,71.71,71.71,71.71,71.66,71.58,71.52,71.40,71.29,71.23,71.25,71.32,71.41,71.48,71.52,71.49,71.43,71.39,71.37,71.37,71.32,71.29,71.24,71.16,71.17,71.18,71.16
74.22,74.22,74.22,74.19,74.16,74.10,74.02,73.98,73.97,73.97,73.94,73.89,73.81,73.74,73.69,73.66,73.70,73.74,73.73,73.68,73.65,73.68,73.67,73.64,73.64,73.66,73.56,73.41,73.28,73.20,73.17,73.16,73.19,73.31,73.45,73.50,73.49,73.46,73.41,73.39,73.39,73.43,73.43,73.41,73.37,73.32,73.31,73.32,73.25,73.18,73.13,73.15,73.16,73.09,72.97,72.89,73.00,73.03,73.02,73.06,73.08,73.11,73.15,73.21,73.28,73.27,73.24,73.21,73.17,73.16,73.11,73.06,73.03,73.11,73.08,72.99,72.87,72.84,72.95,73.09,73.17,73.11,73.10,73.13,73.16,73.18,73.26,73.30,73.33,73.37,73.44,73.43,73.43,73.44,73.45,73.40,73.38,73.36,73.29,73.10,73.04,73.02,73.07,73.23,73.23,73.23,73.22,73.20,73.21,73.20,73.20,73.20,73.20,73.20,73.20,73.20,73.21,73.20,73.19,73.16,73.11,73.11,73.14,73.13,73.10,73.10,73.09,73.05,73.04,73.07,73.03,73.13,73.22,73.27,73.27,73.22,73.21,73.22,73.24,73.21,73.20,73.19,73.16,73.01,72.81,72.78,72.88,72.97,72.97,72.95,72.91,72.84,72.83,72.79,72.71,72.59,72.44,72.49,72.57,72.62,72.62,72.67,72.70,72.70,72.66,72.61,72.61,72.57,72.48,72.34,72.32,72.31,72.31,72.31,72.29,72.26,72.22,72.18,72.17,72.16,72.14,72.14,72.16,72.23,72.17,72.07,71.98,71.96,71.92,71.87,71.84,71.83,71.85,71.89,71.91,71.91,71.88,71.84,71.81,71.81,71.84,71.85,71.77,71.65,71.55,71.57,71.65,71.74,71.82,71.83,71.78,71.76,71.78,71.80,71.76,71.74,71.74,71.77,71.78,71.80,71.80,71.80,71.79,71.80,71.79,71.78,71.77,71.81,71.81,71.78,71.75,71.76,71.76,71.73,71.66,71.55,71.39,71.26,71.19,71.21,71.24,71.25,71.28,71.33,71.36,71.32,71.30,71.29,71.28,71.24,71.25,71.23,71.17,71.18,71.16,71.13
74.21,74.23,74.25,74.24,74.22,74.18,74.13,74.12,74.11,74.08,74.04,73.97,73.91,73.85,73.79,73.76,73.79,73.79,73.76,73.70,73.63,73.63,73.63,73.64,73.64,73.62,73.51,73.37,73.23,73.17,73.15,73.15,73.18,73.33,73.45,73.49,73.48,73.45,73.42,73.41,73.42,73.47,73.51,73.49,73.45,73.41,73.40,73.40,73.34,73.26,73.20,73.18,73.15,73.05,72.93,72.83,72.91,72.95,72.96,72.96,72.98,73.03,73.10,73.17,73.25,73.26,73.24,73.21,73.18,73.18,73.14,73.08,73.04,73.09,73.07,72.98,72.88,72.84,72.88,72.99,73.06,73.01,73.03,73.05,73.09,73.15,73.19,73.23,73.25,73.27,73.36,73.37,73.36,73.39,73.44,73.40,73.39,73.39,73.33,73.12,73.03,73.00,73.06,73.20,73.22,73.21,73.20,73.20,73.20,73.20,73.20,73.20,73.20,73.20,73.19,73.19,73.19,73.17,73.16,73.14,73.10,73.11,73.14,73.13,73.10,73.09,73.06,73.04,73.04,73.07,73.01,73.10,73.18,73.22,73.23,73.21,73.19,73.18,73.20,73.21,73.20,73.18,73.15,72.99,72.81,72.79,72.86,72.90,72.91,72.90,72.87,72.83,72.79,72.72,72.63,72.52,72.42,72.47,72.52,72.58,72.62,72.70,72.74,72.73,72.69,72.63,72.62,72.58,72.50,72.36,72.37,72.38,72.38,72.37,72.34,72.31,72.28,72.26,72.26,72.26,72.26,72.27,72.32,72.40,72.32,72.18,72.06,72.04,71.97,71.89,71.83,71.82,71.84,71.88,71.90,71.90,71.88,71.85,71.83,71.83,71.87,71.87,71.77,71.64,71.55,71.56,71.64,71.74,71.81,71.78,71.71,71.70,71.71,71.73,71.69,71.68,71.69,71.73,71.74,71.75,71.76,71.77,71.78,71.79,71.80,71.80,71.80,71.82,71.82,71.80,71.77,71.78,71.79,71.77,71.69,71.52,71.35,71.23,71.17,71.18,71.22,71.21,71.21,71.24,71.27,71.24,71.23,71.23,71.21,71.19,71.20,71.19,71.17,71.18,71.16,71.13
74.15,74.18,74.21,74.21,74.21,74.20,74.20,74.23,74.23,74.20,74.16,74.11,74.07,74.03,73.97,73.90,73.89,73.82,73.75,73.69,73.64,73.61,73.63,73.67,73.69,73.59,73.46,73.30,73.16,73.11,73.15,73.18,73.22,73.34,73.39,73.41,73.41,73.40,73.40,73.40,73.43,73.49,73.57,73.53,73.51,73.49,73.49,73.49,73.45,73.40,73.37,73.31,73.20,73.06,72.93,72.90,72.86,72.90,72.93,72.84,72.88,72.95,73.02,73.10,73.18,73.20,73.21,73.19,73.13,73.17,73.14,73.10,73.09,73.10,73.10,73.06,72.99,72.93,72.87,72.85,72.85,72.83,72.88,72.94,73.01,73.05,73.00,73.11,73.14,73.14,73.27,73.28,73.27,73.30,73.37,73.36,73.37,73.37,73.32,73.13,73.03,73.00,73.06,73.20,73.25,73.23,73.20,73.20,73.20,73.20,73.20,73.20,73.20,73.19,73.18,73.18,73.17,73.12,73.11,73.10,73.10,73.10,73.10,73.10,73.09,73.06,73.02,73.01,73.04,73.06,72.97,73.02,73.07,73.10,73.14,73.19,73.15,73.08,73.07,73.19,73.18,73.15,73.12,72.93,72.80,72.82,72.90,72.91,72.92,72.91,72.89,72.87,72.82,72.74,72.65,72.54,72.41,72.39,72.40,72.46,72.60,72.71,72.77,72.77,72.73,72.67,72.64,72.61,72.55,72.39,72.39,72.41,72.42,72.40,72.38,72.35,72.33,72.33,72.33,72.35,72.37,72.41,72.45,72.45,72.37,72.25,72.16,72.12,72.06,71.97,71.88,71.85,71.86,71.89,71.90,71.90,71.90,71.88,71.86,71.86,71.90,71.84,71.71,71.59,71.55,71.57,71.65,71.73,71.76,71.66,71.57,71.55,71.57,71.57,71.57,71.60,71.64,71.67,71.67,71.69,71.74,71.78,71.80,71.80,71.80,71.80,71.80,71.80,71.80,71.80,71.80,71.80,71.81,71.79,71.68,71.42,71.29,71.20,71.17,71.19,71.26,71.28,71.27,71.25,71.23,71.20,71.19,71.19,71.18,71.15,71.14,71.14,71.14,71.18,71.18,71.17
74.24,74.22,74.19,74.20,74.19,74.19,74.19,74.22,74.21,74.17,74.11,74.05,74.01,73.99,73.97,73.95,73.89,73.84,73.78,73.72,73.64,73.62,73.62,73.63,73.64,73.56,73.44,73.29,73.15,73.11,73.12,73.15,73.23,73.42,73.47,73.50,73.51,73.50,73.48,73.47,73.49,73.54,73.56,73.56,73.55,73.54,73.51,73.49,73.46,73.43,73.40,73.28,73.20,73.13,73.07,73.05,73.03,72.99,72.93,72.85,72.84,72.88,72.94,73.01,73.06,73.12,73.17,73.19,73.15,73.14,73.10,73.08,73.09,73.10,73.10,73.09,73.06,73.03,72.99,72.96,72.94,72.91,72.90,72.92,72.94,72.95,72.90,72.98,73.01,73.02,73.10,73.12,73.10,73.12,73.20,73.20,73.24,73.26,73.22,73.10,73.01,72.99,73.05,73.18,73.22,73.20,73.18,73.18,73.20,73.20,73.19,73.17,73.17,73.16,73.15,73.13,73.13,73.10,73.10,73.10,73.10,73.09,73.08,73.09,73.08,73.02,72.99,73.01,73.04,73.04,72.97,73.00,73.03,73.06,73.06,73.12,73.10,73.06,73.07,73.16,73.14,73.08,72.98,72.78,72.73,72.79,72.89,72.91,72.92,72.90,72.89,72.91,72.86,72.80,72.71,72.58,72.41,72.40,72.42,72.49,72.62,72.70,72.73,72.71,72.68,72.66,72.65,72.61,72.53,72.39,72.39,72.41,72.42,72.40,72.39,72.38,72.37,72.37,72.37,72.40,72.43,72.46,72.45,72.44,72.39,72.31,72.23,72.18,72.10,72.01,71.92,71.86,71.88,71.89,71.90,71.90,71.90,71.89,71.89,71.88,71.88,71.80,71.69,71.58,71.53,71.55,71.64,71.73,71.77,71.73,71.70,71.70,71.72,71.72,71.68,71.67,71.67,71.65,71.61,71.59,71.60,71.63,71.64,71.64,71.65,71.67,71.69,71.72,71.75,71.75,71.75,71.73,71.72,71.70,71.62,71.41,71.25,71.17,71.16,71.21,71.31,71.36,71.37,71.34,71.28,71.25,71.24,71.25,71.24,71.20,71.17,71.15,71.14,71.17,71.16,71.15
74.35,74.31,74.23,74.23,74.22,74.21,74.22,74.23,74.20,74.14,74.05,73.99,73.95,73.94,73.95,73.96,73.88,73.84,73.80,73.73,73.66,73.63,73.61,73.60,73.58,73.53,73.42,73.28,73.15,73.11,73.10,73.13,73.24,73.50,73.57,73.61,73.61,73.59,73.56,73.55,73.56,73.59,73.56,73.57,73.57,73.55,73.51,73.47,73.44,73.42,73.39,73.24,73.19,73.19,73.19,73.19,73.19,73.10,72.99,72.93,72.86,72.86,72.89,72.92,72.95,73.01,73.07,73.11,73.12,73.09,73.04,73.03,73.07,73.09,73.10,73.10,73.10,73.10,73.08,73.06,73.04,73.00,72.96,72.96,72.94,72.91,72.88,72.91,72.93,72.94,72.97,72.99,72.95,72.94,73.02,73.02,73.08,73.12,73.12,73.04,72.97,72.98,73.04,73.12,73.15,73.13,73.11,73.13,73.16,73.16,73.15,73.14,73.13,73.13,73.10,73.07,73.06,73.08,73.08,73.07,73.07,73.08,73.06,73.06,73.05,72.97,72.94,72.99,73.03,73.01,72.96,72.96,73.00,73.03,73.02,73.08,73.08,73.08,73.10,73.14,73.11,73.02,72.87,72.66,72.68,72.78,72.87,72.91,72.91,72.89,72.90,72.93,72.91,72.86,72.76,72.61,72.41,72.44,72.49,72.56,72.64,72.68,72.67,72.65,72.63,72.66,72.66,72.61,72.51,72.37,72.37,72.39,72.39,72.38,72.39,72.40,72.40,72.40,72.40,72.43,72.47,72.48,72.43,72.41,72.38,72.34,72.28,72.22,72.13,72.03,71.94,71.86,71.89,71.90,71.90,71.90,71.90,71.90,71.90,71.89,71.87,71.78,71.68,71.58,71.51,71.54,71.64,71.73,71.79,71.81,71.84,71.86,71.88,71.87,71.82,71.78,71.75,71.69,71.64,71.60,71.58,71.58,71.58,71.58,71.58,71.59,71.58,71.62,71.64,71.65,71.65,71.61,71.58,71.56,71.50,71.36,71.21,71.14,71.16,71.26,71.36,71.42,71.45,71.42,71.35,71.32,71.31,71.31,71.31,71.27,71.23,71.20,71.18,71.20,71.17,71.15
74.48,74.46,74.39,74.37,74.35,74.34,74.33,74.32,74.23,74.12,74.03,73.97,73.95,73.94,73.93,73.90,73.86,73.82,73.76,73.71,73.69,73.65,73.63,73.61,73.55,73.53,73.41,73.26,73.15,73.11,73.12,73.15,73.26,73.59,73.68,73.69,73.68,73.67,73.64,73.63,73.63,73.63,73.60,73.57,73.54,73.51,73.47,73.41,73.36,73.34,73.34,73.19,73.17,73.21,73.26,73.27,73.27,73.24,73.18,73.12,72.99,72.93,72.90,72.87,72.85,72.87,72.87,72.88,72.96,72.96,72.94,72.95,73.01,73.08,73.10,73.10,73.10,73.10,73.07,73.08,73.09,73.08,73.07,73.10,73.09,73.03,73.00,72.98,72.98,72.97,72.94,72.93,72.86,72.81,72.83,72.83,72.89,72.97,73.03,72.94,72.92,72.95,73.00,73.00,73.02,72.98,72.96,73.00,73.02,73.03,73.07,73.10,73.06,73.11,73.05,72.96,72.94,73.02,73.00,72.99,72.99,73.03,73.02,73.02,73.00,72.92,72.87,72.93,72.98,72.99,72.91,72.89,72.95,73.04,73.05,73.09,73.12,73.15,73.16,73.17,73.08,72.97,72.83,72.64,72.69,72.79,72.88,72.90,72.90,72.89,72.90,72.93,72.95,72.88,72.76,72.60,72.44,72.53,72.61,72.65,72.66,72.63,72.61,72.59,72.60,72.68,72.67,72.60,72.47,72.32,72.32,72.33,72.33,72.33,72.35,72.38,72.40,72.40,72.40,72.45,72.49,72.48,72.38,72.34,72.32,72.31,72.29,72.25,72.16,72.03,71.91,71.84,71.89,71.90,71.90,71.90,71.90,71.90,71.90,71.89,71.86,71.78,71.68,71.58,71.50,71.54,71.64,71.74,71.81,71.87,71.94,71.97,71.97,71.97,71.96,71.95,71.93,71.89,71.88,71.87,71.85,71.82,71.79,71.77,71.72,71.63,71.52,71.48,71.44,71.43,71.44,71.42,71.38,71.34,71.27,71.19,71.13,71.13,71.22,71.37,71.42,71.45,71.47,71.47,71.41,71.39,71.38,71.38,71.38,71.37,71.33,71.31,71.32,71.31,71.26,71.22
74.51,74.50,74.44,74.41,74.40,74.40,74.42,74.41,74.28,74.15,74.04,73.99,73.97,73.97,73.95,73.90,73.84,73.80,73.76,73.71,73.69,73.66,73.64,73.62,73.56,73.54,73.42,73.28,73.18,73.15,73.14,73.15,73.26,73.61,73.71,73.73,73.71,73.70,73.66,73.65,73.64,73.64,73.61,73.56,73.53,73.49,73.44,73.37,73.32,73.30,73.27,73.16,73.16,73.22,73.28,73.27,73.27,73.25,73.23,73.19,73.12,73.06,72.99,72.92,72.88,72.87,72.81,72.77,72.86,72.84,72.85,72.88,72.94,72.98,73.03,73.06,73.06,73.06,73.07,73.09,73.10,73.10,73.10,73.12,73.12,73.08,73.06,73.05,73.04,73.03,73.00,72.98,72.92,72.85,72.82,72.79,72.79,72.85,72.92,72.86,72.89,72.95,72.99,72.98,72.99,72.96,72.93,72.93,72.91,72.91,72.94,72.97,72.94,72.97,72.93,72.88,72.87,72.95,72.92,72.91,72.93,72.93,72.97,72.95,72.89,72.81,72.79,72.81,72.85,72.88,72.89,72.86,72.90,72.99,73.04,73.12,73.16,73.18,73.19,73.17,73.06,72.92,72.79,72.64,72.72,72.81,72.87,72.86,72.86,72.87,72.88,72.87,72.87,72.79,72.65,72.50,72.42,72.49,72.53,72.55,72.54,72.52,72.51,72.52,72.54,72.60,72.61,72.54,72.41,72.26,72.27,72.29,72.30,72.30,72.32,72.35,72.38,72.40,72.40,72.45,72.48,72.46,72.36,72.33,72.33,72.32,72.29,72.26,72.16,72.03,71.90,71.84,71.90,71.93,71.94,71.94,71.94,71.93,71.91,71.89,71.86,71.81,71.71,71.60,71.50,71.54,71.63,71.72,71.80,71.87,71.94,71.98,72.00,72.00,71.99,71.99,71.98,71.95,71.93,71.92,71.91,71.90,71.88,71.88,71.84,71.77,71.68,71.62,71.55,71.52,71.53,71.50,71.42,71.33,71.23,71.17,71.11,71.14,71.25,71.42,71.46,71.48,71.49,71.49,71.45,71.42,71.41,71.41,71.41,71.42,71.38,71.36,71.37,71.37,71.33,71.30
74.49,74.48,74.44,74.41,74.41,74.44,74.48,74.49,74.35,74.19,74.08,74.03,74.01,74.00,73.98,73.91,73.82,73.80,73.77,73.72,73.67,73.66,73.65,73.63,73.59,73.55,73.43,73.30,73.21,73.18,73.15,73.16,73.26,73.59,73.72,73.74,73.71,73.70,73.66,73.64,73.63,73.62,73.61,73.55,73.51,73.48,73.42,73.34,73.31,73.27,73.20,73.13,73.15,73.22,73.27,73.24,73.23,73.22,73.21,73.22,73.25,73.21,73.12,73.00,72.97,72.92,72.83,72.75,72.81,72.75,72.78,72.83,72.87,72.85,72.93,72.99,73.01,73.01,73.06,73.09,73.09,73.09,73.10,73.10,73.10,73.09,73.09,73.10,73.10,73.10,73.09,73.08,73.03,72.96,72.89,72.82,72.76,72.77,72.83,72.82,72.87,72.95,73.01,73.00,73.00,73.00,72.97,72.93,72.86,72.86,72.86,72.86,72.86,72.83,72.82,72.81,72.82,72.88,72.84,72.83,72.87,72.82,72.92,72.87,72.76,72.70,72.70,72.70,72.71,72.74,72.86,72.83,72.85,72.93,73.02,73.15,73.19,73.20,73.20,73.16,73.02,72.87,72.73,72.64,72.75,72.83,72.84,72.80,72.81,72.84,72.84,72.78,72.75,72.65,72.50,72.38,72.39,72.40,72.40,72.40,72.39,72.39,72.40,72.43,72.47,72.48,72.51,72.45,72.33,72.18,72.21,72.25,72.28,72.28,72.28,72.31,72.35,72.39,72.39,72.43,72.45,72.42,72.35,72.34,72.35,72.33,72.28,72.25,72.16,72.03,71.90,71.84,71.92,71.97,72.00,72.00,72.00,71.97,71.93,71.88,71.87,71.85,71.75,71.62,71.50,71.53,71.61,71.70,71.78,71.83,71.90,71.96,71.99,72.00,71.98,71.98,71.97,71.95,71.91,71.90,71.90,71.90,71.92,71.96,71.95,71.93,71.90,71.84,71.75,71.71,71.71,71.67,71.56,71.41,71.28,71.20,71.11,71.15,71.28,71.45,71.49,71.50,71.50,71.49,71.46,71.44,71.42,71.41,71.42,71.44,71.40,71.38,71.39,71.40,71.40,71.37
74.43,74.44,74.42,74.40,74.40,74.41,74.44,74.47,74.40,74.29,74.17,74.06,74.04,74.03,74.00,73.93,73.87,73.85,73.82,73.74,73.69,73.69,73.64,73.60,73.62,73.57,73.42,73.27,73.16,73.17,73.15,73.15,73.26,73.60,73.71,73.72,73.70,73.70,73.65,73.62,73.61,73.60,73.56,73.52,73.50,73.48,73.42,73.34,73.31,73.26,73.15,73.07,73.12,73.21,73.27,73.23,73.25,73.21,73.17,73.20,73.26,73.27,73.20,73.08,73.01,73.02,72.98,72.93,72.94,72.84,72.81,72.80,72.77,72.75,72.81,72.88,72.92,72.93,72.99,73.02,73.02,73.03,73.08,73.09,73.07,73.03,73.03,73.08,73.10,73.09,73.09,73.09,73.07,73.06,73.03,72.96,72.93,72.92,72.93,72.87,72.85,72.96,73.08,73.10,73.10,73.09,73.15,73.25,73.23,73.26,73.26,73.25,73.27,72.98,72.85,72.82,72.82,72.83,72.79,72.76,72.75,72.69,72.76,72.75,72.71,72.70,72.70,72.70,72.70,72.70,72.73,72.71,72.73,72.80,72.92,73.09,73.14,73.16,73.18,73.07,72.91,72.75,72.63,72.61,72.66,72.72,72.77,72.80,72.80,72.81,72.78,72.70,72.64,72.51,72.39,72.33,72.36,72.40,72.40,72.38,72.35,72.35,72.35,72.35,72.34,72.33,72.35,72.32,72.23,72.13,72.14,72.17,72.19,72.20,72.22,72.27,72.30,72.32,72.34,72.39,72.41,72.38,72.32,72.32,72.32,72.29,72.25,72.21,72.14,72.02,71.90,71.84,71.92,71.97,72.00,71.98,71.97,71.94,71.89,71.84,71.81,71.80,71.73,71.62,71.50,71.50,71.56,71.64,71.72,71.78,71.87,71.93,71.95,71.96,71.99,72.00,71.99,71.96,71.92,71.91,71.90,71.90,71.93,71.95,71.94,71.92,71.90,71.85,71.78,71.74,71.72,71.71,71.67,71.56,71.40,71.24,71.11,71.14,71.28,71.45,71.49,71.48,71.48,71.49,71.49,71.46,71.43,71.41,71.43,71.44,71.43,71.42,71.41,71.43,71.42,71.36
74.37,74.39,74.38,74.37,74.36,74.36,74.37,74.39,74.37,74.30,74.20,74.10,74.07,74.04,74.01,73.96,73.91,73.88,73.82,73.74,73.68,73.69,73.66,73.62,73.63,73.56,73.40,73.23,73.12,73.15,73.14,73.15,73.27,73.59,73.69,73.70,73.69,73.67,73.63,73.59,73.57,73.56,73.52,73.49,73.47,73.45,73.41,73.35,73.31,73.25,73.13,73.04,73.09,73.16,73.18,73.17,73.22,73.18,73.14,73.18,73.23,73.27,73.25,73.15,73.09,73.09,73.09,73.08,73.09,72.99,72.92,72.85,72.77,72.73,72.76,72.80,72.83,72.85,72.89,72.92,72.94,72.94,73.03,73.05,73.02,72.97,72.98,73.05,73.07,73.05,73.05,73.06,73.08,73.10,73.09,73.04,73.01,72.98,72.93,72.87,72.84,72.98,73.16,73.21,73.22,73.21,73.28,73.41,73.40,73.44,73.45,73.44,73.46,73.08,72.92,72.88,72.87,72.86,72.81,72.77,72.73,72.67,72.70,72.69,72.68,72.71,72.71,72.71,72.70,72.68,72.64,72.63,72.64,72.69,72.79,72.95,73.00,73.02,73.07,72.92,72.76,72.62,72.55,72.59,72.59,72.64,72.71,72.76,72.78,72.78,72.75,72.68,72.58,72.43,72.33,72.31,72.37,72.41,72.43,72.41,72.37,72.37,72.37,72.36,72.34,72.30,72.30,72.27,72.21,72.13,72.12,72.13,72.13,72.14,72.17,72.20,72.22,72.22,72.23,72.28,72.30,72.28,72.24,72.24,72.24,72.23,72.21,72.17,72.11,72.01,71.90,71.84,71.91,71.96,71.97,71.96,71.94,71.91,71.86,71.80,71.76,71.76,71.71,71.62,71.51,71.49,71.54,71.63,71.71,71.76,71.83,71.86,71.87,71.89,71.93,71.96,71.96,71.94,71.92,71.91,71.90,71.90,71.92,71.93,71.92,71.91,71.88,71.82,71.77,71.73,71.71,71.72,71.72,71.63,71.46,71.26,71.12,71.13,71.24,71.37,71.43,71.45,71.45,71.45,71.45,71.44,71.42,71.41,71.44,71.44,71.44,71.43,71.42,71.43,71.42,71.36
74.32,74.35,74.33,74.30,74.29,74.29,74.29,74.25,74.24,74.22,74.17,74.16,74.09,74.04,74.01,74.00,73.95,73.87,73.80,73.73,73.66,73.67,73.69,73.68,73.64,73.53,73.37,73.21,73.08,73.12,73.12,73.16,73.29,73.56,73.65,73.68,73.67,73.62,73.61,73.56,73.52,73.50,73.50,73.46,73.43,73.40,73.40,73.35,73.32,73.25,73.12,73.04,73.06,73.05,73.02,73.08,73.13,73.12,73.11,73.16,73.18,73.24,73.26,73.21,73.19,73.14,73.14,73.20,73.25,73.21,73.11,72.99,72.86,72.78,72.76,72.74,72.73,72.76,72.78,72.81,72.84,72.85,72.94,72.97,72.95,72.91,72.96,73.03,73.02,72.98,72.98,73.00,73.05,73.10,73.10,73.07,73.03,72.95,72.86,72.81,72.85,73.03,73.24,73.35,73.38,73.36,73.37,73.43,73.40,73.43,73.45,73.46,73.47,73.14,73.01,72.99,72.97,72.94,72.90,72.85,72.78,72.74,72.73,72.69,72.67,72.74,72.74,72.72,72.70,72.68,72.60,72.56,72.58,72.61,72.63,72.73,72.76,72.80,72.88,72.72,72.57,72.49,72.50,72.57,72.55,72.59,72.66,72.68,72.74,72.78,72.77,72.70,72.56,72.40,72.31,72.31,72.40,72.45,72.48,72.47,72.45,72.45,72.46,72.47,72.47,72.40,72.35,72.31,72.26,72.20,72.15,72.12,72.11,72.10,72.11,72.13,72.12,72.10,72.09,72.10,72.12,72.13,72.13,72.11,72.12,72.15,72.17,72.13,72.08,72.00,71.90,71.84,71.90,71.92,71.93,71.92,71.91,71.88,71.82,71.76,71.72,71.72,71.69,71.63,71.54,71.50,71.56,71.66,71.75,71.75,71.76,71.75,71.74,71.77,71.83,71.86,71.88,71.89,71.91,71.90,71.90,71.90,71.90,71.90,71.90,71.89,71.86,71.77,71.72,71.70,71.70,71.70,71.70,71.62,71.46,71.27,71.15,71.12,71.16,71.24,71.31,71.39,71.42,71.39,71.35,71.37,71.39,71.41,71.45,71.43,71.42,71.41,71.41,71.41,71.41,71.34
74.17,74.18,74.16,74.11,74.09,74.10,74.12,74.10,74.12,74.13,74.13,74.11,74.07,74.06,74.05,74.02,73.94,73.86,73.78,73.74,73.70,73.71,73.71,73.70,73.66,73.57,73.39,73.22,73.10,73.10,73.08,73.12,73.24,73.49,73.58,73.61,73.61,73.60,73.60,73.57,73.53,73.51,73.50,73.48,73.45,73.41,73.40,73.38,73.33,73.22,73.06,73.00,73.03,73.01,72.96,73.02,73.03,73.01,73.01,73.06,73.09,73.17,73.21,73.19,73.19,73.14,73.15,73.20,73.22,73.21,73.16,73.08,73.01,72.93,72.90,72.86,72.80,72.76,72.74,72.73,72.73,72.73,72.83,72.86,72.88,72.90,72.92,72.97,72.96,72.92,72.90,72.95,73.02,73.06,73.06,73.00,72.98,72.90,72.79,72.77,72.84,73.01,73.20,73.29,73.35,73.39,73.43,73.47,73.47,73.47,73.45,73.43,73.44,73.17,73.06,73.04,73.05,73.01,72.94,72.87,72.83,72.82,72.81,72.78,72.78,72.82,72.80,72.72,72.66,72.66,72.65,72.60,72.57,72.57,72.60,72.62,72.64,72.67,72.68,72.59,72.52,72.47,72.46,72.53,72.49,72.52,72.57,72.57,72.61,72.70,72.73,72.66,72.49,72.36,72.31,72.32,72.38,72.46,72.49,72.49,72.47,72.45,72.51,72.59,72.64,72.51,72.48,72.45,72.43,72.40,72.37,72.36,72.34,72.32,72.29,72.24,72.18,72.12,72.08,72.07,72.05,72.02,72.00,71.99,72.00,72.01,72.00,71.94,71.91,71.88,71.85,71.82,71.85,71.86,71.86,71.86,71.87,71.86,71.81,71.72,71.66,71.67,71.65,71.59,71.49,71.45,71.52,71.63,71.73,71.75,71.77,71.76,71.72,71.70,71.70,71.71,71.72,71.73,71.73,71.73,71.73,71.74,71.76,71.80,71.85,71.86,71.81,71.74,71.71,71.70,71.70,71.70,71.70,71.57,71.36,71.17,71.10,71.08,71.12,71.20,71.24,71.28,71.29,71.28,71.26,71.30,71.31,71.31,71.31,71.36,71.37,71.36,71.35,71.35,71.37,71.33
74.05,74.04,74.01,73.95,73.92,73.93,73.97,73.98,74.02,74.06,74.09,74.08,74.06,74.07,74.07,74.01,73.94,73.85,73.78,73.74,73.72,73.73,73.73,73.71,73.68,73.60,73.41,73.22,73.10,73.08,73.06,73.10,73.21,73.44,73.52,73.55,73.56,73.58,73.59,73.57,73.54,73.50,73.50,73.49,73.46,73.41,73.40,73.39,73.32,73.18,73.00,72.96,73.00,72.97,72.90,72.94,72.94,72.91,72.92,72.97,73.01,73.09,73.14,73.12,73.15,73.13,73.14,73.18,73.20,73.21,73.19,73.16,73.12,73.06,73.04,72.99,72.91,72.84,72.78,72.72,72.68,72.66,72.73,72.75,72.78,72.84,72.86,72.91,72.92,72.89,72.84,72.90,72.97,73.01,73.01,72.94,72.93,72.85,72.73,72.73,72.84,73.02,73.19,73.25,73.33,73.41,73.46,73.49,73.51,73.49,73.46,73.42,73.43,73.19,73.10,73.08,73.09,73.05,72.95,72.88,72.86,72.88,72.87,72.87,72.87,72.87,72.84,72.71,72.63,72.64,72.67,72.61,72.56,72.56,72.59,72.56,72.58,72.59,72.56,72.51,72.49,72.48,72.47,72.52,72.47,72.48,72.50,72.48,72.49,72.58,72.63,72.58,72.41,72.34,72.32,72.33,72.36,72.47,72.51,72.51,72.48,72.44,72.53,72.67,72.76,72.63,72.61,72.61,72.60,72.59,72.56,72.54,72.53,72.50,72.45,72.38,72.28,72.19,72.14,72.10,72.04,71.97,71.95,71.94,71.94,71.93,71.90,71.84,71.80,71.80,71.81,71.81,71.80,71.79,71.79,71.79,71.80,71.81,71.76,71.67,71.59,71.61,71.61,71.56,71.46,71.42,71.49,71.60,71.72,71.76,71.80,71.80,71.76,71.71,71.68,71.67,71.67,71.67,71.67,71.66,71.64,71.64,71.66,71.72,71.77,71.80,71.75,71.69,71.68,71.68,71.68,71.67,71.66,71.52,71.29,71.09,71.07,71.10,71.16,71.23,71.25,71.25,71.25,71.25,71.25,71.27,71.28,71.26,71.25,71.32,71.32,71.31,71.30,71.30,71.32,71.30
74.01,73.97,73.94,73.86,73.81,73.81,73.87,73.93,73.99,74.04,74.08,74.07,74.07,74.06,74.02,73.95,73.96,73.88,73.79,73.72,73.71,73.71,73.72,73.73,73.69,73.60,73.39,73.19,73.07,73.09,73.07,73.11,73.23,73.42,73.49,73.51,73.52,73.54,73.55,73.55,73.52,73.47,73.48,73.47,73.44,73.41,73.40,73.37,73.25,73.09,72.95,72.95,72.98,72.94,72.85,72.85,72.85,72.84,72.85,72.90,72.93,73.00,73.02,73.01,73.06,73.08,73.11,73.14,73.19,73.24,73.22,73.20,73.18,73.16,73.15,73.13,73.10,73.06,72.95,72.86,72.78,72.68,72.66,72.65,72.66,72.71,72.76,72.85,72.90,72.88,72.81,72.83,72.89,72.94,72.94,72.91,72.91,72.83,72.71,72.71,72.89,73.10,73.26,73.28,73.35,73.40,73.43,73.44,73.50,73.46,73.45,73.47,73.46,73.24,73.13,73.09,73.09,73.02,72.94,72.87,72.84,72.89,72.90,72.93,72.94,72.88,72.82,72.69,72.61,72.61,72.61,72.56,72.55,72.59,72.60,72.59,72.59,72.59,72.57,72.51,72.51,72.53,72.57,72.58,72.56,72.52,72.47,72.42,72.41,72.40,72.40,72.41,72.34,72.37,72.38,72.37,72.35,72.48,72.55,72.54,72.48,72.44,72.53,72.67,72.79,72.77,72.76,72.76,72.75,72.73,72.66,72.61,72.59,72.58,72.57,72.52,72.43,72.34,72.31,72.24,72.12,72.03,72.04,72.01,71.98,71.96,71.94,71.91,71.84,71.80,71.80,71.79,71.77,71.74,71.71,71.71,71.69,71.67,71.65,71.60,71.52,71.54,71.55,71.52,71.45,71.42,71.48,71.58,71.72,71.81,71.86,71.88,71.88,71.88,71.87,71.87,71.86,71.86,71.84,71.79,71.73,71.69,71.68,71.66,71.67,71.67,71.64,71.61,71.62,71.63,71.61,71.57,71.55,71.44,71.26,71.08,71.11,71.22,71.33,71.38,71.37,71.37,71.36,71.35,71.36,71.34,71.33,71.34,71.34,71.34,71.30,71.29,71.32,71.32,71.27,71.24
74.07,74.04,74.02,73.96,73.91,73.89,73.90,73.94,73.98,74.03,74.07,74.08,74.07,74.03,73.99,73.95,73.98,73.93,73.85,73.77,73.74,73.72,73.72,73.73,73.72,73.68,73.45,73.20,73.05,73.08,73.07,73.10,73.21,73.38,73.44,73.46,73.46,73.47,73.48,73.48,73.47,73.46,73.46,73.44,73.40,73.36,73.33,73.27,73.14,73.01,72.93,72.96,72.98,72.92,72.81,72.80,72.81,72.83,72.84,72.85,72.87,72.90,72.92,72.93,72.97,73.02,73.05,73.09,73.18,73.19,73.20,73.20,73.20,73.15,73.19,73.24,73.24,73.17,73.03,72.95,72.90,72.87,72.82,72.73,72.66,72.64,72.67,72.73,72.78,72.80,72.80,72.84,72.86,72.88,72.91,72.90,72.90,72.80,72.66,72.69,72.97,73.18,73.29,73.29,73.34,73.41,73.44,73.43,73.50,73.47,73.47,73.46,73.35,73.19,73.12,73.10,73.12,73.04,72.94,72.86,72.83,72.90,72.93,72.94,72.93,72.89,72.80,72.65,72.56,72.56,72.59,72.54,72.54,72.56,72.57,72.58,72.60,72.61,72.62,72.56,72.56,72.59,72.63,72.62,72.62,72.58,72.51,72.46,72.45,72.43,72.42,72.42,72.36,72.36,72.36,72.36,72.39,72.56,72.62,72.62,72.60,72.60,72.66,72.75,72.83,72.83,72.83,72.82,72.81,72.78,72.70,72.65,72.61,72.59,72.59,72.56,72.50,72.42,72.40,72.25,72.11,72.04,72.12,72.12,72.09,72.05,72.00,71.99,71.89,71.84,71.81,71.78,71.76,71.72,71.69,71.70,71.66,71.63,71.59,71.56,71.51,71.50,71.49,71.48,71.45,71.44,71.49,71.59,71.71,71.81,71.88,71.92,71.94,71.96,71.96,71.94,71.93,71.92,71.93,71.89,71.85,71.82,71.82,71.80,71.78,71.76,71.73,71.68,71.67,71.65,71.61,71.55,71.47,71.36,71.21,71.07,71.14,71.30,71.42,71.44,71.42,71.41,71.39,71.36,71.38,71.35,71.35,71.37,71.40,71.37,71.32,71.30,71.31,71.29,71.25,71.23
74.14,74.13,74.14,74.09,74.06,74.02,73.97,73.96,73.98,74.02,74.06,74.09,74.06,74.01,73.96,73.95,73.98,73.98,73.92,73.82,73.78,73.75,73.73,73.73,73.76,73.76,73.52,73.23,73.04,73.07,73.05,73.09,73.19,73.33,73.38,73.39,73.39,73.39,73.40,73.40,73.43,73.47,73.44,73.41,73.37,73.30,73.23,73.15,73.03,72.93,72.90,72.96,72.98,72.90,72.78,72.78,72.79,72.83,72.85,72.82,72.81,72.81,72.84,72.88,72.89,72.95,72.98,73.02,73.14,73.11,73.14,73.17,73.18,73.12,73.21,73.32,73.35,73.22,73.07,73.01,73.03,73.09,73.02,72.86,72.71,72.63,72.62,72.61,72.64,72.70,72.77,72.83,72.81,72.81,72.89,72.89,72.89,72.78,72.62,72.68,73.04,73.24,73.30,73.30,73.31,73.40,73.45,73.42,73.49,73.50,73.50,73.43,73.21,73.11,73.08,73.10,73.14,73.06,72.94,72.85,72.82,72.90,72.94,72.93,72.89,72.88,72.78,72.62,72.52,72.52,72.57,72.54,72.53,72.53,72.54,72.58,72.60,72.63,72.66,72.61,72.61,72.65,72.68,72.64,72.66,72.63,72.57,72.54,72.53,72.51,72.49,72.46,72.39,72.34,72.32,72.34,72.45,72.65,72.70,72.70,72.75,72.79,72.81,72.83,72.86,72.86,72.84,72.84,72.83,72.78,72.71,72.66,72.63,72.59,72.58,72.56,72.52,72.47,72.43,72.22,72.07,72.05,72.17,72.23,72.21,72.15,72.08,72.06,71.95,71.88,71.82,71.77,71.76,71.72,71.70,71.71,71.68,71.62,71.58,71.54,71.53,71.50,71.47,71.45,71.45,71.45,71.51,71.60,71.70,71.78,71.88,71.94,71.98,71.99,71.99,71.97,71.94,71.93,71.97,71.96,71.95,71.95,71.98,71.96,71.94,71.91,71.87,71.81,71.76,71.71,71.66,71.58,71.43,71.29,71.16,71.06,71.18,71.35,71.47,71.46,71.44,71.42,71.39,71.35,71.36,71.35,71.35,71.38,71.42,71.39,71.34,71.31,71.29,71.26,71.23,71.24
74.15,74.15,74.15,74.14,74.12,74.09,74.05,73.99,73.97,73.99,74.03,74.07,74.05,74.02,73.96,73.90,73.90,73.94,73.89,73.77,73.75,73.80,73.79,73.75,73.76,73.74,73.50,73.23,73.08,73.06,73.06,73.10,73.18,73.23,73.28,73.28,73.28,73.30,73.32,73.36,73.43,73.51,73.48,73.43,73.35,73.25,73.15,73.07,72.95,72.87,72.88,72.92,72.93,72.88,72.80,72.79,72.79,72.80,72.82,72.81,72.80,72.83,72.86,72.87,72.84,72.89,72.92,72.94,72.97,72.96,73.00,73.05,73.09,73.06,73.23,73.32,73.27,73.14,73.05,73.04,73.08,73.13,73.02,72.92,72.83,72.77,72.77,72.70,72.66,72.66,72.65,72.62,72.64,72.70,72.82,72.84,72.85,72.76,72.61,72.62,72.98,73.21,73.29,73.28,73.34,73.36,73.39,73.44,73.47,73.49,73.50,73.44,73.27,73.07,72.99,72.99,73.01,72.93,72.86,72.81,72.79,72.85,72.85,72.85,72.85,72.85,72.72,72.62,72.56,72.53,72.56,72.57,72.58,72.59,72.60,72.59,72.61,72.63,72.64,72.61,72.62,72.65,72.67,72.67,72.66,72.64,72.63,72.63,72.60,72.52,72.46,72.43,72.37,72.34,72.32,72.37,72.56,72.72,72.77,72.77,72.78,72.80,72.80,72.81,72.81,72.78,72.76,72.75,72.74,72.69,72.65,72.62,72.60,72.60,72.55,72.51,72.46,72.39,72.32,72.13,72.04,72.05,72.17,72.23,72.26,72.23,72.16,72.11,72.00,71.90,71.83,71.79,71.81,71.78,71.75,71.77,71.74,71.68,71.63,71.60,71.59,71.58,71.56,71.51,71.46,71.42,71.48,71.58,71.70,71.78,71.89,71.95,71.97,71.96,71.96,71.94,71.93,71.93,71.95,71.94,71.94,71.95,71.96,71.93,71.91,71.90,71.89,71.89,71.88,71.86,71.82,71.73,71.55,71.35,71.18,71.05,71.18,71.35,71.47,71.47,71.45,71.42,71.40,71.37,71.38,71.37,71.36,71.36,71.39,71.36,71.30,71.27,71.27,71.24,71.19,71.19
74.12,74.12,74.13,74.14,74.12,74.10,74.08,74.01,73.98,73.97,74.00,74.03,74.02,74.00,73.96,73.87,73.87,73.92,73.90,73.80,73.77,73.82,73.80,73.74,73.73,73.67,73.44,73.21,73.08,73.06,73.07,73.11,73.17,73.16,73.18,73.18,73.17,73.19,73.23,73.30,73.38,73.45,73.42,73.38,73.30,73.20,73.09,73.00,72.90,72.84,72.85,72.87,72.89,72.86,72.80,72.76,72.75,72.77,72.79,72.80,72.80,72.83,72.85,72.85,72.81,72.85,72.88,72.89,72.90,72.90,72.92,72.95,72.98,72.96,73.11,73.18,73.14,73.06,73.02,73.04,73.08,73.08,72.99,72.93,72.89,72.85,72.85,72.78,72.71,72.66,72.64,72.58,72.59,72.64,72.69,72.72,72.74,72.69,72.59,72.58,72.93,73.17,73.27,73.27,73.34,73.36,73.37,73.42,73.44,73.47,73.49,73.44,73.27,73.04,72.93,72.91,72.91,72.85,72.80,72.77,72.75,72.76,72.74,72.74,72.77,72.78,72.65,72.59,72.57,72.57,72.58,72.59,72.60,72.61,72.63,72.61,72.62,72.64,72.63,72.62,72.64,72.66,72.67,72.71,72.70,72.69,72.70,72.71,72.65,72.54,72.46,72.40,72.34,72.32,72.32,72.38,72.58,72.70,72.74,72.75,72.76,72.77,72.78,72.80,72.80,72.74,72.70,72.70,72.68,72.61,72.61,72.60,72.61,72.63,72.56,72.50,72.43,72.34,72.22,72.06,72.01,72.05,72.15,72.22,72.27,72.28,72.23,72.17,72.06,71.93,71.84,71.81,71.85,71.82,71.80,71.79,71.76,71.73,71.70,71.66,71.64,71.64,71.60,71.54,71.47,71.44,71.50,71.59,71.70,71.77,71.84,71.87,71.86,71.86,71.89,71.89,71.89,71.91,71.93,71.92,71.93,71.95,71.95,71.91,71.90,71.90,71.92,71.95,71.96,71.93,71.88,71.77,71.59,71.39,71.21,71.06,71.18,71.31,71.39,71.41,71.42,71.41,71.40,71.39,71.39,71.37,71.35,71.33,71.34,71.33,71.30,71.29,71.28,71.24,71.19,71.19
74.06,74.07,74.10,74.10,74.08,74.06,74.07,74.03,73.99,73.97,73.97,73.97,73.97,73.97,73.94,73.85,73.89,73.92,73.92,73.89,73.85,73.82,73.76,73.69,73.67,73.57,73.35,73.15,73.04,73.07,73.08,73.11,73.15,73.11,73.08,73.07,73.07,73.08,73.13,73.23,73.30,73.33,73.27,73.26,73.23,73.16,73.04,72.93,72.86,72.81,72.80,72.82,72.86,72.84,72.78,72.72,72.70,72.74,72.79,72.80,72.80,72.80,72.80,72.80,72.80,72.83,72.86,72.87,72.89,72.90,72.88,72.86,72.86,72.82,72.87,72.93,72.97,72.96,72.98,73.02,73.03,72.96,72.92,72.91,72.90,72.90,72.90,72.86,72.79,72.71,72.70,72.66,72.65,72.61,72.52,72.55,72.59,72.58,72.55,72.55,72.90,73.14,73.24,73.25,73.33,73.38,73.39,73.37,73.40,73.43,73.47,73.44,73.24,73.02,72.90,72.86,72.84,72.81,72.76,72.73,72.69,72.65,72.62,72.62,72.65,72.67,72.57,72.55,72.57,72.61,72.64,72.62,72.60,72.61,72.64,72.64,72.64,72.64,72.63,72.62,72.66,72.69,72.69,72.76,72.77,72.77,72.77,72.78,72.69,72.58,72.47,72.37,72.31,72.29,72.31,72.37,72.54,72.60,72.64,72.67,72.69,72.72,72.76,72.80,72.83,72.74,72.68,72.66,72.64,72.55,72.58,72.60,72.63,72.66,72.59,72.53,72.43,72.30,72.14,71.99,71.98,72.05,72.14,72.20,72.27,72.30,72.28,72.24,72.13,71.97,71.84,71.83,71.88,71.87,71.82,71.77,71.74,71.76,71.76,71.73,71.69,71.67,71.61,71.55,71.49,71.48,71.54,71.62,71.71,71.75,71.75,71.70,71.67,71.73,71.79,71.81,71.83,71.87,71.90,71.90,71.92,71.95,71.95,71.91,71.90,71.91,71.95,71.99,72.00,71.96,71.87,71.72,71.56,71.39,71.23,71.08,71.16,71.22,71.26,71.28,71.35,71.39,71.40,71.40,71.40,71.36,71.32,71.30,71.30,71.30,71.33,71.35,71.32,71.24,71.21,71.23
73.86,73.87,73.88,73.91,73.93,73.95,73.97,73.97,73.91,73.88,73.88,73.90,73.88,73.87,73.85,73.80,73.85,73.89,73.91,73.90,73.88,73.84,73.78,73.71,73.69,73.52,73.28,73.09,73.03,73.06,73.06,73.07,73.07,73.01,72.99,72.99,72.99,72.99,73.05,73.10,73.14,73.16,73.11,73.13,73.14,73.11,73.00,72.91,72.85,72.83,72.85,72.77,72.80,72.80,72.74,72.71,72.70,72.72,72.75,72.76,72.76,72.78,72.80,72.80,72.80,72.81,72.82,72.83,72.85,72.88,72.88,72.85,72.83,72.81,72.83,72.83,72.84,72.87,72.90,72.94,72.96,72.92,72.91,72.90,72.90,72.90,72.90,72.87,72.81,72.74,72.76,72.75,72.73,72.71,72.67,72.63,72.54,72.51,72.52,72.52,72.67,72.83,73.00,73.19,73.30,73.37,73.39,73.39,73.44,73.43,73.41,73.33,73.11,72.94,72.88,72.85,72.77,72.75,72.73,72.69,72.65,72.62,72.60,72.58,72.58,72.62,72.54,72.52,72.55,72.61,72.62,72.60,72.58,72.56,72.61,72.62,72.62,72.61,72.61,72.61,72.66,72.70,72.72,72.78,72.79,72.79,72.79,72.79,72.75,72.69,72.59,72.45,72.31,72.26,72.25,72.29,72.39,72.38,72.38,72.40,72.42,72.48,72.52,72.54,72.53,72.49,72.47,72.49,72.50,72.48,72.55,72.62,72.66,72.64,72.55,72.50,72.42,72.30,72.12,71.98,72.00,72.11,72.23,72.25,72.27,72.30,72.32,72.26,72.15,72.01,71.87,71.81,71.86,71.90,71.89,71.82,71.76,71.75,71.77,71.79,71.79,71.73,71.67,71.59,71.50,71.42,71.45,71.53,71.64,71.67,71.65,71.62,71.61,71.61,71.65,71.66,71.66,71.67,71.73,71.77,71.80,71.83,71.83,71.82,71.82,71.82,71.84,71.88,71.89,71.86,71.80,71.72,71.53,71.33,71.16,71.06,71.08,71.12,71.17,71.24,71.27,71.30,71.32,71.32,71.30,71.29,71.28,71.27,71.25,71.25,71.26,71.27,71.25,71.18,71.19,71.19
73.66,73.66,73.66,73.70,73.74,73.78,73.82,73.86,73.83,73.80,73.81,73.83,73.80,73.78,73.77,73.76,73.82,73.87,73.90,73.90,73.89,73.85,73.79,73.73,73.70,73.50,73.25,73.06,73.01,73.03,73.05,73.05,73.02,72.94,72.92,72.92,72.92,72.91,72.96,72.97,72.98,73.00,72.97,72.99,73.04,73.05,72.97,72.89,72.83,72.82,72.86,72.73,72.76,72.76,72.71,72.70,72.70,72.71,72.73,72.73,72.73,72.75,72.77,72.78,72.78,72.78,72.78,72.78,72.80,72.85,72.86,72.84,72.81,72.80,72.80,72.78,72.76,72.81,72.82,72.86,72.89,72.88,72.89,72.90,72.90,72.90,72.90,72.88,72.83,72.77,72.80,72.80,72.78,72.78,72.81,72.73,72.54,72.46,72.50,72.52,72.51,72.59,72.76,72.97,73.10,73.19,73.28,73.38,73.41,73.34,73.24,73.13,73.02,72.89,72.86,72.82,72.72,72.72,72.71,72.68,72.64,72.63,72.62,72.58,72.55,72.57,72.51,72.48,72.50,72.56,72.58,72.57,72.54,72.53,72.58,72.59,72.59,72.59,72.58,72.59,72.63,72.68,72.72,72.74,72.74,72.77,72.80,72.79,72.77,72.74,72.66,72.50,72.31,72.23,72.23,72.25,72.29,72.25,72.24,72.24,72.25,72.30,72.34,72.34,72.30,72.28,72.28,72.31,72.34,72.36,72.46,72.58,72.62,72.56,72.47,72.43,72.38,72.28,72.10,71.98,72.04,72.19,72.32,72.28,72.27,72.29,72.33,72.25,72.14,72.00,71.87,71.79,71.83,71.90,71.92,71.86,71.77,71.72,71.73,71.78,71.81,71.75,71.68,71.59,71.49,71.39,71.39,71.49,71.62,71.65,71.64,71.63,71.62,71.59,71.59,71.58,71.56,71.55,71.59,71.64,71.68,71.69,71.70,71.70,71.70,71.70,71.70,71.74,71.74,71.72,71.69,71.65,71.46,71.26,71.10,71.03,71.06,71.10,71.16,71.23,71.24,71.25,71.26,71.27,71.25,71.25,71.26,71.26,71.23,71.22,71.22,71.21,71.19,71.13,71.14,71.12
73.48,73.45,73.43,73.45,73.48,73.52,73.58,73.67,73.73,73.77,73.79,73.77,73.74,73.70,73.70,73.74,73.81,73.85,73.88,73.89,73.86,73.83,73.78,73.73,73.70,73.50,73.27,73.09,73.02,73.01,73.05,73.05,73.00,72.92,72.90,72.88,72.86,72.84,72.85,72.83,72.82,72.85,72.85,72.86,72.92,72.98,72.94,72.87,72.79,72.77,72.80,72.73,72.75,72.73,72.67,72.68,72.70,72.70,72.70,72.71,72.71,72.71,72.72,72.72,72.72,72.72,72.72,72.72,72.73,72.79,72.81,72.81,72.80,72.80,72.80,72.79,72.79,72.80,72.76,72.78,72.82,72.83,72.88,72.90,72.90,72.90,72.90,72.90,72.85,72.80,72.80,72.80,72.76,72.77,72.88,72.87,72.59,72.45,72.51,72.58,72.47,72.48,72.53,72.51,72.59,72.72,72.97,73.30,73.24,73.11,72.90,72.77,72.99,72.91,72.85,72.78,72.70,72.70,72.70,72.70,72.69,72.69,72.68,72.63,72.57,72.51,72.49,72.41,72.38,72.45,72.50,72.51,72.50,72.50,72.51,72.57,72.58,72.55,72.51,72.56,72.55,72.60,72.67,72.61,72.59,72.68,72.79,72.77,72.72,72.69,72.63,72.50,72.30,72.24,72.25,72.29,72.31,72.29,72.29,72.27,72.23,72.24,72.25,72.25,72.21,72.15,72.14,72.14,72.14,72.16,72.28,72.42,72.47,72.40,72.33,72.29,72.27,72.23,72.08,72.01,72.12,72.29,72.38,72.29,72.26,72.27,72.28,72.21,72.07,71.94,71.83,71.76,71.76,71.85,71.91,71.89,71.76,71.65,71.62,71.65,71.71,71.67,71.61,71.54,71.46,71.40,71.42,71.52,71.65,71.75,71.78,71.78,71.76,71.74,71.69,71.65,71.60,71.56,71.54,71.55,71.55,71.55,71.55,71.55,71.54,71.52,71.53,71.56,71.54,71.52,71.51,71.47,71.35,71.20,71.06,71.01,71.14,71.22,71.26,71.26,71.27,71.26,71.26,71.27,71.28,71.27,71.28,71.29,71.25,71.23,71.23,71.21,71.17,71.10,71.04,71.00
73.60,73.54,73.47,73.43,73.40,73.39,73.39,73.43,73.48,73.53,73.57,73.57,73.57,73.58,73.61,73.66,73.75,73.81,73.82,73.79,73.79,73.80,73.78,73.72,73.67,73.48,73.26,73.09,73.01,73.00,73.02,73.04,73.03,72.97,72.93,72.87,72.83,72.81,72.81,72.80,72.80,72.81,72.78,72.77,72.80,72.83,72.82,72.76,72.72,72.72,72.75,72.72,72.75,72.73,72.65,72.64,72.65,72.67,72.69,72.70,72.70,72.70,72.70,72.71,72.71,72.71,72.71,72.71,72.71,72.74,72.75,72.75,72.75,72.75,72.75,72.75,72.75,72.75,72.76,72.78,72.80,72.81,72.87,72.90,72.90,72.90,72.89,72.87,72.83,72.79,72.76,72.75,72.73,72.72,72.74,72.70,72.49,72.42,72.52,72.63,72.58,72.54,72.50,72.44,72.47,72.53,72.68,72.90,72.91,72.82,72.70,72.67,72.94,72.87,72.82,72.77,72.70,72.70,72.70,72.71,72.72,72.75,72.71,72.67,72.61,72.51,72.46,72.41,72.40,72.45,72.46,72.49,72.47,72.44,72.44,72.47,72.49,72.47,72.42,72.46,72.47,72.53,72.59,72.51,72.52,72.62,72.71,72.68,72.63,72.60,72.56,72.46,72.27,72.22,72.22,72.26,72.31,72.31,72.32,72.34,72.33,72.31,72.33,72.34,72.32,72.24,72.21,72.18,72.14,72.13,72.17,72.23,72.24,72.18,72.13,72.11,72.09,72.07,72.01,71.99,72.13,72.29,72.37,72.32,72.30,72.28,72.24,72.14,72.01,71.88,71.77,71.73,71.75,71.83,71.90,71.90,71.80,71.70,71.63,71.60,71.62,71.63,71.60,71.54,71.46,71.40,71.42,71.52,71.67,71.77,71.79,71.79,71.79,71.78,71.76,71.73,71.70,71.65,71.63,71.64,71.64,71.61,71.60,71.58,71.57,71.55,71.53,71.52,71.48,71.42,71.37,71.31,71.24,71.14,71.05,71.04,71.22,71.31,71.35,71.34,71.35,71.33,71.32,71.33,71.32,71.28,71.27,71.25,71.18,71.18,71.18,71.18,71.17,71.12,71.04,70.98
73.78,73.69,73.58,73.47,73.40,73.33,73.27,73.25,73.25,73.29,73.35,73.36,73.40,73.45,73.50,73.55,73.66,73.74,73.73,73.67,73.71,73.76,73.76,73.70,73.62,73.45,73.24,73.07,73.00,73.00,73.01,73.03,73.07,73.03,72.96,72.87,72.80,72.77,72.79,72.82,72.83,72.81,72.75,72.72,72.71,72.71,72.70,72.65,72.65,72.68,72.70,72.70,72.75,72.72,72.64,72.60,72.60,72.63,72.67,72.68,72.69,72.69,72.69,72.70,72.70,72.70,72.70,72.70,72.70,72.70,72.70,72.70,72.70,72.70,72.70,72.70,72.70,72.71,72.78,72.81,72.81,72.82,72.88,72.90,72.90,72.90,72.87,72.83,72.79,72.75,72.71,72.70,72.70,72.66,72.57,72.49,72.37,72.39,72.53,72.68,72.72,72.66,72.56,72.51,72.48,72.46,72.46,72.50,72.58,72.55,72.54,72.62,72.86,72.80,72.79,72.76,72.70,72.70,72.70,72.72,72.74,72.78,72.73,72.70,72.65,72.52,72.42,72.42,72.44,72.47,72.46,72.49,72.46,72.39,72.38,72.37,72.40,72.40,72.35,72.37,72.40,72.45,72.50,72.42,72.46,72.55,72.60,72.55,72.51,72.50,72.47,72.40,72.23,72.19,72.19,72.21,72.30,72.31,72.35,72.40,72.44,72.42,72.44,72.47,72.47,72.40,72.35,72.29,72.22,72.17,72.11,72.06,72.02,71.99,71.95,71.94,71.93,71.92,71.93,71.98,72.11,72.26,72.35,72.34,72.33,72.29,72.20,72.08,71.95,71.82,71.72,71.69,71.75,71.83,71.90,71.90,71.84,71.78,71.68,71.58,71.54,71.60,71.61,71.56,71.46,71.39,71.42,71.52,71.68,71.77,71.77,71.76,71.77,71.79,71.79,71.80,71.79,71.75,71.75,71.77,71.76,71.73,71.69,71.65,71.64,71.62,71.59,71.54,71.47,71.38,71.27,71.19,71.15,71.10,71.05,71.08,71.29,71.39,71.42,71.42,71.43,71.40,71.39,71.39,71.36,71.29,71.24,71.18,71.09,71.11,71.14,71.17,71.20,71.15,71.06,70.99
