79.89,79.83,79.80,79.80,79.80,79.81,79.82,79.79,79.76,79.74,79.74,79.72,79.69,79.69,79.71,79.73,79.66,79.62,79.63,79.70,79.76,79.79,79.79,79.79,79.81,79.79,79.70,79.64,79.67,79.66,79.53,79.39,79.28,79.18,79.10,79.10,79.17,79.28,79.29,79.25,79.19,79.13,79.03,78.95,78.91,78.90,78.93,78.94,78.93,78.92,78.93,78.92,78.91,78.88,78.83,78.80,78.80,78.80,78.81,78.83,78.82,78.77,78.73,78.70,78.67,78.59,78.52,78.46,78.42,78.47,78.55,78.57,78.51,78.43,78.39,78.35,78.33,78.32,78.31,78.27,78.22,78.16,78.12,78.08,78.06,78.03,78.01,77.96,77.89,77.83,77.78,77.77,77.77,77.78,77.80,77.88,77.95,77.97,77.93,77.90,77.92,77.92,77.91,77.89,77.87,77.84,77.79,77.72,77.77,77.81,77.82,77.81,77.80,77.84,77.85,77.83,77.82,77.78,77.76,77.75,77.74,77.68,77.69,77.69,77.66,77.61,77.56,77.45,77.37,77.36,77.43,77.50,77.56,77.62,77.68,77.69,77.75,77.83,77.88,77.81,77.86,77.90,77.88,77.81,77.90,78.27,78.79,79.32,79.84,80.22,80.43,80.48,80.45,80.38,80.30,80.27,80.40,80.44,80.91,81.60,82.30,82.99,83.65,84.33,85.08,85.98,86.64,86.89,86.89,86.88,86.82,86.80,86.81,86.83,86.88,86.89,86.89,86.89,86.90,86.90,86.90,86.93,86.97,86.89,86.76,86.65,86.59,86.60,86.59,86.54,86.49,86.47,86.43,86.45,86.44,86.37,86.29,86.22,86.16,86.14,86.19,86.20,86.18,86.16,86.12,86.16,86.13,86.10,86.10,86.10,86.12,86.16,86.19,86.19,86.19,86.20,86.19,86.16,86.11,86.08,86.01,85.92,85.81,85.84,85.92,85.98,85.95,85.90,85.88,85.85,85.80,85.80,85.80,85.80,85.81,85.84,85.87,85.87,85.90,85.98,85.98,86.01,86.05,86.09,86.10,86.07,85.99,85.90,85.82,85.78,85.72,85.69,85.70,85.71,85.71,85.69
79.88,79.85,79.83,79.80,79.79,79.80,79.81,79.78,79.74,79.73,79.73,79.71,79.67,79.67,79.70,79.74,79.72,79.66,79.64,79.70,79.77,79.81,79.81,79.78,79.78,79.77,79.73,79.70,79.70,79.63,79.50,79.38,79.26,79.14,79.06,79.07,79.14,79.24,79.24,79.20,79.15,79.09,79.02,78.96,78.91,78.88,78.89,78.91,78.91,78.91,78.91,78.91,78.90,78.88,78.83,78.80,78.80,78.80,78.80,78.81,78.78,78.76,78.74,78.72,78.69,78.65,78.58,78.50,78.43,78.46,78.49,78.47,78.40,78.35,78.33,78.32,78.30,78.27,78.28,78.28,78.24,78.15,78.11,78.07,78.04,78.01,78.00,77.98,77.94,77.88,77.86,77.85,77.85,77.84,77.82,77.87,77.91,77.91,77.86,77.84,77.88,77.90,77.89,77.85,77.83,77.79,77.72,77.66,77.71,77.77,77.80,77.80,77.80,77.82,77.82,77.81,77.81,77.79,77.75,77.72,77.71,77.69,77.74,77.73,77.68,77.61,77.54,77.42,77.33,77.32,77.39,77.47,77.54,77.60,77.62,77.63,77.68,77.74,77.75,77.73,77.83,77.87,77.83,77.80,77.83,78.13,78.62,79.15,79.58,79.89,80.04,80.06,80.05,79.98,79.87,79.80,79.89,80.03,80.53,81.23,81.92,82.62,83.31,84.04,84.87,85.89,86.61,86.89,86.88,86.82,86.81,86.81,86.83,86.88,86.89,86.90,86.90,86.90,86.90,86.90,86.90,86.91,86.93,86.93,86.82,86.69,86.60,86.60,86.58,86.53,86.47,86.42,86.41,86.41,86.41,86.37,86.29,86.23,86.18,86.15,86.15,86.17,86.15,86.11,86.09,86.12,86.10,86.08,86.07,86.08,86.10,86.12,86.13,86.13,86.14,86.17,86.18,86.15,86.08,86.04,86.00,85.95,85.87,85.85,85.88,85.91,85.88,85.86,85.86,85.85,85.82,85.83,85.81,85.80,85.82,85.85,85.88,85.88,85.88,85.90,85.95,85.99,86.03,86.06,86.10,86.08,86.01,85.90,85.77,85.69,85.64,85.64,85.67,85.72,85.73,85.71
79.88,79.87,79.85,79.79,79.77,79.78,79.81,79.77,79.73,79.72,79.72,79.69,79.66,79.67,79.72,79.77,79.75,79.68,79.63,79.65,79.73,79.79,79.81,79.78,79.76,79.74,79.72,79.71,79.70,79.61,79.52,79.40,79.27,79.12,79.05,79.07,79.13,79.20,79.20,79.18,79.12,79.06,79.00,78.95,78.90,78.86,78.87,78.90,78.90,78.90,78.90,78.90,78.90,78.88,78.85,78.82,78.82,78.82,78.81,78.80,78.76,78.74,78.73,78.71,78.68,78.65,78.59,78.51,78.41,78.43,78.43,78.39,78.33,78.27,78.26,78.26,78.26,78.23,78.24,78.24,78.21,78.13,78.11,78.06,78.02,78.00,77.98,77.98,77.96,77.93,77.90,77.91,77.91,77.89,77.85,77.88,77.89,77.86,77.82,77.81,77.86,77.88,77.85,77.79,77.77,77.73,77.67,77.63,77.68,77.73,77.76,77.77,77.79,77.82,77.83,77.82,77.80,77.79,77.72,77.67,77.66,77.66,77.72,77.70,77.64,77.57,77.52,77.42,77.35,77.34,77.36,77.41,77.49,77.55,77.56,77.58,77.63,77.66,77.67,77.69,77.77,77.82,77.82,77.82,77.82,78.03,78.42,78.90,79.23,79.47,79.58,79.59,79.64,79.56,79.44,79.36,79.40,79.64,80.18,80.87,81.57,82.27,82.99,83.81,84.74,85.79,86.52,86.84,86.86,86.81,86.81,86.83,86.87,86.90,86.90,86.90,86.90,86.90,86.90,86.90,86.90,86.90,86.91,86.93,86.85,86.73,86.63,86.60,86.56,86.51,86.45,86.40,86.41,86.40,86.39,86.36,86.29,86.22,86.17,86.15,86.13,86.12,86.09,86.07,86.06,86.10,86.10,86.07,86.03,86.06,86.09,86.10,86.11,86.12,86.13,86.15,86.15,86.10,86.05,86.02,86.00,85.97,85.92,85.86,85.85,85.86,85.84,85.84,85.86,85.85,85.82,85.84,85.82,85.82,85.84,85.88,85.91,85.91,85.89,85.88,85.93,85.98,86.01,86.04,86.09,86.08,86.03,85.92,85.77,85.67,85.62,85.62,85.64,85.69,85.71,85.70
79.90,79.89,79.86,79.78,79.75,79.76,79.80,79.77,79.72,79.70,79.69,79.66,79.65,79.69,79.76,79.80,79.77,79.68,79.60,79.58,79.65,79.73,79.78,79.79,79.75,79.68,79.66,79.66,79.66,79.61,79.56,79.46,79.30,79.11,79.06,79.07,79.11,79.15,79.19,79.17,79.11,79.04,78.96,78.92,78.88,78.85,78.86,78.89,78.90,78.90,78.90,78.90,78.90,78.90,78.89,78.84,78.85,78.85,78.83,78.80,78.75,78.72,78.70,78.69,78.65,78.61,78.57,78.50,78.37,78.37,78.36,78.33,78.29,78.19,78.17,78.18,78.20,78.20,78.21,78.18,78.14,78.11,78.10,78.06,78.02,77.99,77.94,77.96,77.98,77.97,77.92,77.96,77.95,77.92,77.90,77.91,77.86,77.82,77.80,77.80,77.86,77.86,77.80,77.72,77.70,77.66,77.62,77.61,77.67,77.69,77.70,77.71,77.77,77.84,77.87,77.85,77.80,77.78,77.69,77.61,77.59,77.60,77.65,77.63,77.56,77.51,77.50,77.46,77.42,77.41,77.32,77.34,77.41,77.48,77.50,77.55,77.59,77.60,77.61,77.66,77.69,77.76,77.84,77.87,77.87,77.95,78.18,78.57,78.81,78.98,79.05,79.07,79.22,79.13,79.01,78.93,78.92,79.26,79.85,80.54,81.24,81.94,82.69,83.61,84.67,85.68,86.39,86.75,86.85,86.83,86.84,86.87,86.90,86.90,86.90,86.90,86.90,86.90,86.90,86.90,86.90,86.90,86.90,86.89,86.85,86.77,86.67,86.60,86.52,86.47,86.44,86.41,86.42,86.41,86.38,86.34,86.29,86.22,86.15,86.12,86.14,86.08,86.03,86.01,86.03,86.09,86.10,86.05,85.97,86.02,86.08,86.10,86.12,86.15,86.15,86.14,86.10,86.04,86.02,86.03,86.02,85.99,85.96,85.88,85.84,85.83,85.82,85.86,85.87,85.85,85.82,85.84,85.83,85.84,85.88,85.92,85.94,85.94,85.93,85.90,85.93,85.98,86.01,86.03,86.07,86.09,86.06,85.97,85.81,85.70,85.65,85.62,85.60,85.62,85.66,85.68
79.90,79.88,79.83,79.75,79.72,79.72,79.74,79.75,79.74,79.72,79.70,79.69,79.70,79.74,79.77,79.74,79.67,79.61,79.56,79.54,79.58,79.58,79.59,79.62,79.64,79.57,79.55,79.56,79.58,79.53,79.51,79.45,79.34,79.15,79.03,79.00,79.02,79.08,79.12,79.12,79.08,79.03,78.96,78.92,78.88,78.84,78.82,78.84,78.84,78.85,78.88,78.90,78.89,78.87,78.83,78.78,78.80,78.80,78.77,78.73,78.72,78.72,78.71,78.70,78.65,78.62,78.56,78.47,78.34,78.34,78.38,78.38,78.32,78.19,78.16,78.16,78.18,78.23,78.26,78.24,78.20,78.16,78.12,78.07,78.03,78.00,77.94,77.93,77.93,77.93,77.91,77.96,77.97,77.95,77.91,77.92,77.86,77.81,77.78,77.79,77.86,77.87,77.82,77.71,77.66,77.65,77.64,77.62,77.66,77.67,77.67,77.68,77.74,77.80,77.82,77.79,77.74,77.72,77.64,77.58,77.56,77.55,77.60,77.58,77.52,77.50,77.50,77.48,77.45,77.41,77.32,77.30,77.33,77.41,77.47,77.51,77.56,77.60,77.60,77.60,77.62,77.66,77.71,77.76,77.79,77.86,78.00,78.25,78.39,78.50,78.57,78.63,78.76,78.72,78.62,78.55,78.57,79.01,79.64,80.34,81.01,81.66,82.40,83.36,84.51,85.44,86.16,86.62,86.84,86.87,86.88,86.89,86.90,86.90,86.90,86.90,86.90,86.90,86.90,86.90,86.90,86.90,86.90,86.90,86.87,86.79,86.68,86.60,86.52,86.46,86.42,86.40,86.40,86.37,86.34,86.32,86.28,86.19,86.13,86.09,86.08,86.06,86.05,86.05,86.10,86.14,86.15,86.10,86.02,86.02,86.07,86.11,86.13,86.16,86.10,86.05,86.03,86.02,86.02,86.06,86.08,86.06,86.01,85.92,85.85,85.81,85.82,85.84,85.84,85.83,85.82,85.84,85.85,85.87,85.89,85.91,85.93,85.94,85.94,85.95,85.97,85.99,86.00,86.01,86.03,86.06,86.05,85.99,85.86,85.75,85.69,85.66,85.65,85.66,85.67,85.69
79.89,79.87,79.81,79.73,79.70,79.69,79.70,79.74,79.76,79.75,79.73,79.73,79.76,79.78,79.77,79.69,79.58,79.52,79.49,79.48,79.50,79.46,79.45,79.47,79.51,79.45,79.43,79.45,79.48,79.43,79.43,79.41,79.33,79.16,79.00,78.94,78.95,79.01,79.04,79.05,79.04,79.01,78.97,78.93,78.89,78.84,78.80,78.80,78.80,78.81,78.85,78.88,78.87,78.82,78.77,78.71,78.73,78.72,78.69,78.68,78.71,78.73,78.72,78.70,78.66,78.63,78.56,78.46,78.30,78.30,78.36,78.39,78.34,78.20,78.17,78.16,78.17,78.24,78.30,78.30,78.25,78.19,78.13,78.08,78.04,78.00,77.94,77.91,77.90,77.90,77.90,77.95,77.97,77.96,77.91,77.90,77.85,77.79,77.75,77.78,77.84,77.86,77.81,77.69,77.62,77.64,77.65,77.62,77.64,77.64,77.64,77.65,77.72,77.75,77.75,77.72,77.68,77.66,77.59,77.54,77.52,77.50,77.54,77.52,77.48,77.47,77.47,77.48,77.45,77.38,77.31,77.27,77.29,77.35,77.42,77.47,77.53,77.58,77.58,77.57,77.58,77.58,77.59,77.67,77.72,77.79,77.88,78.01,78.05,78.13,78.21,78.28,78.39,78.37,78.31,78.28,78.35,78.83,79.47,80.15,80.80,81.40,82.09,83.08,84.26,85.12,85.85,86.42,86.78,86.90,86.90,86.90,86.90,86.90,86.90,86.90,86.90,86.90,86.90,86.90,86.90,86.90,86.90,86.90,86.87,86.80,86.69,86.60,86.52,86.46,86.42,86.42,86.38,86.34,86.31,86.29,86.26,86.18,86.13,86.10,86.06,86.08,86.09,86.12,86.18,86.19,86.17,86.12,86.06,86.03,86.07,86.10,86.11,86.12,86.02,85.97,85.96,86.01,86.04,86.09,86.12,86.12,86.07,85.96,85.86,85.80,85.82,85.84,85.84,85.84,85.83,85.85,85.86,85.88,85.90,85.91,85.93,85.95,85.96,85.98,85.98,85.98,85.98,85.99,86.01,86.03,86.04,86.00,85.90,85.78,85.72,85.69,85.69,85.70,85.69,85.69
79.85,79.83,79.79,79.75,79.70,79.67,79.68,79.75,79.78,79.79,79.79,79.80,79.81,79.80,79.75,79.64,79.49,79.40,79.36,79.36,79.40,79.41,79.40,79.39,79.36,79.31,79.31,79.34,79.35,79.31,79.31,79.31,79.26,79.12,78.98,78.92,78.92,78.95,78.97,78.98,78.98,78.97,78.96,78.94,78.89,78.84,78.80,78.80,78.79,78.79,78.82,78.86,78.82,78.75,78.68,78.65,78.62,78.59,78.60,78.65,78.73,78.76,78.75,78.71,78.67,78.63,78.58,78.47,78.26,78.23,78.28,78.33,78.31,78.21,78.19,78.19,78.20,78.23,78.30,78.31,78.28,78.20,78.14,78.08,78.04,78.00,77.94,77.91,77.90,77.90,77.90,77.93,77.92,77.91,77.90,77.84,77.82,77.76,77.70,77.76,77.82,77.83,77.78,77.65,77.61,77.62,77.63,77.61,77.61,77.61,77.62,77.65,77.72,77.70,77.68,77.64,77.60,77.61,77.53,77.47,77.46,77.43,77.46,77.45,77.41,77.39,77.39,77.41,77.40,77.32,77.26,77.27,77.29,77.31,77.35,77.41,77.48,77.53,77.55,77.61,77.56,77.52,77.53,77.61,77.68,77.75,77.83,77.92,77.86,77.94,78.03,78.08,78.16,78.13,78.14,78.23,78.37,78.80,79.36,79.98,80.60,81.15,81.78,82.73,83.89,84.69,85.41,86.09,86.63,86.90,86.90,86.90,86.90,86.90,86.90,86.90,86.90,86.90,86.90,86.90,86.90,86.90,86.90,86.89,86.85,86.79,86.73,86.60,86.53,86.49,86.47,86.46,86.39,86.33,86.30,86.28,86.23,86.19,86.17,86.15,86.10,86.15,86.18,86.21,86.27,86.25,86.17,86.11,86.09,86.07,86.05,86.06,86.07,86.01,85.93,85.89,85.92,86.02,86.08,86.11,86.15,86.18,86.13,85.99,85.87,85.81,85.83,85.88,85.89,85.89,85.88,85.87,85.85,85.87,85.91,85.93,85.97,85.99,85.99,85.99,85.97,85.93,85.92,85.95,86.00,86.01,86.01,85.98,85.91,85.79,85.73,85.72,85.73,85.75,85.71,85.68
79.80,79.80,79.79,79.77,79.73,79.70,79.70,79.76,79.79,79.80,79.81,79.83,79.82,79.78,79.70,79.58,79.43,79.35,79.31,79.31,79.35,79.36,79.36,79.33,79.27,79.23,79.24,79.27,79.28,79.24,79.22,79.20,79.14,79.04,78.95,78.90,78.89,78.89,78.90,78.90,78.90,78.90,78.90,78.88,78.85,78.82,78.80,78.80,78.78,78.77,78.77,78.81,78.78,78.71,78.62,78.58,78.54,78.51,78.52,78.60,78.70,78.72,78.71,78.67,78.63,78.59,78.54,78.45,78.26,78.21,78.23,78.28,78.29,78.21,78.19,78.20,78.21,78.21,78.27,78.29,78.25,78.17,78.13,78.07,78.02,77.97,77.93,77.91,77.91,77.92,77.91,77.87,77.84,77.83,77.84,77.79,77.79,77.75,77.70,77.71,77.75,77.75,77.71,77.62,77.61,77.61,77.61,77.60,77.57,77.54,77.54,77.57,77.59,77.57,77.55,77.54,77.54,77.52,77.45,77.41,77.42,77.37,77.38,77.39,77.38,77.34,77.34,77.35,77.35,77.30,77.27,77.26,77.27,77.31,77.35,77.36,77.42,77.48,77.52,77.60,77.58,77.53,77.52,77.59,77.67,77.75,77.82,77.90,77.82,77.88,77.96,78.02,78.06,78.04,78.07,78.19,78.38,78.68,79.16,79.73,80.31,80.89,81.49,82.34,83.40,84.18,84.93,85.67,86.32,86.80,86.88,86.90,86.90,86.90,86.90,86.90,86.90,86.90,86.90,86.90,86.90,86.90,86.90,86.90,86.87,86.84,86.80,86.69,86.59,86.53,86.49,86.48,86.41,86.37,86.34,86.31,86.30,86.27,86.24,86.22,86.17,86.21,86.22,86.21,86.23,86.20,86.17,86.15,86.13,86.08,86.04,86.02,86.00,85.95,85.90,85.89,85.93,86.02,86.06,86.10,86.15,86.17,86.11,86.00,85.91,85.87,85.88,85.91,85.91,85.90,85.90,85.89,85.87,85.89,85.92,85.94,85.99,86.00,86.00,85.99,85.96,85.91,85.89,85.91,85.97,85.99,86.00,85.98,85.93,85.83,85.78,85.76,85.77,85.76,85.72,85.68
79.77,79.78,79.80,79.78,79.75,79.73,79.73,79.77,79.79,79.81,79.83,79.84,79.80,79.73,79.64,79.52,79.38,79.30,79.26,79.26,79.30,79.32,79.30,79.26,79.21,79.17,79.18,79.21,79.23,79.19,79.15,79.10,79.03,78.95,78.91,78.87,78.85,78.83,78.83,78.83,78.83,78.83,78.83,78.80,78.79,78.78,78.79,78.79,78.76,78.73,78.71,78.75,78.74,78.67,78.57,78.50,78.47,78.44,78.46,78.54,78.64,78.65,78.63,78.60,78.55,78.52,78.48,78.40,78.26,78.20,78.20,78.22,78.25,78.19,78.18,78.19,78.20,78.20,78.24,78.24,78.21,78.14,78.12,78.07,78.01,77.95,77.92,77.90,77.92,77.93,77.91,77.81,77.76,77.76,77.79,77.75,77.76,77.76,77.71,77.67,77.70,77.69,77.65,77.61,77.60,77.60,77.60,77.58,77.53,77.48,77.48,77.50,77.47,77.45,77.44,77.45,77.48,77.43,77.36,77.34,77.37,77.32,77.31,77.33,77.35,77.32,77.32,77.32,77.32,77.30,77.29,77.24,77.25,77.30,77.36,77.32,77.35,77.41,77.49,77.58,77.60,77.57,77.53,77.60,77.67,77.75,77.82,77.90,77.83,77.86,77.93,77.99,77.99,77.99,78.04,78.16,78.39,78.56,78.95,79.47,80.02,80.63,81.20,81.96,82.89,83.65,84.43,85.20,85.94,86.61,86.83,86.89,86.90,86.90,86.90,86.90,86.90,86.90,86.90,86.90,86.90,86.90,86.90,86.90,86.90,86.89,86.87,86.80,86.67,86.57,86.52,86.50,86.46,86.44,86.40,86.36,86.40,86.36,86.32,86.28,86.23,86.25,86.24,86.20,86.18,86.15,86.18,86.19,86.17,86.09,86.04,85.99,85.95,85.90,85.90,85.92,85.96,86.00,86.03,86.09,86.13,86.14,86.07,86.01,85.96,85.94,85.92,85.94,85.92,85.90,85.90,85.90,85.91,85.92,85.93,85.96,85.99,86.00,86.00,85.99,85.95,85.90,85.87,85.88,85.95,85.99,85.99,85.97,85.93,85.88,85.83,85.80,85.80,85.76,85.72,85.69
79.81,79.82,79.78,79.74,79.73,79.75,79.77,79.78,79.81,79.84,79.86,79.82,79.70,79.61,79.55,79.48,79.34,79.23,79.18,79.20,79.24,79.23,79.20,79.17,79.15,79.13,79.14,79.15,79.16,79.13,79.12,79.09,79.03,78.95,78.87,78.80,78.76,78.74,78.74,78.74,78.76,78.78,78.77,78.75,78.73,78.73,78.73,78.73,78.71,78.67,78.64,78.69,78.66,78.58,78.49,78.44,78.42,78.41,78.42,78.45,78.51,78.52,78.49,78.46,78.41,78.38,78.34,78.28,78.17,78.17,78.16,78.16,78.15,78.13,78.12,78.13,78.14,78.18,78.17,78.15,78.13,78.11,78.10,78.09,78.04,77.96,77.95,77.90,77.86,77.84,77.83,77.80,77.82,77.83,77.81,77.75,77.76,77.78,77.77,77.76,77.78,77.75,77.69,77.62,77.56,77.57,77.58,77.54,77.52,77.51,77.53,77.55,77.51,77.49,77.48,77.48,77.48,77.33,77.26,77.26,77.30,77.30,77.30,77.28,77.29,77.38,77.39,77.40,77.37,77.32,77.31,77.24,77.24,77.28,77.28,77.25,77.28,77.35,77.43,77.56,77.60,77.60,77.60,77.67,77.69,77.74,77.81,77.88,77.85,77.86,77.88,77.91,77.91,77.92,78.00,78.16,78.39,78.55,78.84,79.26,79.78,80.34,80.93,81.62,82.41,83.13,83.90,84.66,85.42,86.16,86.66,86.86,86.90,86.90,86.90,86.90,86.90,86.90,86.90,86.90,86.90,86.89,86.88,86.90,86.88,86.86,86.85,86.83,86.72,86.63,86.58,86.53,86.57,86.55,86.50,86.44,86.44,86.43,86.38,86.31,86.24,86.24,86.24,86.23,86.22,86.21,86.22,86.21,86.17,86.10,86.07,86.01,85.96,85.92,85.91,85.93,85.96,85.98,86.02,86.08,86.11,86.11,86.07,86.03,86.00,85.98,85.94,85.94,85.93,85.91,85.90,85.90,85.91,85.94,85.96,85.99,86.00,86.00,85.99,85.98,85.94,85.91,85.90,85.91,85.96,85.99,85.98,85.95,85.91,85.88,85.85,85.83,85.81,85.77,85.72,85.70
79.81,79.82,79.77,79.72,79.72,79.73,79.75,79.77,79.80,79.84,79.85,79.80,79.63,79.52,79.45,79.39,79.29,79.21,79.17,79.16,79.17,79.16,79.14,79.12,79.11,79.11,79.11,79.11,79.12,79.11,79.10,79.09,79.05,78.96,78.84,78.75,78.69,78.67,78.67,78.66,78.67,78.69,78.70,78.68,78.67,78.65,78.64,78.64,78.62,78.59,78.57,78.60,78.58,78.52,78.45,78.42,78.41,78.41,78.40,78.40,78.43,78.42,78.40,78.37,78.32,78.28,78.25,78.22,78.16,78.16,78.14,78.13,78.11,78.10,78.12,78.15,78.18,78.22,78.20,78.17,78.14,78.12,78.11,78.10,78.07,78.02,78.01,77.95,77.89,77.85,77.82,77.82,77.85,77.86,77.82,77.76,77.77,77.79,77.81,77.83,77.84,77.80,77.74,77.67,77.59,77.61,77.62,77.57,77.55,77.57,77.59,77.60,77.56,77.53,77.51,77.50,77.46,77.29,77.23,77.23,77.25,77.26,77.26,77.26,77.30,77.45,77.49,77.51,77.46,77.37,77.35,77.26,77.23,77.26,77.29,77.27,77.28,77.32,77.39,77.54,77.59,77.61,77.64,77.68,77.69,77.71,77.76,77.82,77.80,77.80,77.81,77.83,77.85,77.87,77.97,78.14,78.37,78.54,78.78,79.11,79.56,80.09,80.67,81.31,82.00,82.69,83.42,84.15,84.90,85.67,86.34,86.71,86.88,86.90,86.90,86.90,86.90,86.90,86.90,86.90,86.89,86.87,86.85,86.86,86.84,86.83,86.82,86.85,86.77,86.71,86.67,86.61,86.64,86.62,86.56,86.48,86.44,86.43,86.37,86.30,86.26,86.26,86.26,86.26,86.26,86.26,86.25,86.22,86.17,86.11,86.09,86.05,86.00,85.97,85.93,85.93,85.94,85.96,86.02,86.07,86.10,86.09,86.05,86.03,86.03,86.01,85.96,85.96,85.94,85.91,85.88,85.87,85.90,85.93,85.96,85.98,86.00,86.00,86.00,85.98,85.96,85.94,85.93,85.94,85.96,85.99,85.98,85.94,85.90,85.89,85.88,85.86,85.83,85.77,85.72,85.71
79.77,79.79,79.77,79.72,79.70,79.70,79.70,79.74,79.78,79.81,79.82,79.78,79.59,79.44,79.33,79.26,79.24,79.25,79.22,79.15,79.11,79.10,79.10,79.10,79.10,79.10,79.10,79.10,79.10,79.10,79.10,79.10,79.07,78.96,78.80,78.71,78.65,78.61,78.61,78.58,78.56,78.57,78.61,78.61,78.59,78.55,78.52,78.52,78.52,78.51,78.50,78.50,78.50,78.48,78.44,78.42,78.42,78.42,78.41,78.37,78.37,78.36,78.34,78.31,78.26,78.22,78.20,78.20,78.20,78.16,78.13,78.12,78.11,78.10,78.15,78.22,78.29,78.31,78.30,78.26,78.21,78.15,78.12,78.10,78.11,78.11,78.07,78.04,77.99,77.93,77.84,77.85,77.86,77.85,77.82,77.79,77.77,77.79,77.82,77.88,77.89,77.86,77.80,77.75,77.67,77.70,77.70,77.65,77.61,77.66,77.67,77.64,77.61,77.56,77.54,77.51,77.44,77.30,77.25,77.22,77.21,77.20,77.22,77.26,77.35,77.53,77.61,77.63,77.58,77.45,77.41,77.28,77.21,77.24,77.37,77.36,77.32,77.31,77.36,77.51,77.58,77.62,77.65,77.66,77.66,77.66,77.67,77.71,77.70,77.70,77.72,77.76,77.79,77.83,77.94,78.11,78.34,78.54,78.75,79.02,79.35,79.86,80.43,81.01,81.62,82.31,82.98,83.67,84.39,85.16,85.89,86.49,86.83,86.90,86.90,86.90,86.90,86.90,86.90,86.90,86.87,86.83,86.80,86.79,86.79,86.78,86.78,86.84,86.82,86.80,86.78,86.71,86.69,86.66,86.59,86.49,86.41,86.38,86.32,86.26,86.30,86.30,86.30,86.30,86.30,86.30,86.29,86.24,86.17,86.11,86.10,86.09,86.08,86.04,85.97,85.92,85.91,85.93,86.02,86.07,86.09,86.07,86.02,86.02,86.03,86.04,86.00,85.98,85.94,85.90,85.85,85.81,85.87,85.90,85.92,85.95,85.99,86.00,86.00,86.00,85.99,85.98,85.96,85.95,85.94,85.98,85.98,85.94,85.90,85.90,85.90,85.89,85.85,85.77,85.72,85.72
79.78,79.79,79.77,79.72,79.69,79.67,79.63,79.64,79.64,79.60,79.54,79.46,79.36,79.28,79.22,79.17,79.16,79.16,79.14,79.12,79.10,79.10,79.10,79.10,79.10,79.10,79.10,79.09,79.08,79.08,79.08,79.07,79.04,78.92,78.80,78.73,78.69,78.65,78.66,78.64,78.62,78.62,78.65,78.65,78.64,78.63,78.64,78.62,78.57,78.52,78.50,78.50,78.51,78.51,78.51,78.51,78.52,78.52,78.50,78.46,78.43,78.41,78.40,78.38,78.29,78.23,78.20,78.20,78.20,78.20,78.19,78.17,78.14,78.13,78.18,78.26,78.33,78.34,78.33,78.30,78.24,78.19,78.14,78.11,78.12,78.15,78.15,78.12,78.08,78.00,77.89,77.84,77.83,77.82,77.80,77.76,77.77,77.80,77.85,77.89,77.90,77.86,77.81,77.78,77.73,77.77,77.79,77.73,77.66,77.68,77.69,77.69,77.65,77.60,77.60,77.58,77.52,77.37,77.30,77.25,77.22,77.26,77.31,77.35,77.40,77.51,77.57,77.62,77.57,77.45,77.41,77.28,77.20,77.20,77.34,77.34,77.30,77.27,77.29,77.44,77.52,77.57,77.59,77.62,77.57,77.56,77.58,77.60,77.64,77.68,77.71,77.72,77.75,77.83,77.91,78.03,78.27,78.48,78.71,78.97,79.27,79.62,80.28,80.88,81.37,82.03,82.69,83.36,84.01,84.65,85.39,86.07,86.59,86.90,86.90,86.90,86.90,86.90,86.89,86.86,86.83,86.79,86.76,86.78,86.82,86.84,86.83,86.83,86.82,86.81,86.80,86.75,86.67,86.61,86.55,86.48,86.37,86.37,86.33,86.28,86.30,86.33,86.32,86.28,86.25,86.26,86.27,86.25,86.18,86.14,86.07,86.05,86.06,86.06,86.00,85.96,85.93,85.91,85.97,86.03,86.07,86.08,86.05,86.03,86.04,86.04,85.98,85.91,85.84,85.80,85.81,85.85,85.87,85.87,85.88,85.94,85.99,86.00,86.00,86.00,86.00,85.99,85.99,85.98,85.98,85.99,85.98,85.94,85.90,85.90,85.89,85.86,85.82,85.79,85.77,85.77
79.77,79.78,79.77,79.73,79.68,79.64,79.59,79.57,79.53,79.46,79.37,79.26,79.22,79.20,79.18,79.14,79.11,79.11,79.11,79.12,79.12,79.11,79.10,79.09,79.10,79.10,79.09,79.08,79.06,79.05,79.04,79.03,78.99,78.90,78.81,78.75,78.71,78.69,78.70,78.69,78.68,78.69,78.70,78.70,78.69,78.70,78.73,78.67,78.59,78.53,78.50,78.50,78.52,78.54,78.56,78.58,78.60,78.60,78.57,78.53,78.49,78.48,78.47,78.46,78.33,78.23,78.19,78.19,78.20,78.23,78.24,78.22,78.17,78.16,78.20,78.27,78.34,78.36,78.35,78.32,78.27,78.22,78.16,78.12,78.13,78.17,78.20,78.19,78.15,78.08,77.95,77.86,77.82,77.80,77.80,77.75,77.77,77.82,77.88,77.90,77.90,77.86,77.82,77.81,77.78,77.84,77.86,77.81,77.73,77.72,77.73,77.74,77.71,77.66,77.66,77.65,77.59,77.42,77.33,77.26,77.23,77.31,77.38,77.40,77.41,77.43,77.49,77.56,77.55,77.44,77.41,77.28,77.18,77.17,77.31,77.33,77.30,77.27,77.26,77.35,77.46,77.51,77.52,77.55,77.49,77.49,77.52,77.52,77.60,77.65,77.69,77.70,77.74,77.82,77.88,77.98,78.19,78.42,78.65,78.90,79.17,79.38,80.11,80.72,81.11,81.77,82.43,83.08,83.70,84.29,84.97,85.65,86.28,86.80,86.89,86.90,86.90,86.89,86.87,86.83,86.79,86.76,86.75,86.80,86.84,86.87,86.87,86.82,86.82,86.83,86.82,86.78,86.66,86.57,86.52,86.48,86.39,86.39,86.37,86.31,86.31,86.36,86.34,86.29,86.25,86.23,86.24,86.24,86.18,86.14,86.05,86.03,86.05,86.07,86.03,86.01,85.99,85.95,85.98,86.02,86.07,86.10,86.08,86.06,86.06,86.04,85.96,85.86,85.79,85.77,85.83,85.90,85.89,85.86,85.86,85.91,85.98,86.00,86.00,86.00,86.00,86.00,85.99,85.99,85.98,85.98,85.96,85.93,85.89,85.88,85.86,85.83,85.79,85.79,85.79,85.80
79.74,79.77,79.78,79.73,79.68,79.62,79.58,79.54,79.49,79.43,79.35,79.26,79.23,79.23,79.23,79.20,79.14,79.12,79.13,79.16,79.17,79.13,79.09,79.08,79.10,79.10,79.09,79.07,79.03,79.00,78.97,78.96,78.95,78.90,78.82,78.75,78.71,78.70,78.72,78.72,78.74,78.76,78.77,78.75,78.75,78.75,78.75,78.67,78.58,78.52,78.50,78.50,78.53,78.57,78.60,78.62,78.66,78.65,78.61,78.57,78.55,78.55,78.56,78.55,78.36,78.21,78.16,78.18,78.20,78.24,78.26,78.25,78.21,78.20,78.19,78.23,78.30,78.37,78.36,78.33,78.29,78.23,78.18,78.14,78.14,78.17,78.20,78.23,78.21,78.16,78.06,77.94,77.86,77.81,77.80,77.78,77.79,77.83,77.88,77.90,77.90,77.86,77.83,77.85,77.82,77.88,77.92,77.88,77.84,77.80,77.79,77.79,77.77,77.75,77.72,77.69,77.65,77.43,77.30,77.23,77.23,77.35,77.39,77.38,77.34,77.29,77.34,77.44,77.48,77.42,77.40,77.28,77.17,77.15,77.28,77.30,77.33,77.34,77.29,77.26,77.40,77.47,77.44,77.44,77.42,77.45,77.50,77.51,77.58,77.61,77.65,77.71,77.77,77.81,77.85,77.95,78.11,78.34,78.57,78.81,79.04,79.15,79.94,80.53,80.82,81.51,82.20,82.85,83.49,84.15,84.67,85.23,85.87,86.54,86.85,86.90,86.90,86.88,86.81,86.80,86.76,86.74,86.80,86.86,86.84,86.84,86.88,86.81,86.81,86.84,86.85,86.78,86.69,86.58,86.50,86.50,86.48,86.47,86.43,86.36,86.32,86.37,86.38,86.37,86.34,86.23,86.21,86.20,86.16,86.10,86.05,86.05,86.07,86.04,86.08,86.09,86.08,86.08,86.09,86.09,86.10,86.11,86.11,86.10,86.08,86.04,85.95,85.84,85.82,85.86,85.92,85.96,85.92,85.88,85.87,85.87,85.96,85.99,86.00,86.00,86.00,85.99,85.98,85.95,85.93,85.94,85.92,85.89,85.85,85.83,85.82,85.80,85.77,85.76,85.77,85.78
79.70,79.73,79.75,79.71,79.68,79.65,79.63,79.62,79.56,79.48,79.38,79.30,79.26,79.26,79.26,79.23,79.16,79.14,79.16,79.21,79.22,79.16,79.10,79.06,79.08,79.10,79.09,79.08,79.05,79.01,78.97,78.94,78.92,78.88,78.82,78.78,78.75,78.75,78.76,78.76,78.77,78.79,78.79,78.80,78.80,78.79,78.75,78.65,78.56,78.51,78.50,78.50,78.53,78.57,78.61,78.64,78.70,78.70,78.67,78.61,78.59,78.59,78.61,78.58,78.38,78.21,78.13,78.12,78.14,78.22,78.27,78.27,78.23,78.18,78.14,78.15,78.23,78.32,78.32,78.32,78.29,78.23,78.20,78.17,78.16,78.15,78.15,78.22,78.25,78.23,78.16,78.03,77.93,77.86,77.81,77.79,77.80,77.83,77.88,77.90,77.90,77.86,77.85,77.90,77.85,77.88,77.91,77.89,77.85,77.84,77.83,77.81,77.79,77.75,77.74,77.74,77.72,77.55,77.41,77.35,77.37,77.47,77.44,77.40,77.36,77.30,77.41,77.47,77.47,77.41,77.36,77.26,77.17,77.13,77.23,77.28,77.34,77.35,77.30,77.23,77.31,77.37,77.37,77.40,77.43,77.47,77.50,77.50,77.57,77.60,77.64,77.71,77.78,77.80,77.85,77.92,78.00,78.20,78.40,78.58,78.74,78.88,79.69,80.29,80.57,81.27,81.93,82.59,83.26,83.94,84.50,85.06,85.64,86.25,86.71,86.85,86.86,86.83,86.80,86.80,86.79,86.79,86.86,86.90,86.85,86.83,86.88,86.80,86.78,86.80,86.82,86.75,86.70,86.62,86.54,86.51,86.51,86.49,86.45,86.38,86.33,86.35,86.34,86.32,86.31,86.23,86.21,86.20,86.17,86.15,86.10,86.08,86.08,86.07,86.09,86.09,86.09,86.11,86.14,86.13,86.13,86.13,86.13,86.10,86.08,86.03,85.96,85.87,85.87,85.91,85.96,85.96,85.92,85.90,85.89,85.88,85.91,85.95,85.99,86.00,86.00,85.98,85.95,85.92,85.90,85.88,85.87,85.86,85.84,85.82,85.82,85.81,85.79,85.79,85.77,85.76
79.66,79.70,79.72,79.71,79.69,79.69,79.71,79.72,79.64,79.54,79.43,79.33,79.29,79.29,79.29,79.26,79.18,79.16,79.19,79.25,79.26,79.19,79.11,79.06,79.07,79.09,79.10,79.10,79.09,79.05,78.99,78.94,78.90,78.86,78.82,78.80,78.80,78.80,78.80,78.79,78.79,78.80,78.79,78.81,78.82,78.80,78.74,78.63,78.54,78.50,78.50,78.51,78.54,78.58,78.61,78.66,78.73,78.75,78.72,78.65,78.61,78.62,78.64,78.60,78.39,78.22,78.11,78.08,78.11,78.21,78.27,78.28,78.22,78.15,78.08,78.08,78.15,78.25,78.28,78.29,78.27,78.21,78.18,78.17,78.15,78.11,78.09,78.18,78.25,78.27,78.23,78.10,77.99,77.90,77.83,77.80,77.80,77.83,77.87,77.89,77.89,77.86,77.86,77.94,77.86,77.86,77.88,77.89,77.83,77.86,77.85,77.81,77.79,77.73,77.74,77.77,77.78,77.67,77.54,77.49,77.52,77.58,77.49,77.43,77.40,77.35,77.49,77.51,77.46,77.39,77.32,77.24,77.16,77.11,77.19,77.26,77.33,77.35,77.30,77.23,77.23,77.26,77.31,77.38,77.45,77.48,77.50,77.50,77.57,77.61,77.65,77.72,77.79,77.80,77.84,77.90,77.89,78.06,78.20,78.32,78.45,78.65,79.42,80.01,80.32,81.01,81.65,82.32,83.01,83.69,84.33,84.92,85.46,85.99,86.55,86.77,86.81,86.77,86.79,86.81,86.82,86.84,86.89,86.91,86.83,86.81,86.86,86.80,86.76,86.76,86.77,86.73,86.72,86.66,86.59,86.54,86.52,86.50,86.46,86.40,86.33,86.32,86.29,86.27,86.26,86.25,86.24,86.22,86.20,86.22,86.17,86.13,86.11,86.11,86.09,86.08,86.08,86.12,86.17,86.15,86.14,86.15,86.14,86.10,86.06,86.02,85.96,85.91,85.92,85.95,85.98,85.94,85.91,85.91,85.91,85.91,85.86,85.91,85.97,86.00,85.99,85.95,85.92,85.89,85.87,85.84,85.84,85.85,85.83,85.81,85.82,85.82,85.82,85.83,85.78,85.74
79.66,79.70,79.73,79.76,79.76,79.77,79.80,79.82,79.72,79.58,79.43,79.33,79.27,79.28,79.29,79.26,79.20,79.21,79.24,79.28,79.26,79.19,79.13,79.09,79.09,79.10,79.10,79.10,79.10,79.08,79.05,79.01,78.96,78.90,78.83,78.82,78.85,78.87,78.84,78.81,78.80,78.79,78.77,78.75,78.74,78.72,78.67,78.59,78.54,78.51,78.51,78.55,78.61,78.63,78.62,78.67,78.76,78.79,78.77,78.71,78.63,78.60,78.59,78.56,78.40,78.26,78.18,78.17,78.24,78.28,78.29,78.25,78.18,78.11,78.06,78.05,78.09,78.17,78.23,78.24,78.20,78.13,78.07,78.04,78.02,78.01,78.01,78.07,78.15,78.21,78.20,78.11,78.01,77.91,77.83,77.80,77.82,77.84,77.86,77.83,77.85,77.85,77.86,77.89,77.83,77.81,77.83,77.89,77.85,77.83,77.82,77.79,77.74,77.70,77.69,77.71,77.74,77.70,77.65,77.61,77.59,77.58,77.51,77.48,77.47,77.44,77.43,77.41,77.40,77.37,77.32,77.24,77.15,77.09,77.18,77.26,77.32,77.33,77.30,77.24,77.17,77.17,77.26,77.38,77.41,77.45,77.49,77.50,77.57,77.64,77.69,77.74,77.79,77.80,77.84,77.89,77.87,77.91,77.98,78.10,78.33,78.61,79.15,79.63,80.04,80.70,81.35,82.03,82.71,83.35,84.03,84.66,85.26,85.87,86.40,86.63,86.70,86.70,86.77,86.80,86.81,86.82,86.82,86.79,86.73,86.73,86.79,86.80,86.81,86.79,86.76,86.75,86.74,86.68,86.61,86.57,86.54,86.51,86.46,86.41,86.34,86.31,86.28,86.26,86.27,86.31,86.31,86.30,86.27,86.27,86.24,86.20,86.17,86.13,86.10,86.07,86.06,86.09,86.14,86.14,86.12,86.10,86.07,86.05,86.02,85.98,85.94,85.92,85.94,85.95,85.94,85.91,85.90,85.91,85.93,85.95,85.88,85.89,85.94,86.00,85.98,85.93,85.90,85.88,85.85,85.85,85.87,85.86,85.83,85.77,85.77,85.79,85.82,85.84,85.82,85.78
79.64,79.69,79.74,79.81,79.82,79.83,79.86,79.87,79.75,79.60,79.44,79.34,79.26,79.26,79.27,79.23,79.21,79.23,79.27,79.30,79.28,79.24,79.20,79.18,79.17,79.14,79.11,79.10,79.10,79.10,79.09,79.07,79.03,78.97,78.86,78.82,78.83,78.86,78.84,78.82,78.81,78.79,78.76,78.76,78.76,78.74,78.68,78.64,78.62,78.60,78.60,78.64,78.71,78.72,78.71,78.74,78.81,78.82,78.77,78.65,78.52,78.45,78.42,78.39,78.27,78.18,78.13,78.14,78.17,78.21,78.20,78.17,78.11,78.06,78.00,77.99,78.02,78.10,78.14,78.13,78.09,78.02,77.96,77.92,77.90,77.88,77.90,77.95,78.02,78.08,78.09,78.04,77.96,77.86,77.79,77.78,77.79,77.80,77.79,77.76,77.78,77.79,77.80,77.81,77.77,77.75,77.76,77.79,77.76,77.73,77.71,77.69,77.63,77.61,77.61,77.62,77.67,77.65,77.62,77.56,77.51,77.52,77.47,77.47,77.48,77.44,77.36,77.33,77.33,77.34,77.31,77.23,77.13,77.08,77.18,77.26,77.31,77.32,77.30,77.27,77.16,77.13,77.20,77.35,77.39,77.43,77.48,77.50,77.57,77.65,77.71,77.76,77.80,77.80,77.83,77.87,77.84,77.84,77.86,77.96,78.21,78.52,78.98,79.37,79.72,80.27,80.91,81.58,82.26,82.88,83.57,84.21,84.82,85.40,85.98,86.36,86.54,86.58,86.68,86.73,86.73,86.71,86.71,86.68,86.66,86.70,86.81,86.83,86.83,86.80,86.75,86.73,86.72,86.67,86.60,86.56,86.53,86.50,86.45,86.38,86.33,86.30,86.30,86.30,86.31,86.36,86.35,86.33,86.32,86.30,86.30,86.27,86.22,86.18,86.11,86.06,86.04,86.05,86.09,86.11,86.11,86.07,86.03,86.01,85.98,85.95,85.93,85.94,85.94,85.93,85.92,85.90,85.90,85.91,85.92,85.93,85.86,85.85,85.89,85.94,85.95,85.92,85.90,85.88,85.86,85.88,85.88,85.87,85.83,85.74,85.73,85.75,85.79,85.82,85.81,85.79
79.62,79.67,79.76,79.86,79.88,79.88,79.90,79.89,79.75,79.60,79.45,79.34,79.26,79.24,79.23,79.19,79.20,79.24,79.28,79.32,79.31,79.31,79.32,79.31,79.28,79.20,79.13,79.10,79.10,79.11,79.12,79.12,79.11,79.05,78.92,78.82,78.77,78.79,78.81,78.82,78.82,78.80,78.77,78.82,78.83,78.81,78.74,78.74,78.75,78.75,78.74,78.77,78.82,78.85,78.85,78.84,78.86,78.84,78.73,78.52,78.32,78.23,78.19,78.15,78.04,78.01,78.01,78.01,77.99,78.03,78.05,78.04,78.03,77.99,77.93,77.91,77.95,78.02,78.01,77.99,77.95,77.90,77.84,77.81,77.77,77.75,77.78,77.84,77.88,77.90,77.92,77.91,77.86,77.78,77.73,77.74,77.73,77.71,77.70,77.70,77.70,77.70,77.70,77.71,77.70,77.68,77.66,77.64,77.61,77.58,77.56,77.53,77.47,77.48,77.49,77.52,77.57,77.56,77.50,77.41,77.33,77.41,77.38,77.42,77.44,77.37,77.28,77.25,77.26,77.29,77.30,77.21,77.12,77.08,77.18,77.26,77.32,77.33,77.30,77.30,77.20,77.12,77.13,77.30,77.37,77.42,77.45,77.50,77.57,77.65,77.72,77.79,77.80,77.80,77.82,77.83,77.80,77.80,77.80,77.88,78.09,78.40,78.87,79.20,79.38,79.77,80.36,81.03,81.70,82.32,83.01,83.65,84.21,84.72,85.39,86.01,86.33,86.42,86.56,86.61,86.59,86.56,86.56,86.56,86.60,86.72,86.88,86.87,86.84,86.79,86.75,86.70,86.69,86.63,86.57,86.52,86.50,86.49,86.41,86.32,86.30,86.30,86.34,86.38,86.38,86.39,86.35,86.34,86.35,86.32,86.35,86.33,86.29,86.24,86.12,86.05,86.01,86.00,86.04,86.08,86.09,86.07,86.00,85.99,85.95,85.91,85.92,85.96,85.93,85.91,85.90,85.90,85.90,85.90,85.90,85.88,85.83,85.81,85.82,85.85,85.90,85.90,85.90,85.90,85.89,85.90,85.90,85.88,85.83,85.73,85.70,85.71,85.74,85.77,85.76,85.77
79.63,79.67,79.73,79.79,79.75,79.71,79.72,79.70,79.62,79.55,79.48,79.37,79.29,79.27,79.26,79.23,79.23,79.28,79.34,79.37,79.36,79.35,79.37,79.38,79.34,79.25,79.17,79.11,79.10,79.13,79.16,79.17,79.15,79.09,78.94,78.80,78.73,78.75,78.79,78.83,78.82,78.78,78.73,78.76,78.80,78.80,78.75,78.75,78.77,78.80,78.79,78.76,78.75,78.74,78.73,78.71,78.72,78.67,78.52,78.25,78.10,78.05,78.01,77.97,77.89,77.87,77.86,77.84,77.82,77.86,77.89,77.91,77.93,77.93,77.90,77.89,77.91,77.96,77.92,77.89,77.87,77.84,77.81,77.77,77.75,77.74,77.76,77.77,77.78,77.79,77.83,77.84,77.79,77.74,77.72,77.72,77.73,77.74,77.73,77.68,77.66,77.66,77.65,77.65,77.67,77.64,77.59,77.57,77.53,77.55,77.54,77.51,77.48,77.45,77.42,77.38,77.34,77.32,77.29,77.24,77.21,77.29,77.26,77.28,77.32,77.28,77.23,77.20,77.18,77.20,77.24,77.20,77.13,77.10,77.18,77.26,77.30,77.31,77.30,77.30,77.25,77.20,77.16,77.20,77.27,77.32,77.39,77.50,77.57,77.65,77.72,77.79,77.80,77.83,77.86,77.86,77.80,77.80,77.83,77.88,78.01,78.48,78.84,79.03,79.10,79.26,79.72,80.33,81.00,81.62,82.27,82.79,83.22,83.61,84.34,85.02,85.53,85.92,86.28,86.40,86.42,86.40,86.42,86.51,86.66,86.82,86.94,86.89,86.88,86.85,86.78,86.64,86.63,86.57,86.50,86.45,86.49,86.50,86.47,86.43,86.43,86.43,86.44,86.45,86.44,86.40,86.38,86.38,86.38,86.37,86.38,86.37,86.33,86.27,86.17,86.10,86.07,86.07,86.08,86.09,86.09,86.07,86.00,85.99,85.97,85.94,85.90,85.92,85.91,85.90,85.89,85.89,85.90,85.90,85.90,85.89,85.86,85.82,85.81,85.82,85.82,85.81,85.82,85.86,85.89,85.89,85.90,85.89,85.85,85.76,85.72,85.71,85.74,85.77,85.76,85.75
79.61,79.64,79.68,79.69,79.63,79.57,79.58,79.56,79.52,79.50,79.48,79.40,79.33,79.31,79.30,79.28,79.26,79.30,79.35,79.36,79.34,79.34,79.36,79.37,79.34,79.27,79.18,79.12,79.10,79.13,79.18,79.19,79.16,79.08,78.93,78.79,78.72,78.74,78.79,78.83,78.82,78.77,78.72,78.74,78.76,78.76,78.72,78.72,78.75,78.78,78.77,78.69,78.64,78.60,78.58,78.58,78.60,78.54,78.38,78.13,78.00,77.95,77.92,77.87,77.82,77.82,77.81,77.78,77.77,77.79,77.82,77.85,77.88,77.90,77.89,77.89,77.90,77.91,77.88,77.85,77.84,77.83,77.81,77.79,77.78,77.77,77.77,77.76,77.76,77.77,77.81,77.82,77.78,77.74,77.75,77.74,77.75,77.78,77.78,77.71,77.68,77.67,77.66,77.64,77.67,77.63,77.59,77.57,77.54,77.55,77.53,77.49,77.49,77.45,77.40,77.32,77.24,77.20,77.18,77.15,77.14,77.21,77.17,77.19,77.22,77.20,77.18,77.16,77.14,77.12,77.19,77.17,77.12,77.09,77.17,77.24,77.28,77.30,77.30,77.32,77.32,77.28,77.21,77.16,77.19,77.24,77.32,77.46,77.56,77.63,77.71,77.79,77.78,77.81,77.85,77.85,77.80,77.80,77.84,77.88,77.92,78.51,78.76,78.84,78.85,78.86,79.12,79.64,80.28,80.85,81.41,81.83,82.15,82.48,83.27,83.98,84.67,85.33,85.93,86.13,86.22,86.26,86.32,86.46,86.65,86.82,86.92,86.88,86.87,86.85,86.78,86.62,86.60,86.55,86.50,86.46,86.52,86.54,86.54,86.53,86.52,86.51,86.49,86.49,86.48,86.44,86.43,86.42,86.40,86.39,86.38,86.36,86.33,86.26,86.18,86.12,86.09,86.07,86.08,86.09,86.09,86.07,86.00,86.00,85.97,85.93,85.88,85.89,85.89,85.88,85.87,85.87,85.89,85.89,85.90,85.90,85.88,85.83,85.81,85.81,85.78,85.76,85.78,85.82,85.86,85.87,85.88,85.88,85.86,85.78,85.72,85.70,85.72,85.74,85.73,85.72
79.56,79.58,79.60,79.57,79.50,79.47,79.48,79.48,79.44,79.44,79.46,79.43,79.37,79.37,79.38,79.34,79.30,79.28,79.28,79.28,79.26,79.25,79.27,79.27,79.24,79.22,79.16,79.11,79.10,79.13,79.18,79.18,79.13,79.01,78.88,78.79,78.76,78.77,78.81,78.83,78.82,78.79,78.76,78.75,78.73,78.70,78.66,78.63,78.66,78.68,78.66,78.55,78.46,78.41,78.40,78.45,78.50,78.46,78.35,78.18,78.06,77.98,77.92,77.88,77.86,77.89,77.90,77.90,77.87,77.86,77.86,77.88,77.89,77.90,77.90,77.90,77.90,77.90,77.89,77.88,77.88,77.88,77.88,77.88,77.87,77.87,77.83,77.83,77.85,77.87,77.88,77.88,77.84,77.82,77.84,77.81,77.80,77.82,77.84,77.80,77.77,77.76,77.75,77.71,77.70,77.69,77.68,77.67,77.66,77.59,77.53,77.50,77.50,77.49,77.45,77.38,77.30,77.23,77.20,77.17,77.13,77.18,77.14,77.16,77.17,77.13,77.11,77.15,77.13,77.06,77.16,77.14,77.07,77.05,77.17,77.20,77.25,77.29,77.31,77.37,77.38,77.35,77.28,77.20,77.14,77.16,77.25,77.40,77.55,77.61,77.67,77.77,77.73,77.73,77.76,77.81,77.80,77.80,77.84,77.86,77.85,78.47,78.62,78.62,78.62,78.62,78.60,78.97,79.53,79.99,80.40,80.72,81.00,81.34,82.16,82.87,83.70,84.63,85.49,85.81,85.98,86.11,86.28,86.39,86.54,86.69,86.80,86.81,86.80,86.77,86.72,86.68,86.62,86.60,86.58,86.54,86.61,86.65,86.64,86.58,86.56,86.52,86.48,86.47,86.50,86.49,86.48,86.46,86.41,86.37,86.33,86.30,86.27,86.22,86.12,86.09,86.06,86.01,86.03,86.06,86.08,86.07,86.00,85.99,85.94,85.88,85.85,85.88,85.88,85.85,85.81,85.83,85.86,85.88,85.89,85.90,85.88,85.84,85.82,85.83,85.79,85.78,85.78,85.77,85.79,85.82,85.85,85.86,85.84,85.78,85.72,85.68,85.67,85.66,85.66,85.69
79.40,79.45,79.46,79.42,79.37,79.35,79.34,79.30,79.31,79.33,79.34,79.33,79.30,79.30,79.30,79.28,79.24,79.21,79.21,79.23,79.22,79.23,79.24,79.24,79.20,79.19,79.14,79.11,79.10,79.13,79.18,79.18,79.13,79.03,78.91,78.83,78.79,78.81,78.85,78.82,78.77,78.72,78.71,78.68,78.67,78.67,78.65,78.64,78.63,78.61,78.54,78.44,78.39,78.37,78.38,78.39,78.41,78.41,78.36,78.24,78.13,78.04,77.97,77.92,77.89,77.90,77.91,77.91,77.90,77.88,77.89,77.89,77.90,77.90,77.90,77.90,77.89,77.87,77.87,77.88,77.90,77.90,77.90,77.90,77.90,77.89,77.86,77.87,77.87,77.85,77.84,77.87,77.85,77.83,77.85,77.79,77.78,77.78,77.77,77.72,77.69,77.66,77.64,77.63,77.58,77.55,77.55,77.57,77.58,77.52,77.47,77.46,77.49,77.48,77.45,77.40,77.32,77.24,77.21,77.21,77.21,77.24,77.20,77.21,77.22,77.18,77.20,77.20,77.16,77.08,77.13,77.11,77.06,77.04,77.16,77.20,77.25,77.29,77.30,77.36,77.35,77.30,77.22,77.13,77.10,77.11,77.18,77.35,77.50,77.59,77.66,77.74,77.76,77.76,77.78,77.80,77.80,77.79,77.79,77.78,77.79,78.14,78.36,78.45,78.45,78.45,78.38,78.53,78.84,79.16,79.48,79.73,79.95,80.26,81.08,81.90,82.83,83.81,84.74,85.37,85.74,85.97,86.18,86.30,86.44,86.57,86.68,86.75,86.78,86.78,86.75,86.72,86.66,86.65,86.65,86.63,86.66,86.67,86.64,86.59,86.56,86.56,86.54,86.52,86.51,86.48,86.47,86.44,86.39,86.34,86.30,86.26,86.21,86.15,86.11,86.10,86.08,86.02,86.01,86.02,86.05,86.07,86.00,85.99,85.94,85.88,85.87,85.87,85.87,85.84,85.80,85.81,85.83,85.84,85.85,85.86,85.83,85.80,85.78,85.77,85.73,85.75,85.77,85.76,85.78,85.83,85.85,85.84,85.82,85.78,85.71,85.65,85.62,85.60,85.62,85.67
79.27,79.34,79.34,79.29,79.26,79.25,79.24,79.15,79.20,79.23,79.24,79.24,79.23,79.23,79.22,79.22,79.19,79.17,79.18,79.21,79.21,79.22,79.23,79.23,79.19,79.17,79.13,79.11,79.12,79.14,79.18,79.18,79.14,79.07,78.96,78.86,78.81,78.83,78.87,78.80,78.70,78.63,78.61,78.56,78.57,78.61,78.63,78.62,78.59,78.52,78.43,78.37,78.36,78.38,78.40,78.36,78.36,78.38,78.37,78.28,78.18,78.10,78.02,77.95,77.91,77.90,77.90,77.90,77.90,77.90,77.90,77.90,77.90,77.90,77.90,77.89,77.88,77.83,77.85,77.88,77.90,77.90,77.90,77.90,77.90,77.89,77.88,77.89,77.86,77.82,77.80,77.85,77.83,77.81,77.82,77.75,77.73,77.71,77.68,77.62,77.58,77.53,77.51,77.54,77.47,77.42,77.42,77.45,77.48,77.44,77.42,77.43,77.50,77.49,77.47,77.43,77.33,77.25,77.23,77.25,77.29,77.30,77.26,77.27,77.28,77.25,77.28,77.25,77.19,77.12,77.10,77.07,77.03,77.03,77.13,77.19,77.25,77.28,77.29,77.33,77.29,77.23,77.16,77.06,77.09,77.08,77.12,77.30,77.43,77.54,77.63,77.70,77.81,77.80,77.79,77.78,77.78,77.76,77.73,77.71,77.75,77.84,78.10,78.27,78.29,78.29,78.23,78.22,78.29,78.48,78.72,78.90,79.06,79.31,80.06,80.99,81.99,82.99,83.95,84.82,85.37,85.71,85.98,86.19,86.34,86.46,86.57,86.69,86.76,86.79,86.78,86.75,86.72,86.71,86.71,86.70,86.69,86.67,86.63,86.59,86.56,86.59,86.59,86.57,86.52,86.46,86.44,86.41,86.37,86.31,86.29,86.23,86.16,86.11,86.11,86.13,86.10,86.03,86.00,85.99,86.02,86.06,86.00,85.99,85.95,85.90,85.89,85.88,85.87,85.85,85.81,85.80,85.80,85.80,85.80,85.80,85.77,85.75,85.73,85.70,85.68,85.72,85.75,85.76,85.79,85.84,85.85,85.82,85.79,85.77,85.70,85.64,85.60,85.58,85.61,85.66
79.27,79.32,79.32,79.22,79.19,79.21,79.27,79.23,79.23,79.25,79.28,79.28,79.27,79.26,79.24,79.23,79.25,79.25,79.26,79.27,79.26,79.23,79.21,79.21,79.19,79.16,79.15,79.17,79.21,79.18,79.18,79.18,79.16,79.11,79.00,78.90,78.82,78.78,78.77,78.70,78.62,78.52,78.40,78.30,78.32,78.43,78.53,78.51,78.46,78.41,78.37,78.37,78.38,78.40,78.41,78.40,78.39,78.39,78.36,78.29,78.21,78.15,78.06,77.96,77.91,77.90,77.90,77.90,77.90,77.90,77.90,77.90,77.90,77.89,77.88,77.86,77.84,77.81,77.83,77.87,77.89,77.88,77.88,77.88,77.88,77.87,77.84,77.85,77.84,77.82,77.80,77.82,77.79,77.75,77.71,77.67,77.65,77.63,77.60,77.58,77.51,77.45,77.44,77.47,77.45,77.41,77.39,77.41,77.43,77.43,77.43,77.45,77.54,77.56,77.57,77.51,77.38,77.28,77.27,77.28,77.30,77.30,77.29,77.29,77.29,77.29,77.30,77.27,77.22,77.15,77.11,77.01,76.96,76.98,77.06,77.16,77.21,77.23,77.25,77.25,77.21,77.18,77.15,77.13,77.13,77.10,77.09,77.18,77.30,77.41,77.53,77.67,77.81,77.78,77.74,77.71,77.71,77.69,77.69,77.72,77.79,77.85,77.93,78.04,78.14,78.14,78.10,78.10,78.16,78.27,78.39,78.54,78.64,78.72,79.24,80.19,81.23,82.26,83.25,84.04,84.62,85.09,85.54,85.98,86.24,86.39,86.50,86.62,86.72,86.77,86.80,86.79,86.78,86.76,86.73,86.70,86.70,86.68,86.66,86.63,86.59,86.59,86.57,86.54,86.51,86.43,86.40,86.37,86.32,86.30,86.29,86.24,86.18,86.15,86.14,86.15,86.12,86.02,86.01,86.02,86.03,86.03,86.00,85.99,85.97,85.93,85.90,85.89,85.89,85.87,85.84,85.80,85.80,85.79,85.75,85.70,85.71,85.71,85.70,85.69,85.69,85.71,85.73,85.76,85.82,85.85,85.84,85.81,85.77,85.73,85.70,85.68,85.68,85.71,85.70,85.66
79.24,79.23,79.23,79.16,79.14,79.16,79.21,79.20,79.21,79.23,79.25,79.25,79.25,79.24,79.22,79.20,79.22,79.22,79.23,79.26,79.27,79.25,79.22,79.20,79.17,79.14,79.14,79.17,79.19,79.15,79.15,79.15,79.15,79.10,78.98,78.86,78.77,78.71,78.68,78.62,78.54,78.43,78.32,78.25,78.28,78.37,78.47,78.49,78.44,78.39,78.36,78.40,78.44,78.45,78.45,78.43,78.40,78.38,78.34,78.28,78.22,78.15,78.06,77.95,77.90,77.88,77.88,77.88,77.88,77.88,77.88,77.88,77.88,77.86,77.85,77.83,77.81,77.80,77.82,77.84,77.86,77.86,77.84,77.84,77.84,77.84,77.82,77.80,77.78,77.76,77.75,77.75,77.71,77.65,77.60,77.57,77.57,77.55,77.53,77.53,77.48,77.43,77.42,77.44,77.46,77.40,77.35,77.36,77.39,77.42,77.44,77.48,77.59,77.62,77.62,77.56,77.43,77.34,77.31,77.30,77.30,77.30,77.30,77.30,77.29,77.28,77.25,77.25,77.22,77.17,77.12,77.00,76.94,76.94,76.99,77.10,77.15,77.17,77.19,77.17,77.16,77.16,77.17,77.14,77.16,77.14,77.11,77.10,77.22,77.35,77.47,77.60,77.76,77.75,77.70,77.65,77.63,77.63,77.68,77.75,77.81,77.89,77.89,77.93,78.02,78.02,78.02,78.04,78.08,78.17,78.27,78.39,78.47,78.50,78.75,79.58,80.57,81.60,82.59,83.21,83.75,84.30,84.89,85.59,85.96,86.20,86.40,86.56,86.66,86.74,86.80,86.80,86.80,86.81,86.78,86.73,86.70,86.69,86.69,86.68,86.60,86.59,86.53,86.48,86.46,86.38,86.35,86.33,86.29,86.26,86.25,86.21,86.16,86.17,86.13,86.12,86.11,86.08,86.04,86.02,86.00,85.98,86.00,85.99,85.96,85.93,85.90,85.89,85.87,85.85,85.84,85.83,85.81,85.78,85.74,85.68,85.69,85.70,85.70,85.69,85.69,85.70,85.72,85.75,85.81,85.83,85.82,85.78,85.74,85.72,85.70,85.71,85.73,85.77,85.76,85.72
79.19,79.11,79.10,79.10,79.10,79.10,79.10,79.12,79.16,79.19,79.20,79.20,79.19,79.18,79.17,79.16,79.14,79.13,79.15,79.21,79.27,79.28,79.25,79.19,79.14,79.11,79.11,79.13,79.14,79.10,79.10,79.11,79.11,79.06,78.91,78.78,78.69,78.63,78.60,78.54,78.46,78.36,78.32,78.31,78.33,78.38,78.45,78.51,78.48,78.42,78.36,78.43,78.49,78.51,78.49,78.45,78.39,78.34,78.30,78.26,78.21,78.12,78.02,77.93,77.88,77.86,77.85,77.85,77.85,77.85,77.85,77.85,77.85,77.82,77.81,77.80,77.80,77.80,77.80,77.81,77.83,77.82,77.80,77.80,77.80,77.80,77.80,77.74,77.70,77.68,77.68,77.66,77.60,77.54,77.49,77.46,77.49,77.49,77.47,77.48,77.47,77.45,77.43,77.44,77.48,77.39,77.31,77.32,77.36,77.40,77.45,77.51,77.62,77.66,77.64,77.58,77.49,77.41,77.34,77.31,77.30,77.30,77.30,77.30,77.28,77.24,77.18,77.20,77.22,77.20,77.13,77.02,76.95,76.91,76.92,77.04,77.09,77.11,77.12,77.10,77.14,77.17,77.19,77.13,77.17,77.18,77.14,77.04,77.17,77.31,77.43,77.53,77.68,77.70,77.66,77.59,77.53,77.58,77.69,77.78,77.81,77.94,77.91,77.89,77.92,77.92,77.97,77.99,78.02,78.11,78.25,78.36,78.43,78.47,78.45,79.07,79.97,80.97,81.94,82.33,82.81,83.42,84.14,85.08,85.59,85.95,86.27,86.49,86.59,86.70,86.80,86.80,86.81,86.85,86.85,86.77,86.71,86.71,86.73,86.73,86.60,86.57,86.49,86.40,86.38,86.32,86.30,86.29,86.27,86.21,86.19,86.16,86.14,86.18,86.11,86.06,86.09,86.17,86.09,86.02,85.96,85.94,86.00,85.99,85.94,85.90,85.90,85.87,85.83,85.80,85.82,85.86,85.82,85.78,85.75,85.70,85.70,85.70,85.70,85.70,85.70,85.70,85.71,85.74,85.78,85.79,85.78,85.75,85.71,85.71,85.71,85.72,85.75,85.79,85.82,85.81
79.19,79.11,79.07,79.09,79.10,79.10,79.10,79.11,79.12,79.15,79.16,79.16,79.15,79.14,79.12,79.12,79.13,79.13,79.14,79.17,79.25,79.27,79.25,79.19,79.14,79.11,79.10,79.11,79.11,79.08,79.06,79.04,79.03,78.98,78.82,78.72,78.65,78.59,78.55,78.50,78.43,78.36,78.33,78.33,78.34,78.36,78.38,78.43,78.42,78.38,78.33,78.35,78.36,78.37,78.36,78.36,78.34,78.31,78.26,78.20,78.13,78.07,78.00,77.93,77.86,77.83,77.82,77.82,77.82,77.82,77.82,77.82,77.82,77.81,77.80,77.80,77.80,77.80,77.80,77.81,77.81,77.81,77.80,77.80,77.78,77.73,77.73,77.67,77.62,77.61,77.63,77.62,77.57,77.52,77.48,77.47,77.49,77.48,77.45,77.47,77.49,77.48,77.47,77.48,77.49,77.40,77.34,77.35,77.42,77.42,77.43,77.46,77.54,77.66,77.67,77.60,77.50,77.39,77.33,77.30,77.30,77.30,77.30,77.28,77.24,77.21,77.19,77.23,77.24,77.21,77.18,77.10,77.00,76.94,77.01,77.11,77.16,77.15,77.11,77.10,77.11,77.15,77.18,77.12,77.17,77.16,77.12,77.08,77.08,77.21,77.35,77.45,77.60,77.63,77.60,77.54,77.51,77.62,77.72,77.77,77.74,77.88,77.86,77.83,77.85,77.90,77.92,77.87,77.83,77.91,78.06,78.19,78.30,78.35,78.35,78.70,79.43,80.34,81.06,81.41,81.90,82.60,83.51,84.52,85.15,85.64,86.06,86.29,86.44,86.61,86.76,86.81,86.82,86.85,86.83,86.73,86.72,86.73,86.72,86.66,86.53,86.48,86.42,86.37,86.31,86.27,86.26,86.29,86.33,86.27,86.22,86.18,86.17,86.21,86.17,86.15,86.16,86.17,86.10,86.04,86.01,86.01,85.99,85.98,85.92,85.86,85.82,85.78,85.76,85.75,85.76,85.81,85.79,85.75,85.70,85.65,85.64,85.63,85.63,85.62,85.63,85.64,85.66,85.69,85.73,85.75,85.75,85.76,85.78,85.79,85.79,85.79,85.79,85.80,85.81,85.80
79.19,79.10,79.07,79.09,79.10,79.10,79.10,79.10,79.10,79.11,79.12,79.13,79.12,79.11,79.10,79.10,79.11,79.13,79.14,79.16,79.24,79.26,79.24,79.19,79.15,79.12,79.11,79.10,79.10,79.07,79.02,78.97,78.92,78.82,78.71,78.64,78.59,78.53,78.50,78.46,78.42,78.36,78.33,78.33,78.34,78.34,78.34,78.36,78.37,78.36,78.33,78.31,78.32,78.31,78.30,78.29,78.28,78.26,78.22,78.16,78.08,78.02,77.97,77.91,77.84,77.81,77.80,77.80,77.80,77.80,77.80,77.79,77.78,77.79,77.80,77.80,77.80,77.80,77.79,77.79,77.79,77.78,77.79,77.80,77.77,77.71,77.68,77.61,77.56,77.56,77.59,77.60,77.56,77.51,77.49,77.49,77.49,77.48,77.45,77.48,77.48,77.48,77.49,77.50,77.50,77.43,77.38,77.40,77.46,77.45,77.43,77.43,77.49,77.63,77.63,77.56,77.48,77.37,77.31,77.28,77.28,77.29,77.30,77.27,77.22,77.20,77.20,77.24,77.25,77.23,77.21,77.13,77.01,76.92,77.01,77.11,77.15,77.14,77.08,77.07,77.07,77.10,77.15,77.11,77.15,77.14,77.11,77.10,77.03,77.12,77.24,77.36,77.50,77.55,77.53,77.49,77.51,77.64,77.72,77.72,77.66,77.76,77.76,77.76,77.78,77.85,77.86,77.80,77.75,77.80,77.93,78.05,78.16,78.23,78.23,78.40,78.94,79.65,80.08,80.44,80.99,81.79,82.83,83.88,84.69,85.36,85.90,86.15,86.36,86.58,86.77,86.86,86.84,86.85,86.81,86.72,86.73,86.72,86.68,86.61,86.49,86.45,86.40,86.34,86.27,86.27,86.27,86.31,86.37,86.33,86.28,86.25,86.25,86.25,86.22,86.21,86.20,86.18,86.13,86.07,86.04,86.02,85.96,85.96,85.91,85.84,85.79,85.75,85.74,85.74,85.74,85.78,85.77,85.73,85.69,85.65,85.62,85.61,85.60,85.59,85.60,85.61,85.63,85.66,85.71,85.73,85.74,85.77,85.82,85.85,85.86,85.85,85.83,85.82,85.81,85.80
79.18,79.09,79.08,79.10,79.10,79.10,79.10,79.10,79.09,79.07,79.07,79.10,79.10,79.10,79.10,79.10,79.11,79.11,79.13,79.18,79.25,79.23,79.21,79.20,79.19,79.15,79.12,79.10,79.10,79.07,79.00,78.89,78.74,78.58,78.55,78.52,78.48,78.43,78.45,78.45,78.42,78.35,78.31,78.30,78.30,78.30,78.30,78.31,78.33,78.35,78.35,78.34,78.36,78.36,78.32,78.26,78.23,78.21,78.19,78.15,78.07,78.00,77.92,77.85,77.81,77.80,77.80,77.80,77.80,77.80,77.80,77.78,77.75,77.76,77.79,77.80,77.80,77.80,77.76,77.75,77.76,77.75,77.76,77.78,77.78,77.72,77.65,77.58,77.53,77.52,77.57,77.59,77.56,77.52,77.50,77.50,77.50,77.50,77.49,77.50,77.45,77.45,77.48,77.50,77.50,77.46,77.43,77.46,77.48,77.48,77.46,77.43,77.47,77.56,77.52,77.45,77.40,77.34,77.28,77.24,77.24,77.28,77.29,77.26,77.22,77.21,77.22,77.22,77.24,77.27,77.22,77.10,76.95,76.85,76.89,77.02,77.08,77.07,77.02,77.01,77.01,77.04,77.08,77.10,77.11,77.10,77.10,77.10,77.04,77.03,77.09,77.24,77.36,77.46,77.47,77.45,77.52,77.63,77.67,77.63,77.56,77.55,77.61,77.67,77.72,77.78,77.78,77.79,77.79,77.80,77.88,77.94,78.01,78.10,78.08,78.19,78.52,78.90,78.99,79.41,80.09,81.00,82.07,83.14,84.21,85.13,85.79,86.09,86.37,86.62,86.82,86.95,86.90,86.84,86.79,86.75,86.75,86.66,86.61,86.57,86.48,86.50,86.42,86.31,86.27,86.33,86.34,86.36,86.39,86.41,86.38,86.39,86.39,86.32,86.26,86.24,86.22,86.20,86.18,86.11,86.04,85.97,85.92,85.93,85.89,85.85,85.83,85.80,85.79,85.77,85.76,85.79,85.76,85.75,85.74,85.71,85.66,85.64,85.62,85.60,85.60,85.61,85.63,85.67,85.71,85.74,85.75,85.78,85.83,85.90,85.92,85.91,85.87,85.85,85.84,85.82
79.20,79.09,79.09,79.10,79.10,79.10,79.10,79.10,79.09,79.09,79.08,79.10,79.10,79.10,79.10,79.10,79.10,79.09,79.10,79.13,79.21,79.20,79.17,79.15,79.14,79.11,79.07,79.06,79.06,78.99,78.85,78.71,78.61,78.57,78.57,78.55,78.51,78.47,78.48,78.48,78.45,78.38,78.29,78.27,78.29,78.30,78.29,78.29,78.31,78.32,78.33,78.35,78.41,78.42,78.34,78.23,78.21,78.20,78.19,78.14,78.04,77.97,77.90,77.84,77.78,77.75,77.76,77.77,77.79,77.79,77.78,77.75,77.71,77.72,77.75,77.78,77.79,77.79,77.75,77.73,77.72,77.71,77.71,77.72,77.72,77.69,77.64,77.57,77.53,77.52,77.56,77.58,77.55,77.51,77.49,77.48,77.49,77.50,77.50,77.49,77.44,77.45,77.47,77.49,77.48,77.45,77.42,77.40,77.43,77.44,77.43,77.42,77.46,77.50,77.48,77.44,77.41,77.37,77.33,77.31,77.32,77.32,77.31,77.28,77.25,77.24,77.25,77.26,77.27,77.27,77.24,77.10,76.95,76.84,76.86,76.97,77.03,77.03,77.00,77.00,77.00,77.01,77.04,77.05,77.04,77.04,77.05,77.07,77.05,76.99,76.99,77.07,77.24,77.38,77.43,77.43,77.51,77.58,77.58,77.53,77.47,77.44,77.49,77.58,77.65,77.73,77.73,77.76,77.80,77.80,77.86,77.85,77.84,77.84,77.81,77.83,77.97,78.13,78.09,78.49,79.11,79.98,81.09,82.24,83.43,84.57,85.53,86.03,86.32,86.56,86.77,86.93,86.88,86.83,86.77,86.73,86.72,86.66,86.61,86.59,86.55,86.55,86.47,86.37,86.32,86.37,86.42,86.45,86.46,86.50,86.47,86.45,86.44,86.37,86.35,86.32,86.28,86.24,86.22,86.15,86.08,86.00,85.94,85.91,85.87,85.84,85.83,85.81,85.80,85.79,85.80,85.83,85.82,85.81,85.81,85.79,85.73,85.71,85.68,85.64,85.61,85.63,85.65,85.66,85.65,85.66,85.70,85.77,85.83,85.90,85.92,85.92,85.89,85.86,85.84,85.81
79.22,79.09,79.10,79.10,79.10,79.10,79.10,79.10,79.10,79.10,79.10,79.10,79.10,79.10,79.10,79.10,79.08,79.06,79.05,79.08,79.16,79.15,79.12,79.09,79.08,79.04,79.00,78.99,78.98,78.87,78.69,78.55,78.52,78.60,78.62,78.59,78.56,78.52,78.52,78.52,78.48,78.40,78.28,78.26,78.27,78.29,78.28,78.28,78.29,78.29,78.30,78.34,78.43,78.44,78.34,78.21,78.20,78.20,78.19,78.14,78.02,77.94,77.89,77.84,77.75,77.71,77.71,77.74,77.78,77.78,77.75,77.71,77.68,77.68,77.71,77.74,77.75,77.75,77.72,77.70,77.68,77.66,77.65,77.65,77.64,77.63,77.61,77.57,77.53,77.51,77.53,77.55,77.54,77.50,77.47,77.46,77.47,77.49,77.49,77.48,77.44,77.44,77.47,77.47,77.46,77.43,77.40,77.36,77.38,77.39,77.39,77.39,77.43,77.44,77.45,77.44,77.42,77.41,77.37,77.37,77.39,77.36,77.33,77.31,77.29,77.27,77.30,77.31,77.30,77.28,77.26,77.12,76.95,76.83,76.84,76.94,76.99,77.00,77.00,77.00,77.00,77.00,76.99,76.98,76.95,76.96,76.99,77.03,77.02,76.96,76.91,76.93,77.11,77.27,77.35,77.38,77.46,77.50,77.48,77.43,77.39,77.36,77.41,77.49,77.58,77.67,77.68,77.73,77.79,77.79,77.83,77.79,77.70,77.60,77.56,77.49,77.48,77.49,77.41,77.76,78.27,79.04,80.16,81.39,82.63,83.93,85.17,85.88,86.21,86.47,86.71,86.88,86.83,86.80,86.77,86.71,86.71,86.68,86.64,86.61,86.60,86.59,86.53,86.45,86.40,86.42,86.49,86.53,86.54,86.57,86.53,86.51,86.48,86.42,86.43,86.39,86.34,86.28,86.26,86.19,86.11,86.04,85.96,85.91,85.87,85.84,85.83,85.81,85.80,85.80,85.82,85.88,85.88,85.87,85.87,85.86,85.81,85.78,85.74,85.68,85.64,85.66,85.67,85.65,85.60,85.59,85.65,85.75,85.84,85.90,85.92,85.91,85.90,85.87,85.83,85.80
79.22,79.07,79.12,79.10,79.10,79.10,79.10,79.10,79.10,79.10,79.10,79.10,79.10,79.10,79.10,79.08,79.04,79.01,79.01,79.04,79.08,79.07,79.06,79.05,79.03,78.96,78.89,78.84,78.82,78.70,78.56,78.51,78.55,78.63,78.66,78.63,78.59,78.58,78.57,78.55,78.50,78.41,78.29,78.27,78.28,78.27,78.24,78.24,78.26,78.27,78.27,78.32,78.38,78.37,78.29,78.21,78.20,78.20,78.18,78.13,78.01,77.94,77.88,77.81,77.73,77.70,77.68,77.69,77.73,77.75,77.73,77.68,77.64,77.64,77.65,77.66,77.66,77.65,77.65,77.66,77.65,77.61,77.56,77.56,77.56,77.55,77.55,77.55,77.52,77.48,77.47,77.52,77.51,77.47,77.43,77.42,77.43,77.46,77.48,77.47,77.43,77.44,77.46,77.44,77.42,77.41,77.40,77.39,77.40,77.38,77.35,77.33,77.35,77.39,77.40,77.42,77.43,77.41,77.40,77.41,77.43,77.40,77.37,77.36,77.36,77.32,77.37,77.37,77.35,77.32,77.33,77.18,76.97,76.80,76.80,76.93,76.99,77.00,77.00,77.00,77.00,76.98,76.94,76.89,76.85,76.87,76.92,76.95,76.92,76.89,76.88,76.89,76.98,77.09,77.17,77.22,77.30,77.37,77.40,77.39,77.35,77.38,77.40,77.43,77.47,77.57,77.62,77.68,77.74,77.74,77.79,77.79,77.67,77.46,77.41,77.25,77.16,77.18,77.27,77.52,77.83,78.44,79.51,80.73,81.90,83.22,84.60,85.49,85.97,86.37,86.67,86.83,86.76,86.77,86.79,86.76,86.76,86.72,86.68,86.65,86.60,86.60,86.57,86.55,86.53,86.54,86.57,86.60,86.61,86.54,86.56,86.56,86.53,86.47,86.47,86.42,86.38,86.34,86.28,86.21,86.13,86.06,85.98,85.92,85.89,85.87,85.86,85.81,85.79,85.78,85.80,85.93,85.91,85.89,85.89,85.89,85.88,85.86,85.82,85.74,85.69,85.69,85.68,85.66,85.60,85.60,85.64,85.72,85.86,85.94,85.93,85.90,85.90,85.87,85.82,85.80
79.26,79.12,79.14,79.11,79.10,79.10,79.10,79.10,79.10,79.10,79.10,79.10,79.10,79.10,79.09,79.08,79.02,78.98,78.97,78.99,79.00,78.97,78.96,78.97,78.95,78.89,78.82,78.76,78.73,78.61,78.52,78.49,78.53,78.59,78.61,78.58,78.54,78.52,78.50,78.47,78.43,78.37,78.28,78.26,78.25,78.25,78.22,78.22,78.23,78.23,78.24,78.25,78.28,78.28,78.24,78.20,78.19,78.18,78.16,78.10,77.99,77.93,77.86,77.78,77.69,77.66,77.65,77.65,77.68,77.71,77.69,77.65,77.61,77.62,77.62,77.63,77.62,77.62,77.62,77.64,77.63,77.60,77.55,77.53,77.51,77.49,77.50,77.52,77.51,77.47,77.44,77.49,77.48,77.45,77.41,77.40,77.42,77.46,77.49,77.50,77.47,77.46,77.46,77.47,77.45,77.44,77.43,77.43,77.41,77.38,77.35,77.33,77.33,77.38,77.43,77.46,77.47,77.45,77.46,77.48,77.50,77.48,77.46,77.46,77.46,77.44,77.47,77.47,77.42,77.35,77.37,77.22,76.98,76.78,76.79,76.92,76.99,77.00,77.00,77.00,76.98,76.95,76.91,76.87,76.82,76.83,76.86,76.88,76.82,76.83,76.85,76.88,76.86,76.90,77.01,77.14,77.22,77.27,77.30,77.32,77.32,77.35,77.36,77.36,77.38,77.44,77.53,77.59,77.64,77.67,77.77,77.82,77.72,77.47,77.31,77.15,77.08,77.11,77.25,77.41,77.57,78.01,78.97,80.22,81.30,82.56,83.99,84.95,85.55,86.06,86.49,86.76,86.72,86.76,86.79,86.78,86.75,86.72,86.70,86.68,86.64,86.65,86.66,86.65,86.61,86.59,86.60,86.61,86.62,86.56,86.58,86.59,86.56,86.50,86.49,86.46,86.42,86.38,86.33,86.24,86.15,86.08,86.03,85.96,85.92,85.90,85.88,85.85,85.82,85.81,85.84,85.93,85.91,85.90,85.89,85.88,85.86,85.83,85.78,85.70,85.71,85.70,85.68,85.66,85.62,85.64,85.66,85.74,85.88,85.92,85.90,85.88,85.88,85.85,85.81,85.79
79.32,79.20,79.17,79.12,79.10,79.10,79.10,79.10,79.10,79.10,79.10,79.09,79.09,79.09,79.09,79.07,79.01,78.95,78.93,78.94,78.90,78.86,78.85,78.87,78.87,78.82,78.77,78.73,78.68,78.58,78.52,78.50,78.49,78.51,78.53,78.49,78.44,78.41,78.38,78.34,78.32,78.31,78.26,78.23,78.22,78.21,78.20,78.20,78.20,78.20,78.19,78.17,78.17,78.18,78.20,78.20,78.18,78.15,78.12,78.06,77.97,77.91,77.84,77.75,77.66,77.63,77.61,77.61,77.65,77.67,77.66,77.63,77.61,77.61,77.62,77.63,77.63,77.63,77.62,77.63,77.64,77.61,77.58,77.54,77.50,77.46,77.47,77.49,77.49,77.47,77.43,77.47,77.46,77.43,77.40,77.40,77.43,77.47,77.50,77.54,77.52,77.48,77.46,77.52,77.51,77.50,77.49,77.48,77.43,77.40,77.38,77.36,77.32,77.41,77.49,77.53,77.52,77.49,77.53,77.56,77.58,77.57,77.57,77.57,77.57,77.57,77.58,77.58,77.50,77.36,77.38,77.24,76.99,76.77,76.78,76.92,76.98,77.00,76.99,76.99,76.94,76.91,76.90,76.89,76.83,76.81,76.81,76.81,76.74,76.76,76.82,76.86,76.75,76.72,76.87,77.08,77.18,77.19,77.20,77.23,77.29,77.29,77.29,77.29,77.29,77.29,77.42,77.48,77.51,77.59,77.75,77.85,77.80,77.57,77.27,77.15,77.11,77.14,77.29,77.37,77.41,77.69,78.47,79.77,80.74,81.94,83.36,84.35,85.03,85.66,86.23,86.67,86.69,86.74,86.78,86.78,86.73,86.72,86.71,86.71,86.70,86.72,86.75,86.75,86.67,86.61,86.60,86.60,86.60,86.60,86.60,86.60,86.57,86.51,86.51,86.50,86.47,86.42,86.38,86.27,86.17,86.11,86.09,86.01,85.95,85.92,85.91,85.90,85.87,85.87,85.90,85.90,85.90,85.89,85.87,85.86,85.81,85.76,85.69,85.62,85.72,85.71,85.68,85.66,85.65,85.69,85.72,85.77,85.90,85.88,85.86,85.86,85.86,85.81,85.80,85.79
79.36,79.25,79.22,79.15,79.12,79.10,79.08,79.06,79.05,79.05,79.03,79.00,79.00,79.00,78.99,78.97,78.91,78.87,78.85,78.84,78.78,78.76,78.78,78.80,78.79,78.77,78.77,78.75,78.69,78.60,78.55,78.51,78.46,78.44,78.43,78.39,78.35,78.32,78.27,78.27,78.27,78.27,78.23,78.21,78.21,78.20,78.17,78.15,78.14,78.14,78.14,78.15,78.17,78.19,78.20,78.17,78.14,78.12,78.10,78.05,77.97,77.92,77.86,77.77,77.69,77.67,77.66,77.67,77.68,77.69,77.70,77.71,77.72,77.69,77.70,77.72,77.73,77.70,77.68,77.69,77.71,77.70,77.66,77.64,77.60,77.52,77.46,77.47,77.48,77.49,77.48,77.49,77.47,77.43,77.40,77.44,77.47,77.49,77.50,77.52,77.51,77.49,77.50,77.55,77.56,77.59,77.60,77.57,77.50,77.44,77.38,77.34,77.31,77.45,77.51,77.53,77.51,77.50,77.54,77.58,77.59,77.58,77.58,77.58,77.59,77.59,77.59,77.56,77.49,77.40,77.39,77.24,77.02,76.81,76.74,76.90,76.95,76.93,76.92,76.91,76.84,76.82,76.86,76.83,76.84,76.84,76.85,76.85,76.78,76.74,76.74,76.76,76.72,76.74,76.83,76.95,77.03,77.08,77.14,77.19,77.22,77.22,77.22,77.22,77.21,77.17,77.20,77.26,77.36,77.49,77.64,77.72,77.75,77.71,77.50,77.37,77.24,77.16,77.31,77.38,77.41,77.52,77.85,79.09,80.07,81.32,82.80,83.73,84.55,85.26,85.87,86.41,86.53,86.61,86.69,86.77,86.79,86.79,86.78,86.75,86.71,86.74,86.74,86.71,86.62,86.60,86.61,86.62,86.62,86.62,86.61,86.61,86.61,86.57,86.57,86.54,86.52,86.50,86.44,86.35,86.27,86.20,86.14,86.07,86.02,85.98,85.95,85.91,85.91,85.91,85.90,85.89,85.87,85.83,85.82,85.84,85.81,85.80,85.76,85.68,85.69,85.68,85.67,85.67,85.71,85.77,85.79,85.82,85.90,85.89,85.89,85.90,85.89,85.83,85.82,85.81
79.39,79.33,79.31,79.25,79.16,79.09,79.05,79.03,79.02,79.00,78.97,78.93,78.92,78.92,78.93,78.90,78.84,78.82,78.81,78.78,78.72,78.73,78.75,78.77,78.73,78.73,78.73,78.71,78.65,78.60,78.56,78.50,78.44,78.41,78.39,78.35,78.30,78.28,78.23,78.23,78.25,78.25,78.21,78.20,78.20,78.19,78.17,78.15,78.14,78.14,78.14,78.16,78.18,78.20,78.20,78.17,78.14,78.10,78.06,78.00,77.95,77.92,77.87,77.80,77.72,77.70,77.69,77.69,77.70,77.71,77.74,77.76,77.76,77.73,77.74,77.77,77.78,77.75,77.71,77.73,77.75,77.74,77.72,77.72,77.67,77.57,77.47,77.47,77.49,77.50,77.50,77.50,77.47,77.43,77.41,77.46,77.49,77.50,77.50,77.50,77.50,77.50,77.51,77.55,77.58,77.64,77.67,77.65,77.55,77.47,77.39,77.33,77.30,77.46,77.52,77.52,77.50,77.50,77.54,77.57,77.57,77.56,77.56,77.56,77.57,77.58,77.57,77.54,77.48,77.42,77.40,77.25,77.02,76.80,76.71,76.88,76.90,76.85,76.82,76.82,76.76,76.77,76.82,76.80,76.82,76.82,76.81,76.82,76.79,76.73,76.68,76.69,76.69,76.72,76.77,76.83,76.89,76.94,77.03,77.11,77.13,77.14,77.14,77.14,77.14,77.09,77.07,77.10,77.19,77.32,77.45,77.54,77.62,77.67,77.58,77.47,77.31,77.20,77.32,77.37,77.42,77.46,77.56,78.56,79.42,80.61,82.11,83.15,84.05,84.78,85.41,86.02,86.27,86.44,86.57,86.69,86.77,86.83,86.82,86.77,86.71,86.73,86.74,86.71,86.63,86.64,86.65,86.66,86.65,86.65,86.63,86.64,86.64,86.62,86.61,86.58,86.56,86.55,86.51,86.45,86.37,86.29,86.20,86.13,86.07,86.02,85.99,85.94,85.94,85.93,85.90,85.89,85.86,85.83,85.82,85.85,85.83,85.83,85.80,85.73,85.67,85.69,85.71,85.72,85.77,85.83,85.85,85.86,85.90,85.90,85.91,85.91,85.91,85.84,85.82,85.83
79.41,79.43,79.47,79.41,79.25,79.09,79.01,79.00,78.98,78.95,78.90,78.88,78.85,78.87,78.90,78.87,78.82,78.80,78.79,78.77,78.73,78.77,78.78,78.75,78.70,78.70,78.67,78.61,78.56,78.59,78.56,78.48,78.41,78.44,78.42,78.36,78.30,78.30,78.26,78.25,78.25,78.25,78.21,78.20,78.20,78.20,78.20,78.20,78.19,78.19,78.19,78.20,78.20,78.20,78.20,78.20,78.16,78.08,77.99,77.92,77.91,77.91,77.89,77.84,77.76,77.71,77.70,77.70,77.70,77.74,77.77,77.77,77.74,77.71,77.74,77.78,77.79,77.75,77.72,77.73,77.74,77.73,77.75,77.78,77.73,77.60,77.51,77.50,77.51,77.51,77.50,77.50,77.47,77.43,77.41,77.46,77.49,77.50,77.50,77.50,77.50,77.50,77.50,77.51,77.54,77.63,77.69,77.70,77.58,77.48,77.39,77.34,77.31,77.45,77.51,77.51,77.50,77.50,77.53,77.54,77.52,77.51,77.51,77.51,77.52,77.55,77.52,77.51,77.47,77.42,77.40,77.26,77.00,76.74,76.69,76.84,76.83,76.75,76.69,76.70,76.72,76.75,76.78,76.78,76.78,76.75,76.70,76.71,76.76,76.71,76.66,76.66,76.66,76.67,76.69,76.72,76.74,76.76,76.88,76.99,77.02,77.05,77.06,77.07,77.07,77.06,77.02,76.99,77.00,77.09,77.18,77.30,77.40,77.44,77.50,77.41,77.31,77.25,77.30,77.34,77.43,77.52,77.64,78.20,78.78,79.81,81.29,82.61,83.53,84.23,84.84,85.48,85.92,86.25,86.45,86.53,86.66,86.81,86.85,86.77,86.70,86.71,86.75,86.76,86.70,86.71,86.73,86.72,86.69,86.69,86.67,86.67,86.68,86.66,86.65,86.61,86.58,86.57,86.58,86.55,86.48,86.39,86.28,86.19,86.10,86.04,86.03,85.97,85.95,85.93,85.90,85.89,85.87,85.88,85.89,85.89,85.87,85.87,85.83,85.75,85.68,85.74,85.80,85.83,85.84,85.87,85.88,85.88,85.90,85.90,85.91,85.91,85.91,85.86,85.80,85.83
79.37,79.39,79.46,79.42,79.26,79.10,79.00,79.00,78.98,78.94,78.90,78.89,78.86,78.85,78.86,78.88,78.86,78.86,78.84,78.82,78.80,78.82,78.80,78.75,78.72,78.67,78.63,78.61,78.63,78.64,78.59,78.49,78.40,78.41,78.40,78.34,78.29,78.30,78.29,78.26,78.25,78.25,78.23,78.21,78.21,78.22,78.21,78.22,78.22,78.22,78.21,78.20,78.20,78.20,78.21,78.21,78.17,78.11,78.03,77.96,77.95,77.93,77.91,77.87,77.79,77.73,77.71,77.71,77.70,77.74,77.76,77.75,77.71,77.69,77.73,77.78,77.80,77.78,77.74,77.72,77.72,77.71,77.74,77.77,77.73,77.61,77.51,77.51,77.52,77.51,77.50,77.50,77.48,77.45,77.43,77.47,77.49,77.50,77.50,77.48,77.49,77.49,77.50,77.48,77.51,77.60,77.67,77.68,77.55,77.46,77.40,77.37,77.32,77.40,77.45,77.46,77.45,77.46,77.50,77.50,77.49,77.49,77.48,77.47,77.47,77.49,77.47,77.47,77.45,77.41,77.40,77.28,77.02,76.74,76.66,76.78,76.77,76.71,76.69,76.72,76.75,76.79,76.83,76.85,76.85,76.82,76.79,76.77,76.82,76.76,76.67,76.63,76.63,76.63,76.65,76.68,76.66,76.68,76.76,76.85,76.91,76.97,77.01,77.03,77.03,77.03,76.98,76.93,76.90,76.93,76.97,77.07,77.18,77.27,77.32,77.27,77.22,77.21,77.24,77.36,77.49,77.61,77.72,78.23,78.51,79.22,80.48,81.73,82.68,83.53,84.32,85.06,85.59,86.03,86.34,86.51,86.62,86.75,86.77,86.71,86.71,86.77,86.79,86.79,86.76,86.77,86.80,86.79,86.74,86.74,86.73,86.73,86.72,86.68,86.64,86.61,86.57,86.53,86.51,86.52,86.47,86.38,86.28,86.17,86.07,86.00,85.98,85.98,85.97,85.95,85.92,85.94,85.94,85.94,85.93,85.90,85.89,85.89,85.87,85.83,85.79,85.82,85.86,85.87,85.88,85.89,85.89,85.89,85.88,85.86,85.85,85.86,85.85,85.81,85.77,85.80
79.34,79.35,79.44,79.41,79.26,79.10,79.00,79.00,78.98,78.94,78.90,78.90,78.88,78.84,78.84,78.89,78.90,78.90,78.89,78.87,78.86,78.85,78.79,78.73,78.72,78.63,78.60,78.62,78.68,78.66,78.61,78.52,78.42,78.41,78.39,78.33,78.28,78.29,78.29,78.27,78.25,78.24,78.26,78.23,78.23,78.24,78.23,78.23,78.24,78.24,78.23,78.21,78.21,78.22,78.23,78.23,78.20,78.15,78.09,78.02,77.98,77.95,77.92,77.88,77.80,77.74,77.71,77.70,77.69,77.72,77.73,77.71,77.67,77.67,77.72,77.77,77.79,77.79,77.75,77.72,77.70,77.69,77.71,77.75,77.72,77.61,77.51,77.51,77.51,77.50,77.49,77.49,77.48,77.47,77.45,77.47,77.49,77.50,77.50,77.47,77.48,77.50,77.50,77.48,77.48,77.56,77.62,77.62,77.51,77.45,77.41,77.39,77.33,77.36,77.40,77.43,77.42,77.43,77.46,77.47,77.47,77.50,77.48,77.46,77.45,77.45,77.45,77.45,77.44,77.41,77.41,77.30,77.04,76.74,76.64,76.74,76.72,76.68,76.71,76.75,76.79,76.83,76.87,76.88,76.89,76.88,76.87,76.84,76.85,76.77,76.67,76.61,76.60,76.61,76.64,76.66,76.61,76.61,76.66,76.73,76.81,76.89,76.95,76.98,76.98,76.98,76.94,76.88,76.83,76.82,76.84,76.91,77.02,77.13,77.15,77.13,77.12,77.15,77.20,77.37,77.54,77.67,77.76,78.20,78.27,78.73,79.72,80.77,81.64,82.71,83.81,84.67,85.27,85.81,86.22,86.47,86.60,86.68,86.69,86.67,86.73,86.82,86.83,86.80,86.80,86.82,86.84,86.83,86.78,86.79,86.79,86.78,86.74,86.69,86.63,86.60,86.56,86.49,86.45,86.46,86.43,86.35,86.26,86.12,86.03,85.98,85.96,85.99,85.99,85.97,85.94,85.99,85.99,85.98,85.94,85.89,85.90,85.90,85.90,85.89,85.89,85.89,85.90,85.90,85.90,85.89,85.89,85.88,85.86,85.82,85.81,85.81,85.80,85.77,85.74,85.76
79.32,79.34,79.47,79.39,79.24,79.10,79.00,79.00,78.99,78.96,78.92,78.90,78.88,78.84,78.83,78.87,78.89,78.90,78.90,78.89,78.89,78.83,78.73,78.65,78.64,78.59,78.60,78.62,78.64,78.63,78.61,78.56,78.50,78.49,78.45,78.36,78.27,78.26,78.27,78.27,78.25,78.24,78.27,78.26,78.27,78.28,78.25,78.22,78.23,78.25,78.26,78.23,78.22,78.24,78.27,78.27,78.25,78.23,78.18,78.10,78.02,77.96,77.90,77.84,77.76,77.71,77.68,77.67,77.65,77.67,77.68,77.66,77.63,77.63,77.68,77.73,77.77,77.77,77.74,77.71,77.69,77.67,77.65,77.70,77.70,77.61,77.51,77.48,77.46,77.45,77.44,77.47,77.49,77.48,77.46,77.44,77.47,77.49,77.50,77.48,77.49,77.51,77.53,77.49,77.49,77.52,77.53,77.50,77.47,77.46,77.44,77.40,77.33,77.35,77.40,77.45,77.45,77.42,77.43,77.44,77.47,77.53,77.51,77.48,77.47,77.47,77.47,77.47,77.45,77.42,77.45,77.32,77.06,76.76,76.63,76.73,76.71,76.67,76.71,76.77,76.83,76.85,76.84,76.84,76.84,76.86,76.89,76.88,76.75,76.67,76.63,76.60,76.60,76.64,76.68,76.68,76.61,76.56,76.58,76.65,76.73,76.81,76.88,76.92,76.93,76.93,76.86,76.82,76.81,76.81,76.86,76.94,77.00,77.04,77.04,77.04,77.03,77.07,77.19,77.35,77.51,77.64,77.72,77.89,78.02,78.39,79.05,79.71,80.27,81.63,83.28,84.34,84.96,85.55,86.04,86.38,86.63,86.65,86.66,86.72,86.79,86.86,86.84,86.80,86.81,86.86,86.84,86.81,86.80,86.80,86.84,86.79,86.71,86.69,86.62,86.59,86.55,86.48,86.41,86.40,86.35,86.27,86.19,86.07,86.02,86.00,86.00,86.01,86.00,85.99,85.99,86.00,85.99,85.94,85.88,85.84,85.88,85.90,85.90,85.91,85.90,85.90,85.90,85.90,85.88,85.87,85.84,85.82,85.81,85.81,85.81,85.80,85.79,85.77,85.72,85.71
79.30,79.30,79.35,79.29,79.18,79.07,79.00,79.00,78.99,78.96,78.92,78.90,78.87,78.83,78.82,78.89,78.92,78.91,78.90,78.90,78.89,78.81,78.70,78.61,78.61,78.58,78.59,78.61,78.62,78.62,78.61,78.56,78.51,78.49,78.46,78.39,78.29,78.23,78.26,78.28,78.29,78.28,78.32,78.31,78.31,78.31,78.29,78.25,78.26,78.28,78.30,78.28,78.29,78.30,78.32,78.31,78.29,78.27,78.24,78.15,78.03,77.94,77.87,77.79,77.73,77.69,77.66,77.64,77.64,77.65,77.64,77.63,77.61,77.61,77.66,77.72,77.76,77.74,77.72,77.71,77.69,77.67,77.64,77.67,77.66,77.57,77.47,77.44,77.44,77.45,77.46,77.46,77.47,77.48,77.45,77.42,77.47,77.51,77.53,77.50,77.50,77.50,77.50,77.51,77.51,77.51,77.49,77.45,77.44,77.46,77.46,77.44,77.41,77.44,77.50,77.54,77.53,77.47,77.46,77.48,77.52,77.57,77.53,77.50,77.49,77.49,77.49,77.49,77.48,77.46,77.48,77.33,77.05,76.73,76.61,76.70,76.70,76.69,76.74,76.78,76.82,76.83,76.82,76.81,76.81,76.83,76.85,76.85,76.76,76.67,76.62,76.61,76.64,76.67,76.71,76.73,76.66,76.59,76.56,76.59,76.65,76.73,76.78,76.81,76.82,76.82,76.80,76.80,76.79,76.76,76.86,76.92,76.96,77.00,77.00,77.00,77.00,77.03,77.15,77.30,77.44,77.57,77.65,77.75,77.88,78.11,78.46,78.98,79.56,80.94,82.59,83.68,84.38,85.03,85.60,86.06,86.40,86.48,86.54,86.64,86.73,86.79,86.80,86.81,86.84,86.85,86.83,86.81,86.80,86.79,86.81,86.77,86.69,86.67,86.60,86.56,86.51,86.41,86.33,86.29,86.25,86.20,86.16,86.10,86.08,86.07,86.06,86.04,86.02,86.00,86.00,86.00,85.98,85.93,85.88,85.85,85.89,85.90,85.92,85.94,85.92,85.90,85.89,85.87,85.84,85.83,85.81,85.80,85.81,85.83,85.82,85.79,85.78,85.74,85.71,85.70
79.27,79.24,79.17,79.16,79.10,79.03,79.00,79.00,78.99,78.96,78.92,78.90,78.86,78.82,78.82,78.92,78.94,78.92,78.90,78.89,78.88,78.79,78.68,78.60,78.59,78.58,78.59,78.59,78.59,78.60,78.59,78.54,78.47,78.43,78.44,78.41,78.32,78.21,78.26,78.31,78.33,78.33,78.37,78.35,78.33,78.33,78.33,78.29,78.30,78.33,78.34,78.34,78.36,78.38,78.37,78.34,78.31,78.30,78.28,78.19,78.04,77.93,77.83,77.75,77.71,77.67,77.63,77.62,77.64,77.64,77.63,77.61,77.61,77.61,77.67,77.72,77.75,77.71,77.70,77.70,77.69,77.68,77.65,77.66,77.62,77.52,77.43,77.41,77.43,77.46,77.49,77.45,77.46,77.47,77.44,77.41,77.48,77.55,77.58,77.53,77.51,77.47,77.47,77.53,77.53,77.52,77.48,77.43,77.41,77.45,77.48,77.50,77.50,77.56,77.63,77.66,77.63,77.55,77.51,77.53,77.57,77.60,77.55,77.52,77.50,77.50,77.50,77.50,77.50,77.50,77.50,77.34,77.03,76.70,76.60,76.67,76.71,76.73,76.78,76.80,76.80,76.80,76.80,76.80,76.80,76.80,76.80,76.80,76.80,76.71,76.63,76.63,76.68,76.70,76.75,76.79,76.73,76.65,76.57,76.53,76.58,76.65,76.68,76.69,76.70,76.70,76.75,76.78,76.78,76.71,76.84,76.87,76.91,76.98,76.99,76.98,76.98,77.02,77.09,77.22,77.36,77.47,77.56,77.67,77.80,77.88,77.96,78.42,79.15,80.41,81.83,82.86,83.67,84.39,85.03,85.61,86.04,86.24,86.38,86.51,86.63,86.67,86.74,86.82,86.86,86.81,86.81,86.81,86.80,86.77,86.76,86.73,86.68,86.64,86.55,86.52,86.45,86.33,86.24,86.19,86.16,86.15,86.18,86.18,86.18,86.16,86.13,86.09,86.03,86.00,86.00,85.99,85.96,85.92,85.89,85.88,85.90,85.91,85.94,85.97,85.92,85.90,85.87,85.84,85.79,85.77,85.78,85.81,85.83,85.86,85.83,85.79,85.76,85.71,85.70,85.70
79.20,79.14,79.02,79.05,79.03,79.01,79.00,79.00,79.00,78.98,78.94,78.90,78.87,78.83,78.81,78.87,78.91,78.91,78.89,78.87,78.83,78.77,78.69,78.62,78.62,78.57,78.55,78.53,78.49,78.51,78.48,78.44,78.40,78.35,78.35,78.34,78.30,78.24,78.25,78.29,78.31,78.31,78.32,78.32,78.32,78.34,78.35,78.31,78.30,78.32,78.34,78.37,78.39,78.39,78.39,78.35,78.34,78.35,78.33,78.22,78.07,77.95,77.83,77.72,77.71,77.72,77.70,77.68,77.68,77.68,77.69,77.70,77.70,77.67,77.71,77.75,77.78,77.73,77.68,77.65,77.63,77.63,77.65,77.68,77.65,77.55,77.48,77.44,77.42,77.43,77.47,77.48,77.51,77.53,77.51,77.48,77.52,77.55,77.56,77.53,77.52,77.50,77.50,77.54,77.54,77.54,77.53,77.50,77.47,77.48,77.49,77.50,77.50,77.58,77.68,77.73,77.69,77.61,77.54,77.53,77.57,77.60,77.58,77.55,77.51,77.50,77.50,77.51,77.51,77.51,77.50,77.34,77.03,76.70,76.59,76.72,76.76,76.76,76.77,76.79,76.80,76.80,76.80,76.80,76.80,76.80,76.80,76.80,76.80,76.76,76.73,76.72,76.71,76.71,76.77,76.82,76.78,76.72,76.62,76.53,76.51,76.56,76.60,76.65,76.69,76.68,76.69,76.73,76.76,76.70,76.78,76.81,76.86,76.93,76.97,76.94,76.94,76.99,77.04,77.13,77.23,77.33,77.46,77.63,77.76,77.81,77.83,78.11,78.84,79.84,80.92,81.89,82.75,83.58,84.32,84.96,85.48,85.84,86.14,86.36,86.48,86.55,86.65,86.74,86.76,86.77,86.81,86.82,86.79,86.76,86.73,86.69,86.64,86.56,86.44,86.40,86.35,86.27,86.22,86.21,86.22,86.26,86.34,86.36,86.32,86.25,86.16,86.10,86.03,86.00,86.00,85.98,85.94,85.91,85.91,85.91,85.90,85.91,85.94,85.96,85.89,85.86,85.84,85.81,85.78,85.75,85.77,85.80,85.82,85.84,85.81,85.77,85.74,85.70,85.70,85.70
79.15,79.06,78.92,78.96,78.97,78.96,78.96,78.96,78.96,78.96,78.94,78.90,78.89,78.85,78.84,78.86,78.90,78.90,78.89,78.86,78.81,78.77,78.70,78.62,78.60,78.53,78.50,78.48,78.45,78.46,78.43,78.39,78.35,78.30,78.30,78.29,78.28,78.25,78.25,78.26,78.27,78.27,78.27,78.27,78.29,78.32,78.34,78.31,78.29,78.29,78.30,78.34,78.36,78.37,78.36,78.34,78.33,78.35,78.33,78.23,78.08,77.95,77.85,77.76,77.76,77.76,77.75,77.73,77.72,77.70,77.73,77.75,77.74,77.71,77.73,77.77,77.79,77.74,77.69,77.64,77.61,77.61,77.66,77.69,77.67,77.58,77.51,77.46,77.43,77.42,77.46,77.49,77.53,77.55,77.54,77.51,77.54,77.56,77.56,77.55,77.55,77.53,77.52,77.54,77.56,77.57,77.57,77.54,77.52,77.51,77.51,77.51,77.49,77.58,77.68,77.74,77.72,77.65,77.56,77.54,77.59,77.60,77.59,77.55,77.51,77.50,77.50,77.52,77.53,77.52,77.51,77.35,77.03,76.70,76.56,76.70,76.76,76.77,76.76,76.77,76.78,76.78,76.78,76.78,76.79,76.80,76.80,76.80,76.80,76.80,76.80,76.79,76.72,76.73,76.77,76.81,76.80,76.77,76.67,76.55,76.47,76.48,76.54,76.61,76.67,76.65,76.64,76.69,76.73,76.72,76.75,76.78,76.83,76.88,76.92,76.90,76.90,76.93,76.98,77.05,77.13,77.23,77.39,77.60,77.72,77.75,77.73,77.90,78.45,79.20,80.05,80.93,81.81,82.70,83.53,84.27,84.94,85.44,85.86,86.18,86.32,86.41,86.53,86.63,86.66,86.71,86.76,86.78,86.77,86.74,86.69,86.62,86.55,86.46,86.36,86.33,86.33,86.33,86.31,86.30,86.31,86.35,86.42,86.44,86.40,86.31,86.20,86.12,86.05,86.01,85.99,85.96,85.92,85.89,85.89,85.92,85.90,85.91,85.92,85.94,85.85,85.81,85.80,85.81,85.80,85.77,85.79,85.82,85.81,85.81,85.78,85.74,85.71,85.68,85.68,85.69
79.11,79.01,78.89,78.90,78.90,78.90,78.90,78.90,78.90,78.90,78.90,78.90,78.90,78.89,78.89,78.89,78.90,78.90,78.89,78.85,78.81,78.80,78.72,78.61,78.54,78.47,78.44,78.45,78.48,78.45,78.42,78.38,78.35,78.29,78.29,78.28,78.26,78.24,78.26,78.23,78.21,78.21,78.21,78.21,78.22,78.26,78.30,78.30,78.28,78.24,78.21,78.24,78.28,78.31,78.30,78.30,78.30,78.30,78.28,78.20,78.06,77.94,77.87,77.85,77.84,77.81,77.80,77.78,77.75,77.71,77.72,77.74,77.73,77.70,77.73,77.77,77.79,77.74,77.71,77.67,77.63,77.62,77.68,77.72,77.69,77.59,77.51,77.47,77.44,77.42,77.46,77.49,77.53,77.55,77.54,77.51,77.54,77.57,77.60,77.60,77.60,77.56,77.53,77.53,77.59,77.61,77.59,77.56,77.54,77.52,77.52,77.52,77.48,77.54,77.64,77.72,77.72,77.67,77.58,77.56,77.61,77.61,77.58,77.54,77.51,77.50,77.50,77.54,77.57,77.55,77.51,77.35,77.04,76.69,76.53,76.63,76.71,76.74,76.75,76.75,76.75,76.75,76.75,76.75,76.78,76.80,76.80,76.80,76.80,76.85,76.87,76.83,76.73,76.73,76.74,76.75,76.79,76.80,76.70,76.57,76.47,76.42,76.49,76.57,76.63,76.61,76.60,76.65,76.71,76.76,76.76,76.78,76.81,76.84,76.85,76.84,76.84,76.86,76.90,76.98,77.06,77.17,77.35,77.56,77.68,77.71,77.69,77.77,78.00,78.51,79.21,80.00,80.85,81.76,82.67,83.56,84.39,85.02,85.55,85.97,86.16,86.25,86.38,86.49,86.55,86.62,86.66,86.69,86.73,86.71,86.65,86.54,86.43,86.35,86.31,86.32,86.38,86.50,86.50,86.46,86.44,86.44,86.43,86.44,86.41,86.34,86.25,86.17,86.10,86.03,85.97,85.93,85.89,85.86,85.86,85.90,85.90,85.90,85.90,85.89,85.81,85.76,85.77,85.83,85.85,85.82,85.83,85.84,85.80,85.79,85.74,85.70,85.67,85.62,85.63,85.67
79.05,78.97,78.88,78.87,78.85,78.84,78.84,78.84,78.85,78.87,78.90,78.90,78.89,78.87,78.86,78.87,78.90,78.90,78.88,78.83,78.75,78.70,78.61,78.51,78.46,78.43,78.42,78.42,78.43,78.42,78.40,78.38,78.34,78.29,78.28,78.27,78.25,78.23,78.25,78.24,78.22,78.22,78.21,78.22,78.24,78.27,78.30,78.29,78.26,78.23,78.20,78.23,78.28,78.30,78.29,78.28,78.29,78.28,78.25,78.18,78.07,77.97,77.90,77.86,77.83,77.80,77.79,77.79,77.77,77.73,77.72,77.72,77.71,77.70,77.73,77.76,77.77,77.73,77.72,77.70,77.67,77.66,77.72,77.75,77.70,77.57,77.50,77.50,77.48,77.45,77.48,77.50,77.54,77.56,77.56,77.54,77.53,77.55,77.58,77.60,77.60,77.57,77.54,77.58,77.64,77.64,77.60,77.56,77.56,77.55,77.54,77.53,77.49,77.54,77.63,77.69,77.71,77.69,77.61,77.58,77.61,77.61,77.56,77.52,77.50,77.50,77.50,77.53,77.54,77.54,77.51,77.37,77.07,76.73,76.54,76.63,76.70,76.74,76.77,76.77,76.74,76.72,76.72,76.72,76.74,76.75,76.76,76.79,76.80,76.83,76.84,76.81,76.73,76.69,76.71,76.76,76.79,76.80,76.71,76.58,76.49,76.42,76.44,76.52,76.60,76.60,76.60,76.64,76.70,76.73,76.73,76.74,76.77,76.81,76.78,76.77,76.77,76.78,76.85,76.88,76.97,77.08,77.17,77.40,77.57,77.67,77.70,77.77,77.87,78.17,78.69,79.38,80.20,81.03,81.87,82.74,83.71,84.44,85.08,85.61,85.91,86.12,86.31,86.47,86.58,86.65,86.64,86.63,86.64,86.59,86.52,86.46,86.41,86.38,86.40,86.39,86.42,86.50,86.51,86.50,86.50,86.50,86.41,86.38,86.37,86.33,86.21,86.14,86.09,86.04,85.99,85.97,85.95,85.91,85.90,85.94,85.90,85.88,85.85,85.81,85.83,85.80,85.80,85.84,85.88,85.86,85.87,85.87,85.84,85.81,85.77,85.72,85.66,85.62,85.63,85.67
79.00,78.94,78.88,78.85,78.82,78.80,78.80,78.81,78.83,78.86,78.90,78.90,78.89,78.87,78.86,78.87,78.89,78.90,78.87,78.81,78.70,78.62,78.52,78.42,78.40,78.40,78.40,78.40,78.40,78.40,78.38,78.36,78.32,78.28,78.26,78.26,78.25,78.23,78.25,78.26,78.25,78.24,78.23,78.25,78.27,78.28,78.29,78.27,78.24,78.22,78.20,78.23,78.28,78.29,78.27,78.26,78.26,78.25,78.22,78.17,78.07,77.98,77.91,77.85,77.79,77.76,77.77,77.79,77.78,77.75,77.71,77.69,77.69,77.70,77.72,77.74,77.74,77.72,77.73,77.73,77.71,77.69,77.75,77.77,77.71,77.57,77.49,77.52,77.50,77.48,77.51,77.53,77.55,77.57,77.58,77.58,77.55,77.54,77.55,77.58,77.58,77.56,77.56,77.62,77.66,77.63,77.59,77.55,77.56,77.58,77.58,77.54,77.50,77.55,77.62,77.67,77.69,77.68,77.61,77.58,77.59,77.59,77.54,77.51,77.50,77.50,77.50,77.51,77.52,77.54,77.51,77.40,77.12,76.76,76.53,76.62,76.70,76.76,76.80,76.79,76.74,76.71,76.70,76.70,76.71,76.72,76.73,76.77,76.78,76.80,76.81,76.79,76.72,76.67,76.69,76.75,76.78,76.78,76.70,76.59,76.50,76.43,76.40,76.45,76.54,76.57,76.59,76.63,76.68,76.70,76.70,76.69,76.71,76.75,76.70,76.70,76.71,76.72,76.78,76.79,76.88,76.96,76.97,77.20,77.42,77.58,77.67,77.75,77.79,77.93,78.27,78.88,79.65,80.39,81.12,81.90,82.97,83.80,84.54,85.17,85.59,85.92,86.19,86.40,86.57,86.65,86.62,86.58,86.55,86.50,86.45,86.42,86.43,86.43,86.48,86.47,86.47,86.52,86.51,86.52,86.55,86.53,86.38,86.33,86.32,86.29,86.18,86.13,86.10,86.05,86.00,86.00,85.97,85.94,85.92,85.94,85.88,85.85,85.81,85.77,85.85,85.82,85.81,85.84,85.89,85.88,85.87,85.87,85.87,85.83,85.79,85.73,85.67,85.63,85.63,85.67
78.97,78.94,78.91,78.86,78.82,78.80,78.81,78.84,78.86,78.88,78.90,78.90,78.90,78.89,78.89,78.89,78.90,78.89,78.86,78.79,78.68,78.59,78.48,78.41,78.40,78.40,78.40,78.40,78.40,78.39,78.35,78.32,78.30,78.28,78.25,78.24,78.25,78.26,78.27,78.28,78.29,78.28,78.27,78.28,78.29,78.29,78.28,78.24,78.22,78.20,78.20,78.23,78.28,78.29,78.26,78.22,78.22,78.22,78.19,78.15,78.05,77.96,77.89,77.84,77.74,77.70,77.72,77.77,77.80,77.76,77.70,77.67,77.67,77.70,77.69,77.68,77.69,77.70,77.73,77.76,77.76,77.73,77.75,77.78,77.72,77.59,77.50,77.51,77.51,77.50,77.54,77.57,77.58,77.59,77.60,77.63,77.61,77.58,77.54,77.53,77.53,77.54,77.58,77.65,77.61,77.56,77.52,77.51,77.52,77.59,77.61,77.59,77.52,77.56,77.62,77.66,77.64,77.63,77.57,77.55,77.57,77.55,77.52,77.50,77.50,77.50,77.50,77.50,77.52,77.56,77.52,77.44,77.17,76.78,76.49,76.60,76.74,76.83,76.81,76.80,76.75,76.71,76.70,76.70,76.70,76.70,76.71,76.72,76.72,76.76,76.79,76.79,76.72,76.70,76.70,76.71,76.72,76.72,76.66,76.58,76.50,76.43,76.36,76.36,76.43,76.49,76.56,76.59,76.63,76.68,76.68,76.64,76.62,76.63,76.61,76.66,76.69,76.70,76.71,76.72,76.76,76.78,76.74,76.97,77.20,77.38,77.53,77.67,77.75,77.82,78.02,78.56,79.28,79.90,80.45,81.04,82.16,83.06,83.87,84.60,85.17,85.57,85.92,86.22,86.48,86.58,86.58,86.53,86.47,86.51,86.50,86.50,86.50,86.50,86.52,86.55,86.57,86.57,86.55,86.56,86.56,86.52,86.37,86.30,86.25,86.22,86.21,86.17,86.12,86.06,86.01,85.99,85.94,85.90,85.87,85.83,85.81,85.78,85.78,85.82,85.83,85.82,85.82,85.85,85.87,85.84,85.83,85.83,85.85,85.84,85.78,85.72,85.68,85.67,85.65,85.66
78.94,78.92,78.91,78.87,78.83,78.80,78.82,78.87,78.88,78.89,78.89,78.87,78.90,78.92,78.92,78.91,78.92,78.89,78.82,78.73,78.64,78.55,78.46,78.40,78.40,78.40,78.40,78.40,78.40,78.38,78.33,78.31,78.30,78.29,78.26,78.24,78.23,78.24,78.25,78.25,78.26,78.27,78.29,78.30,78.30,78.29,78.27,78.22,78.20,78.20,78.20,78.22,78.24,78.25,78.23,78.21,78.21,78.20,78.18,78.13,78.01,77.93,77.86,77.81,77.72,77.68,77.69,77.73,77.73,77.71,77.70,77.71,77.72,77.72,77.70,77.67,77.67,77.70,77.75,77.77,77.76,77.74,77.75,77.73,77.67,77.56,77.48,77.48,77.49,77.51,77.53,77.56,77.58,77.60,77.60,77.65,77.65,77.62,77.58,77.55,77.55,77.57,77.59,77.63,77.59,77.55,77.52,77.53,77.55,77.59,77.61,77.59,77.54,77.56,77.61,77.64,77.62,77.59,77.54,77.54,77.56,77.55,77.51,77.50,77.49,77.50,77.50,77.50,77.52,77.56,77.53,77.45,77.16,76.75,76.47,76.57,76.71,76.81,76.81,76.80,76.76,76.72,76.71,76.71,76.71,76.71,76.71,76.71,76.70,76.72,76.76,76.78,76.72,76.70,76.70,76.69,76.69,76.67,76.61,76.54,76.49,76.41,76.35,76.33,76.36,76.42,76.49,76.53,76.55,76.58,76.55,76.53,76.53,76.56,76.54,76.59,76.61,76.61,76.62,76.65,76.65,76.60,76.54,76.75,76.95,77.15,77.33,77.49,77.61,77.70,77.84,78.20,78.74,79.17,79.60,80.15,81.23,82.20,83.13,83.99,84.63,85.09,85.55,85.95,86.25,86.44,86.49,86.49,86.48,86.55,86.57,86.57,86.56,86.56,86.58,86.59,86.58,86.54,86.49,86.50,86.49,86.45,86.33,86.27,86.23,86.22,86.24,86.19,86.13,86.08,86.04,86.00,85.93,85.88,85.85,85.80,85.81,85.81,85.82,85.87,85.87,85.84,85.82,85.82,85.84,85.85,85.82,85.79,85.78,85.78,85.73,85.67,85.65,85.67,85.67,85.65
78.91,78.90,78.90,78.88,78.84,78.81,78.83,78.89,78.90,78.89,78.87,78.85,78.90,78.94,78.94,78.92,78.95,78.89,78.78,78.66,78.59,78.51,78.44,78.40,78.40,78.40,78.40,78.40,78.40,78.38,78.33,78.31,78.30,78.30,78.27,78.24,78.21,78.21,78.21,78.21,78.22,78.24,78.29,78.29,78.30,78.29,78.26,78.22,78.21,78.21,78.21,78.20,78.20,78.20,78.20,78.20,78.20,78.20,78.18,78.11,77.98,77.89,77.83,77.78,77.70,77.66,77.67,77.69,77.65,77.65,77.70,77.76,77.79,77.76,77.72,77.68,77.66,77.70,77.77,77.76,77.74,77.74,77.73,77.67,77.60,77.53,77.46,77.46,77.47,77.50,77.50,77.53,77.57,77.60,77.60,77.65,77.67,77.66,77.62,77.60,77.60,77.60,77.60,77.60,77.59,77.55,77.54,77.57,77.60,77.60,77.60,77.59,77.55,77.57,77.60,77.62,77.62,77.57,77.52,77.52,77.56,77.56,77.51,77.48,77.48,77.50,77.50,77.49,77.51,77.55,77.52,77.44,77.13,76.71,76.47,76.53,76.66,76.77,76.80,76.80,76.77,76.74,76.73,76.73,76.73,76.73,76.73,76.74,76.71,76.70,76.73,76.77,76.72,76.70,76.69,76.67,76.66,76.62,76.56,76.50,76.46,76.40,76.35,76.32,76.31,76.35,76.42,76.46,76.46,76.46,76.41,76.42,76.46,76.51,76.47,76.50,76.50,76.49,76.52,76.59,76.53,76.43,76.38,76.54,76.71,76.91,77.13,77.29,77.44,77.56,77.67,77.82,78.16,78.41,78.73,79.30,80.30,81.31,82.36,83.35,84.04,84.55,85.11,85.61,85.94,86.26,86.37,86.44,86.52,86.59,86.63,86.62,86.60,86.61,86.63,86.61,86.55,86.47,86.41,86.40,86.39,86.36,86.29,86.26,86.24,86.24,86.28,86.20,86.14,86.10,86.08,86.03,85.93,85.87,85.84,85.82,85.85,85.86,85.88,85.92,85.93,85.87,85.81,85.78,85.82,85.86,85.83,85.76,85.71,85.72,85.66,85.62,85.62,85.65,85.67,85.65
78.90,78.90,78.90,78.88,78.84,78.81,78.83,78.89,78.90,78.90,78.89,78.88,78.90,78.91,78.91,78.91,78.92,78.85,78.72,78.58,78.55,78.48,78.45,78.44,78.41,78.41,78.41,78.40,78.40,78.39,78.38,78.36,78.34,78.30,78.29,78.28,78.26,78.24,78.21,78.21,78.21,78.22,78.23,78.24,78.27,78.28,78.27,78.26,78.26,78.26,78.26,78.24,78.21,78.20,78.20,78.20,78.20,78.20,78.18,78.13,78.02,77.90,77.79,77.70,77.64,77.64,77.65,77.66,77.65,77.65,77.67,77.70,77.75,77.74,77.72,77.69,77.68,77.68,77.70,77.71,77.70,77.70,77.65,77.61,77.58,77.55,77.50,77.46,77.45,77.46,77.49,77.50,77.53,77.58,77.60,77.63,77.63,77.62,77.59,77.57,77.58,77.58,77.58,77.58,77.55,77.52,77.53,77.57,77.60,77.60,77.59,77.58,77.58,77.60,77.64,77.66,77.67,77.64,77.57,77.52,77.51,77.47,77.46,77.44,77.44,77.48,77.48,77.47,77.48,77.51,77.51,77.41,77.11,76.70,76.46,76.51,76.63,76.74,76.79,76.80,76.79,76.78,76.78,76.78,76.78,76.78,76.78,76.78,76.75,76.74,76.74,76.75,76.72,76.68,76.65,76.63,76.62,76.61,76.57,76.52,76.46,76.41,76.39,76.37,76.34,76.33,76.36,76.40,76.42,76.42,76.40,76.44,76.46,76.44,76.42,76.41,76.38,76.38,76.47,76.49,76.43,76.37,76.37,76.47,76.61,76.79,76.98,77.14,77.26,77.33,77.35,77.35,77.67,77.95,78.26,78.70,79.59,80.52,81.58,82.65,83.48,83.92,84.47,85.04,85.49,85.96,86.18,86.33,86.49,86.59,86.62,86.62,86.60,86.60,86.62,86.58,86.50,86.41,86.36,86.33,86.30,86.27,86.26,86.31,86.29,86.27,86.29,86.24,86.15,86.12,86.12,86.02,85.94,85.91,85.90,85.86,85.89,85.92,85.95,85.96,85.96,85.90,85.84,85.80,85.82,85.86,85.83,85.77,85.74,85.70,85.64,85.61,85.61,85.64,85.66,85.65
78.90,78.90,78.90,78.89,78.84,78.82,78.86,78.89,78.90,78.89,78.88,78.87,78.88,78.89,78.90,78.90,78.88,78.80,78.68,78.56,78.54,78.46,78.44,78.45,78.43,78.43,78.43,78.42,78.40,78.40,78.40,78.39,78.36,78.31,78.30,78.29,78.28,78.25,78.22,78.22,78.22,78.22,78.20,78.21,78.23,78.25,78.25,78.25,78.25,78.25,78.25,78.24,78.21,78.20,78.20,78.20,78.20,78.20,78.19,78.14,78.04,77.91,77.79,77.70,77.64,77.63,77.64,77.66,77.65,77.65,77.65,77.68,77.72,77.73,77.71,77.69,77.67,77.65,77.65,77.66,77.67,77.66,77.61,77.59,77.57,77.56,77.52,77.47,77.45,77.45,77.49,77.48,77.51,77.56,77.60,77.59,77.59,77.58,77.57,77.54,77.55,77.56,77.56,77.55,77.52,77.51,77.53,77.57,77.58,77.58,77.57,77.57,77.59,77.62,77.65,77.67,77.68,77.66,77.59,77.53,77.48,77.43,77.44,77.43,77.43,77.46,77.46,77.46,77.47,77.48,77.49,77.40,77.11,76.72,76.44,76.48,76.60,76.72,76.79,76.80,76.80,76.80,76.80,76.80,76.80,76.80,76.80,76.80,76.78,76.77,76.75,76.72,76.72,76.69,76.66,76.65,76.65,76.65,76.65,76.63,76.58,76.53,76.50,76.47,76.43,76.33,76.31,76.33,76.38,76.40,76.40,76.44,76.45,76.40,76.38,76.33,76.29,76.30,76.40,76.38,76.34,76.31,76.35,76.45,76.58,76.72,76.85,76.98,77.06,77.06,76.99,76.91,77.18,77.48,77.83,78.26,78.98,79.78,80.80,81.93,82.79,83.30,83.89,84.48,85.00,85.55,85.90,86.17,86.41,86.55,86.58,86.58,86.58,86.60,86.61,86.56,86.48,86.41,86.36,86.33,86.29,86.26,86.30,86.35,86.34,86.31,86.30,86.27,86.21,86.18,86.17,86.04,85.96,85.93,85.93,85.92,85.94,85.97,85.98,85.98,85.96,85.91,85.85,85.80,85.80,85.81,85.77,85.72,85.70,85.66,85.62,85.60,85.60,85.63,85.66,85.64
78.90,78.90,78.91,78.90,78.85,78.84,78.90,78.90,78.89,78.87,78.84,78.81,78.85,78.88,78.90,78.90,78.85,78.74,78.65,78.60,78.53,78.45,78.42,78.45,78.47,78.48,78.47,78.45,78.40,78.40,78.40,78.39,78.37,78.32,78.30,78.28,78.26,78.25,78.24,78.24,78.25,78.23,78.20,78.20,78.20,78.20,78.20,78.20,78.20,78.20,78.20,78.20,78.20,78.20,78.20,78.20,78.20,78.20,78.19,78.15,78.05,77.94,77.84,77.76,77.69,77.64,77.64,77.67,77.65,77.65,77.66,77.68,77.70,77.72,77.71,77.68,77.64,77.61,77.60,77.62,77.63,77.62,77.60,77.60,77.59,77.56,77.52,77.49,77.46,77.46,77.48,77.47,77.51,77.56,77.60,77.55,77.54,77.54,77.55,77.53,77.52,77.53,77.54,77.52,77.50,77.52,77.54,77.55,77.54,77.54,77.55,77.56,77.59,77.62,77.64,77.64,77.64,77.64,77.60,77.54,77.46,77.41,77.45,77.45,77.43,77.43,77.45,77.48,77.48,77.45,77.48,77.39,77.14,76.77,76.41,76.44,76.56,76.70,76.78,76.80,76.80,76.80,76.80,76.80,76.80,76.80,76.80,76.80,76.80,76.80,76.75,76.67,76.74,76.71,76.71,76.74,76.74,76.74,76.78,76.81,76.79,76.74,76.67,76.63,76.58,76.35,76.26,76.27,76.33,76.39,76.40,76.41,76.42,76.39,76.34,76.27,76.23,76.24,76.33,76.27,76.24,76.25,76.32,76.47,76.61,76.70,76.74,76.83,76.85,76.74,76.58,76.50,76.69,77.01,77.44,77.94,78.46,79.06,80.03,81.18,81.99,82.70,83.34,83.94,84.48,85.03,85.54,85.96,86.28,86.49,86.51,86.52,86.54,86.60,86.59,86.54,86.49,86.47,86.40,86.38,86.35,86.32,86.38,86.40,86.39,86.36,86.30,86.30,86.29,86.27,86.23,86.09,86.01,85.95,85.94,86.00,86.00,86.00,85.99,85.97,85.91,85.89,85.85,85.80,85.77,85.70,85.64,85.61,85.61,85.60,85.60,85.60,85.60,85.63,85.66,85.64
78.90,78.90,78.92,78.94,78.90,78.88,78.91,78.92,78.90,78.87,78.83,78.78,78.83,78.87,78.90,78.90,78.84,78.70,78.59,78.54,78.51,78.48,78.47,78.47,78.45,78.45,78.46,78.45,78.41,78.42,78.41,78.40,78.38,78.35,78.30,78.25,78.22,78.23,78.24,78.24,78.23,78.21,78.20,78.20,78.21,78.21,78.22,78.21,78.20,78.20,78.20,78.20,78.20,78.20,78.20,78.20,78.20,78.19,78.17,78.13,78.06,77.97,77.88,77.82,77.75,77.68,77.67,77.68,77.65,77.65,77.68,77.72,77.73,77.72,77.71,77.69,77.67,77.63,77.61,77.61,77.61,77.61,77.60,77.61,77.61,77.56,77.49,77.49,77.50,77.49,77.47,77.45,77.46,77.49,77.53,77.50,77.49,77.50,77.49,77.48,77.49,77.50,77.51,77.53,77.54,77.56,77.57,77.57,77.56,77.56,77.57,77.58,77.60,77.61,77.61,77.62,77.62,77.62,77.58,77.51,77.45,77.44,77.47,77.48,77.43,77.31,77.37,77.42,77.43,77.42,77.40,77.32,77.08,76.71,76.36,76.42,76.58,76.73,76.79,76.80,76.80,76.80,76.80,76.80,76.77,76.75,76.75,76.75,76.74,76.74,76.71,76.64,76.71,76.70,76.70,76.73,76.77,76.81,76.82,76.81,76.81,76.82,76.78,76.74,76.70,76.52,76.35,76.27,76.27,76.33,76.38,76.40,76.39,76.34,76.32,76.25,76.19,76.17,76.25,76.19,76.18,76.21,76.25,76.35,76.49,76.57,76.60,76.67,76.65,76.53,76.37,76.25,76.28,76.58,77.00,77.45,77.96,78.68,79.52,80.38,81.04,81.76,82.52,83.21,83.76,84.27,84.86,85.41,85.85,86.17,86.37,86.44,86.45,86.52,86.56,86.56,86.53,86.48,86.41,86.40,86.39,86.39,86.45,86.41,86.40,86.39,86.37,86.36,86.35,86.32,86.25,86.15,86.07,86.00,85.96,85.95,85.93,85.90,85.86,85.81,85.79,85.77,85.76,85.73,85.66,85.63,85.60,85.59,85.61,85.61,85.60,85.60,85.62,85.65,85.67,85.65
78.90,78.90,78.92,78.97,78.95,78.92,78.91,78.93,78.91,78.87,78.83,78.77,78.81,78.86,78.89,78.89,78.82,78.66,78.54,78.51,78.50,78.51,78.50,78.48,78.46,78.46,78.46,78.45,78.42,78.43,78.41,78.39,78.38,78.37,78.30,78.23,78.20,78.21,78.23,78.22,78.21,78.20,78.20,78.20,78.21,78.23,78.24,78.21,78.20,78.20,78.20,78.20,78.20,78.20,78.20,78.20,78.20,78.18,78.15,78.11,78.06,77.97,77.90,77.86,77.80,77.73,77.70,77.69,77.65,77.65,77.70,77.74,77.75,77.71,77.70,77.69,77.67,77.64,77.61,77.60,77.60,77.60,77.60,77.62,77.61,77.56,77.47,77.48,77.50,77.50,77.45,77.42,77.42,77.44,77.47,77.45,77.45,77.45,77.45,77.44,77.48,77.48,77.49,77.54,77.56,77.57,77.57,77.57,77.58,77.57,77.58,77.59,77.60,77.60,77.60,77.60,77.60,77.60,77.56,77.50,77.44,77.46,77.49,77.50,77.46,77.31,77.38,77.42,77.43,77.41,77.34,77.25,77.02,76.68,76.34,76.40,76.58,76.75,76.80,76.80,76.80,76.80,76.80,76.80,76.76,76.73,76.73,76.73,76.72,76.70,76.67,76.63,76.66,76.69,76.70,76.72,76.78,76.84,76.84,76.82,76.81,76.86,76.84,76.82,76.78,76.67,76.48,76.31,76.22,76.26,76.34,76.36,76.34,76.30,76.28,76.23,76.18,76.15,76.21,76.15,76.15,76.17,76.17,76.23,76.34,76.41,76.43,76.49,76.44,76.33,76.19,76.06,75.99,76.22,76.57,76.95,77.40,78.19,78.96,79.62,80.17,80.83,81.57,82.29,82.87,83.36,84.05,84.70,85.23,85.67,86.06,86.23,86.27,86.36,86.45,86.51,86.52,86.48,86.42,86.42,86.43,86.45,86.49,86.43,86.42,86.43,86.43,86.41,86.38,86.33,86.25,86.18,86.10,86.04,85.98,85.93,85.89,85.84,85.77,85.70,85.69,85.68,85.67,85.66,85.57,85.56,85.56,85.58,85.61,85.63,85.62,85.61,85.62,85.66,85.68,85.66
78.90,78.90,78.92,78.98,78.98,78.95,78.91,78.92,78.91,78.88,78.85,78.79,78.81,78.84,78.86,78.88,78.78,78.63,78.55,78.54,78.51,78.51,78.50,78.50,78.51,78.52,78.49,78.45,78.41,78.41,78.39,78.36,78.35,78.37,78.30,78.23,78.20,78.20,78.21,78.20,78.20,78.20,78.20,78.20,78.22,78.24,78.26,78.21,78.20,78.20,78.20,78.20,78.20,78.20,78.20,78.20,78.20,78.18,78.15,78.10,78.03,77.93,77.87,77.85,77.84,77.77,77.72,77.69,77.65,77.65,77.70,77.75,77.75,77.71,77.67,77.66,77.65,77.65,77.61,77.60,77.60,77.60,77.60,77.60,77.59,77.54,77.45,77.46,77.46,77.44,77.41,77.40,77.40,77.41,77.41,77.41,77.41,77.41,77.42,77.45,77.49,77.50,77.51,77.55,77.54,77.52,77.51,77.52,77.57,77.56,77.56,77.58,77.60,77.60,77.60,77.60,77.60,77.59,77.55,77.49,77.44,77.47,77.50,77.53,77.55,77.54,77.56,77.53,77.50,77.46,77.31,77.19,76.99,76.71,76.40,76.39,76.56,76.74,76.81,76.80,76.80,76.80,76.80,76.80,76.79,76.79,76.79,76.79,76.75,76.70,76.65,76.62,76.61,76.66,76.69,76.71,76.77,76.80,76.84,76.85,76.81,76.81,76.84,76.84,76.80,76.76,76.64,76.41,76.19,76.16,76.25,76.26,76.25,76.27,76.23,76.21,76.20,76.20,76.23,76.20,76.15,76.11,76.11,76.11,76.16,76.20,76.23,76.24,76.23,76.17,76.08,75.99,75.91,75.97,76.16,76.45,76.70,77.46,78.26,78.94,79.48,79.92,80.44,81.03,81.69,82.22,83.02,83.74,84.30,84.85,85.42,85.77,85.96,86.09,86.22,86.33,86.42,86.48,86.44,86.45,86.45,86.46,86.49,86.46,86.46,86.47,86.45,86.43,86.37,86.29,86.20,86.15,86.08,86.03,85.99,85.97,85.91,85.85,85.78,85.69,85.66,85.63,85.61,85.58,85.52,85.51,85.52,85.55,85.62,85.67,85.65,85.62,85.61,85.63,85.68,85.68
78.92,78.89,78.87,78.94,78.98,78.98,78.95,78.95,78.91,78.87,78.83,78.80,78.81,78.82,78.82,78.82,78.73,78.62,78.57,78.56,78.51,78.51,78.50,78.50,78.51,78.52,78.50,78.46,78.42,78.38,78.37,78.35,78.32,78.34,78.29,78.23,78.20,78.20,78.20,78.20,78.20,78.20,78.21,78.22,78.23,78.22,78.23,78.21,78.21,78.22,78.22,78.20,78.20,78.20,78.20,78.20,78.20,78.19,78.17,78.12,78.03,77.93,77.87,77.84,77.79,77.71,77.67,77.65,77.61,77.62,77.67,77.71,77.71,77.69,77.66,77.64,77.63,77.62,77.60,77.58,77.56,77.55,77.55,77.54,77.51,77.48,77.44,77.45,77.47,77.46,77.43,77.41,77.40,77.40,77.40,77.40,77.39,77.39,77.40,77.41,77.44,77.49,77.53,77.54,77.51,77.49,77.49,77.50,77.57,77.59,77.59,77.59,77.63,77.62,77.61,77.60,77.59,77.58,77.56,77.51,77.44,77.47,77.52,77.56,77.59,77.60,77.60,77.56,77.52,77.47,77.28,77.13,76.94,76.69,76.39,76.38,76.55,76.75,76.84,76.81,76.80,76.80,76.80,76.80,76.80,76.80,76.81,76.83,76.82,76.78,76.72,76.66,76.59,76.64,76.69,76.71,76.74,76.77,76.80,76.80,76.78,76.78,76.80,76.80,76.78,76.75,76.68,76.48,76.25,76.13,76.19,76.21,76.20,76.19,76.18,76.18,76.19,76.20,76.18,76.19,76.15,76.10,76.10,76.05,76.04,76.05,76.05,76.05,76.05,76.03,75.99,75.94,75.86,75.86,75.93,76.08,76.22,76.86,77.60,78.30,78.79,79.17,79.54,79.99,80.56,81.18,82.00,82.74,83.35,83.97,84.64,85.15,85.48,85.62,85.83,86.02,86.22,86.39,86.43,86.42,86.43,86.47,86.49,86.48,86.48,86.49,86.46,86.43,86.35,86.25,86.15,86.12,86.08,86.06,86.05,86.01,85.91,85.82,85.75,85.68,85.63,85.63,85.63,85.60,85.54,85.53,85.54,85.57,85.62,85.68,85.67,85.63,85.59,85.59,85.65,85.68
78.92,78.86,78.83,78.90,78.96,78.99,78.99,78.97,78.91,78.85,78.80,78.79,78.79,78.79,78.79,78.76,78.69,78.62,78.58,78.55,78.51,78.50,78.50,78.50,78.50,78.50,78.49,78.47,78.43,78.35,78.36,78.34,78.30,78.30,78.28,78.24,78.21,78.20,78.20,78.20,78.20,78.20,78.22,78.25,78.23,78.20,78.20,78.21,78.23,78.24,78.24,78.21,78.20,78.19,78.19,78.18,78.20,78.21,78.19,78.13,78.03,77.94,77.87,77.81,77.71,77.63,77.61,77.61,77.58,77.59,77.63,77.66,77.65,77.66,77.64,77.62,77.59,77.58,77.57,77.55,77.51,77.50,77.50,77.48,77.45,77.43,77.43,77.46,77.49,77.49,77.46,77.42,77.40,77.40,77.41,77.41,77.38,77.38,77.40,77.36,77.39,77.47,77.54,77.52,77.48,77.47,77.46,77.48,77.56,77.61,77.61,77.60,77.65,77.64,77.61,77.59,77.58,77.58,77.58,77.53,77.45,77.47,77.54,77.58,77.60,77.59,77.59,77.55,77.51,77.46,77.25,77.07,76.88,76.65,76.36,76.36,76.55,76.76,76.88,76.83,76.81,76.80,76.80,76.80,76.80,76.80,76.81,76.85,76.88,76.86,76.80,76.70,76.59,76.64,76.68,76.70,76.70,76.74,76.75,76.75,76.75,76.75,76.75,76.75,76.75,76.72,76.69,76.55,76.35,76.15,76.15,76.17,76.17,76.12,76.14,76.15,76.17,76.18,76.12,76.17,76.16,76.12,76.10,76.02,75.97,75.93,75.89,75.89,75.89,75.91,75.93,75.90,75.83,75.80,75.79,75.79,75.86,76.34,77.00,77.67,78.12,78.48,78.77,79.08,79.52,80.23,81.01,81.75,82.41,83.07,83.79,84.43,84.89,85.07,85.36,85.64,85.94,86.24,86.38,86.37,86.39,86.47,86.50,86.50,86.50,86.49,86.46,86.40,86.32,86.21,86.11,86.11,86.10,86.11,86.11,86.04,85.91,85.79,85.71,85.67,85.63,85.65,85.67,85.64,85.58,85.57,85.58,85.59,85.62,85.67,85.68,85.63,85.57,85.55,85.61,85.66
78.84,78.85,78.88,78.91,78.95,78.95,78.91,78.88,78.88,78.84,78.77,78.73,78.74,78.76,78.78,78.76,78.68,78.59,78.53,78.51,78.50,78.52,78.50,78.47,78.49,78.47,78.44,78.42,78.41,78.38,78.37,78.35,78.32,78.28,78.28,78.26,78.24,78.20,78.19,78.19,78.19,78.20,78.21,78.21,78.21,78.21,78.22,78.24,78.25,78.24,78.21,78.20,78.20,78.19,78.17,78.15,78.20,78.21,78.17,78.07,77.99,77.91,77.84,77.77,77.67,77.62,77.62,77.63,77.61,77.59,77.59,77.58,77.56,77.58,77.59,77.59,77.57,77.55,77.52,77.48,77.46,77.49,77.51,77.52,77.51,77.51,77.50,77.52,77.52,77.51,77.49,77.43,77.39,77.38,77.43,77.43,77.41,77.40,77.41,77.36,77.37,77.44,77.50,77.50,77.46,77.44,77.43,77.43,77.48,77.52,77.54,77.56,77.62,77.62,77.61,77.60,77.60,77.64,77.61,77.54,77.46,77.50,77.56,77.58,77.57,77.56,77.56,77.52,77.48,77.42,77.15,76.95,76.77,76.57,76.32,76.34,76.54,76.75,76.88,76.83,76.81,76.79,76.77,76.79,76.80,76.80,76.80,76.81,76.84,76.82,76.74,76.63,76.59,76.65,76.69,76.70,76.70,76.74,76.74,76.73,76.76,76.76,76.76,76.76,76.77,76.80,76.75,76.67,76.53,76.27,76.16,76.14,76.14,76.13,76.12,76.15,76.18,76.19,76.16,76.19,76.20,76.20,76.15,76.03,75.95,75.89,75.85,75.84,75.84,75.87,75.91,75.90,75.87,75.83,75.78,75.72,75.72,76.10,76.60,77.09,77.50,77.92,78.25,78.54,78.86,79.53,80.19,80.85,81.52,82.17,82.83,83.46,84.00,84.38,84.72,85.08,85.50,85.96,86.24,86.30,86.34,86.40,86.49,86.50,86.50,86.49,86.45,86.31,86.24,86.21,86.18,86.22,86.18,86.16,86.14,86.06,85.92,85.81,85.71,85.64,85.66,85.68,85.68,85.66,85.60,85.59,85.59,85.59,85.59,85.58,85.59,85.58,85.52,85.53,85.59,85.62
78.82,78.85,78.91,78.92,78.93,78.92,78.88,78.86,78.87,78.84,78.77,78.72,78.71,78.73,78.75,78.73,78.67,78.58,78.52,78.51,78.50,78.51,78.49,78.47,78.47,78.44,78.41,78.40,78.39,78.37,78.35,78.33,78.30,78.25,78.26,78.26,78.24,78.20,78.19,78.17,78.17,78.18,78.18,78.18,78.20,78.23,78.25,78.27,78.27,78.24,78.20,78.20,78.20,78.19,78.16,78.15,78.20,78.19,78.13,78.02,77.95,77.90,77.85,77.77,77.69,77.64,77.63,77.64,77.62,77.59,77.57,77.55,77.52,77.55,77.56,77.56,77.54,77.52,77.49,77.46,77.44,77.46,77.50,77.53,77.54,77.53,77.51,77.52,77.52,77.52,77.51,77.44,77.40,77.39,77.44,77.43,77.41,77.40,77.41,77.38,77.39,77.43,77.46,77.47,77.45,77.44,77.44,77.45,77.51,77.53,77.54,77.56,77.61,77.61,77.61,77.60,77.61,77.65,77.62,77.55,77.46,77.50,77.56,77.57,77.54,77.53,77.54,77.51,77.47,77.39,77.06,76.85,76.68,76.52,76.29,76.30,76.51,76.75,76.86,76.82,76.81,76.78,76.74,76.76,76.78,76.80,76.80,76.80,76.78,76.74,76.67,76.57,76.58,76.65,76.70,76.73,76.73,76.76,76.74,76.72,76.74,76.77,76.80,76.81,76.82,76.85,76.82,76.78,76.70,76.49,76.24,76.14,76.12,76.12,76.10,76.15,76.17,76.16,76.15,76.18,76.21,76.22,76.18,76.04,75.92,75.85,75.82,75.81,75.81,75.84,75.86,75.86,75.85,75.82,75.78,75.73,75.68,75.89,76.22,76.62,77.06,77.44,77.77,78.04,78.32,78.95,79.49,80.09,80.77,81.40,82.03,82.65,83.23,83.71,84.01,84.42,84.93,85.49,85.91,86.11,86.24,86.36,86.49,86.51,86.49,86.46,86.44,86.26,86.21,86.20,86.21,86.27,86.24,86.22,86.17,86.07,85.95,85.83,85.73,85.65,85.69,85.70,85.69,85.67,85.60,85.60,85.59,85.57,85.54,85.50,85.52,85.53,85.50,85.52,85.57,85.59
