85.89,85.80,85.79,85.76,85.71,85.64,85.61,85.60,85.60,85.60,85.60,85.59,85.56,85.48,85.38,85.33,85.36,85.43,85.53,85.57,85.51,85.44,85.36,85.30,85.25,85.19,85.10,84.98,84.97,85.00,85.04,85.04,85.00,84.88,84.80,84.79,84.82,84.86,84.82,84.75,84.70,84.67,84.74,84.79,84.83,84.88,84.88,84.77,84.67,84.67,84.68,84.65,84.64,84.66,84.68,84.73,84.80,84.85,84.88,84.89,84.92,84.94,84.97,84.95,84.94,84.89,84.80,84.68,84.58,84.50,84.48,84.54,84.56,84.57,84.53,84.43,84.33,84.30,84.29,84.29,84.30,84.27,84.26,84.27,84.29,84.29,84.30,84.28,84.25,84.25,84.34,84.38,84.41,84.45,84.45,84.36,84.27,84.22,84.21,84.23,84.26,84.28,84.29,84.30,84.21,84.06,83.90,83.88,83.90,83.93,83.97,84.03,84.07,84.02,83.95,83.90,83.89,83.84,83.81,83.79,83.81,83.81,83.81,83.81,83.81,83.81,83.77,83.74,83.72,83.76,83.79,83.80,83.79,83.73,83.72,83.68,83.66,83.68,83.70,83.71,83.71,83.69,83.64,83.61,83.60,83.59,83.53,83.46,83.42,83.40,83.40,83.40,83.40,83.40,83.38,83.32,83.31,83.34,83.39,83.40,83.40,83.40,83.37,83.33,83.37,83.49,83.53,83.43,83.16,83.05,83.01,83.05,83.17,83.19,83.20,83.16,83.11,83.09,82.97,82.91,82.90,82.90,83.04,83.08,83.05,82.97,82.83,82.81,82.76,82.71,82.71,82.78,82.81,82.84,82.91,82.97,82.94,82.91,82.90,82.89,82.96,82.94,82.90,82.90,82.91,82.96,82.96,82.83,82.42,82.26,82.24,82.28,82.26,82.21,82.20,82.20,82.20,82.11,82.10,82.09,82.08,82.08,82.01,81.94,81.91,81.92,81.96,81.92,81.87,81.82,81.82,81.81,81.82,81.84,81.88,81.91,81.96,81.99,81.96,81.92,81.95,81.95,81.92,81.88,81.83,81.79,81.79,81.84,82.04,82.14,82.14,82.03,81.68,81.54,81.58,81.69
85.92,85.86,85.86,85.82,85.74,85.62,85.60,85.60,85.58,85.57,85.60,85.57,85.49,85.40,85.35,85.39,85.43,85.48,85.53,85.53,85.47,85.39,85.33,85.29,85.21,85.12,85.02,84.96,85.02,85.09,85.14,85.14,85.06,84.99,84.92,84.85,84.74,84.74,84.71,84.70,84.72,84.74,84.77,84.80,84.83,84.84,84.76,84.68,84.63,84.64,84.67,84.64,84.62,84.63,84.67,84.76,84.84,84.88,84.89,84.90,84.92,84.95,84.96,84.93,84.87,84.78,84.68,84.61,84.55,84.53,84.53,84.54,84.55,84.59,84.60,84.55,84.46,84.39,84.33,84.29,84.28,84.24,84.24,84.27,84.30,84.30,84.28,84.27,84.28,84.31,84.35,84.38,84.41,84.42,84.40,84.34,84.29,84.27,84.26,84.27,84.28,84.29,84.27,84.25,84.18,84.09,83.98,83.95,83.96,83.97,83.99,84.02,84.00,83.96,83.92,83.90,83.90,83.85,83.80,83.75,83.71,83.72,83.73,83.73,83.68,83.70,83.73,83.76,83.76,83.78,83.79,83.79,83.78,83.72,83.68,83.65,83.66,83.72,83.75,83.73,83.70,83.66,83.62,83.60,83.57,83.53,83.47,83.42,83.40,83.38,83.35,83.35,83.37,83.39,83.39,83.33,83.32,83.32,83.35,83.39,83.40,83.40,83.39,83.39,83.48,83.55,83.59,83.57,83.47,83.29,83.13,83.04,83.07,83.11,83.15,83.14,83.10,83.07,83.00,82.95,82.93,82.96,83.01,82.99,82.94,82.88,82.83,82.82,82.78,82.72,82.70,82.82,82.86,82.87,82.90,82.89,82.91,82.91,82.90,82.88,82.92,82.92,82.90,82.90,82.95,82.98,82.99,82.93,82.71,82.46,82.30,82.23,82.21,82.22,82.21,82.19,82.17,82.13,82.11,82.07,82.03,82.03,81.96,81.92,81.90,81.88,81.89,81.88,81.87,81.86,81.85,81.83,81.84,81.87,81.87,81.93,81.96,81.97,81.95,81.93,81.93,81.93,81.92,81.87,81.88,81.86,81.81,81.78,81.93,82.05,82.08,81.97,81.61,81.57,81.63,81.69
85.94,85.88,85.89,85.86,85.77,85.63,85.61,85.59,85.57,85.54,85.57,85.53,85.43,85.35,85.35,85.45,85.48,85.50,85.51,85.48,85.41,85.34,85.28,85.24,85.15,85.06,84.99,84.98,85.08,85.16,85.22,85.21,85.12,85.10,85.04,84.91,84.71,84.66,84.64,84.67,84.73,84.78,84.79,84.79,84.79,84.77,84.67,84.62,84.61,84.63,84.65,84.62,84.60,84.62,84.68,84.79,84.87,84.91,84.90,84.90,84.92,84.92,84.89,84.82,84.76,84.67,84.58,84.56,84.56,84.59,84.59,84.56,84.55,84.59,84.61,84.60,84.53,84.44,84.35,84.29,84.27,84.23,84.24,84.27,84.30,84.28,84.26,84.26,84.31,84.34,84.35,84.38,84.39,84.38,84.35,84.32,84.32,84.32,84.33,84.33,84.32,84.30,84.26,84.20,84.14,84.08,84.03,84.01,84.00,84.00,84.00,84.00,83.96,83.92,83.90,83.90,83.89,83.85,83.80,83.73,83.65,83.65,83.67,83.67,83.59,83.65,83.73,83.78,83.79,83.77,83.77,83.75,83.73,83.69,83.66,83.65,83.67,83.75,83.77,83.73,83.68,83.64,83.60,83.58,83.53,83.47,83.42,83.40,83.39,83.36,83.32,83.33,83.36,83.39,83.39,83.36,83.34,83.32,83.32,83.37,83.39,83.40,83.41,83.45,83.55,83.58,83.61,83.64,83.65,83.45,83.20,83.03,83.01,83.04,83.09,83.10,83.09,83.05,83.02,82.98,82.96,82.99,82.98,82.92,82.86,82.82,82.85,82.85,82.82,82.76,82.72,82.85,82.89,82.89,82.90,82.85,82.88,82.90,82.89,82.88,82.89,82.90,82.90,82.90,82.97,82.99,82.99,82.98,82.91,82.65,82.40,82.23,82.20,82.26,82.24,82.18,82.15,82.15,82.12,82.07,82.01,81.98,81.92,81.89,81.88,81.85,81.84,81.84,81.86,81.87,81.85,81.86,81.88,81.90,81.87,81.92,81.94,81.94,81.94,81.94,81.92,81.92,81.93,81.89,81.93,81.91,81.83,81.74,81.83,81.94,81.98,81.87,81.57,81.59,81.66,81.69
85.94,85.83,85.88,85.85,85.79,85.73,85.62,85.59,85.55,85.51,85.50,85.44,85.41,85.39,85.41,85.48,85.50,85.49,85.48,85.41,85.33,85.26,85.18,85.11,85.05,85.02,85.04,85.08,85.11,85.18,85.24,85.26,85.19,85.17,85.12,84.98,84.75,84.68,84.65,84.66,84.74,84.78,84.78,84.74,84.68,84.66,84.66,84.63,84.60,84.61,84.61,84.60,84.62,84.66,84.72,84.82,84.91,84.94,84.90,84.91,84.91,84.84,84.69,84.58,84.55,84.53,84.52,84.54,84.60,84.64,84.64,84.60,84.57,84.54,84.53,84.52,84.48,84.41,84.34,84.30,84.29,84.29,84.29,84.29,84.28,84.23,84.22,84.24,84.29,84.32,84.36,84.38,84.37,84.34,84.32,84.34,84.36,84.39,84.42,84.43,84.39,84.34,84.28,84.19,84.08,84.01,84.01,84.03,84.02,84.00,84.00,84.00,83.96,83.92,83.90,83.90,83.87,83.83,83.79,83.74,83.67,83.66,83.66,83.66,83.61,83.71,83.77,83.80,83.78,83.72,83.69,83.66,83.63,83.63,83.66,83.70,83.73,83.76,83.72,83.68,83.66,83.65,83.60,83.53,83.47,83.43,83.40,83.38,83.36,83.35,83.34,83.37,83.39,83.40,83.40,83.39,83.39,83.35,83.32,83.35,83.38,83.40,83.43,83.48,83.54,83.55,83.56,83.57,83.57,83.41,83.17,83.02,83.02,83.02,83.02,83.03,83.06,83.08,83.06,83.03,83.00,83.00,82.97,82.91,82.86,82.85,82.91,82.93,82.89,82.83,82.79,82.87,82.87,82.87,82.90,82.89,82.85,82.83,82.86,82.88,82.90,82.90,82.90,82.90,82.94,82.95,82.95,82.94,82.91,82.81,82.58,82.34,82.28,82.36,82.29,82.17,82.12,82.18,82.13,82.08,82.03,81.95,81.91,81.87,81.83,81.81,81.83,81.82,81.80,81.79,81.81,81.87,81.92,81.94,81.89,81.87,81.88,81.91,81.93,81.93,81.91,81.91,81.92,81.95,81.97,81.92,81.83,81.76,81.76,81.82,81.81,81.68,81.55,81.62,81.68,81.69
85.80,85.77,85.87,85.86,85.79,85.69,85.61,85.58,85.54,85.48,85.45,85.44,85.46,85.49,85.51,85.54,85.54,85.52,85.46,85.36,85.28,85.21,85.15,85.10,85.07,85.06,85.08,85.12,85.13,85.19,85.24,85.26,85.19,85.13,85.06,84.94,84.76,84.70,84.67,84.67,84.72,84.74,84.73,84.68,84.63,84.63,84.65,84.61,84.57,84.59,84.59,84.61,84.65,84.71,84.76,84.82,84.88,84.91,84.88,84.85,84.81,84.72,84.58,84.51,84.51,84.51,84.52,84.54,84.61,84.65,84.66,84.63,84.58,84.54,84.51,84.48,84.44,84.38,84.32,84.28,84.28,84.29,84.29,84.27,84.25,84.21,84.20,84.21,84.24,84.27,84.32,84.33,84.32,84.32,84.35,84.38,84.39,84.41,84.44,84.44,84.39,84.30,84.20,84.09,84.03,84.02,84.05,84.07,84.04,84.01,83.98,83.98,83.94,83.92,83.90,83.90,83.87,83.83,83.80,83.77,83.71,83.67,83.64,83.62,83.60,83.71,83.76,83.77,83.73,83.67,83.65,83.64,83.62,83.64,83.68,83.70,83.71,83.72,83.67,83.64,83.63,83.60,83.54,83.49,83.45,83.42,83.40,83.38,83.37,83.37,83.37,83.39,83.41,83.42,83.41,83.40,83.40,83.36,83.32,83.32,83.37,83.39,83.43,83.49,83.52,83.51,83.50,83.48,83.44,83.27,83.11,83.04,83.09,83.08,83.05,83.02,83.00,83.02,83.06,83.06,83.03,83.01,83.03,82.99,82.94,82.92,82.99,83.01,82.97,82.90,82.86,82.89,82.86,82.85,82.89,82.87,82.83,82.81,82.83,82.85,82.86,82.88,82.88,82.83,82.90,82.92,82.92,82.92,82.90,82.85,82.68,82.47,82.34,82.40,82.30,82.17,82.10,82.15,82.12,82.06,81.99,81.93,81.91,81.88,81.85,81.84,81.82,81.81,81.79,81.78,81.80,81.84,81.88,81.90,81.89,81.87,81.88,81.90,81.92,81.92,81.93,81.94,81.95,81.98,81.98,81.93,81.84,81.78,81.76,81.76,81.72,81.62,81.61,81.66,81.69,81.68
85.63,85.72,85.86,85.88,85.79,85.63,85.60,85.57,85.52,85.46,85.42,85.47,85.53,85.59,85.60,85.60,85.59,85.54,85.46,85.33,85.25,85.19,85.15,85.14,85.13,85.12,85.12,85.14,85.14,85.19,85.24,85.25,85.16,85.04,84.95,84.86,84.76,84.73,84.70,84.69,84.69,84.67,84.66,84.63,84.60,84.63,84.64,84.59,84.55,84.56,84.57,84.62,84.69,84.77,84.78,84.79,84.82,84.86,84.84,84.76,84.68,84.59,84.50,84.50,84.52,84.53,84.54,84.55,84.60,84.65,84.67,84.65,84.59,84.54,84.50,84.46,84.40,84.33,84.28,84.25,84.25,84.27,84.26,84.24,84.20,84.19,84.18,84.17,84.18,84.21,84.26,84.26,84.26,84.31,84.40,84.43,84.42,84.40,84.42,84.41,84.35,84.24,84.08,83.99,83.99,84.05,84.12,84.12,84.06,84.00,83.96,83.95,83.93,83.91,83.90,83.90,83.88,83.84,83.81,83.79,83.75,83.70,83.63,83.58,83.57,83.68,83.73,83.72,83.67,83.62,83.63,83.64,83.64,83.67,83.69,83.67,83.66,83.67,83.63,83.60,83.57,83.54,83.47,83.46,83.44,83.42,83.40,83.38,83.38,83.39,83.40,83.40,83.43,83.43,83.41,83.39,83.39,83.36,83.32,83.31,83.37,83.39,83.43,83.48,83.49,83.45,83.42,83.38,83.28,83.13,83.07,83.09,83.15,83.15,83.11,83.04,82.96,82.95,83.03,83.07,83.06,83.02,83.11,83.10,83.05,83.01,83.07,83.07,83.03,82.97,82.91,82.90,82.86,82.84,82.88,82.84,82.81,82.80,82.80,82.79,82.82,82.87,82.87,82.76,82.86,82.90,82.90,82.90,82.89,82.85,82.76,82.63,82.41,82.40,82.29,82.17,82.10,82.10,82.09,82.03,81.92,81.90,81.90,81.90,81.89,81.88,81.81,81.80,81.80,81.80,81.80,81.81,81.81,81.84,81.90,81.90,81.90,81.91,81.90,81.91,81.96,81.99,81.99,82.00,81.99,81.94,81.87,81.81,81.78,81.72,81.66,81.63,81.69,81.71,81.70,81.66
85.63,85.69,85.85,85.89,85.82,85.68,85.58,85.51,85.46,85.44,85.48,85.56,85.59,85.60,85.63,85.61,85.59,85.56,85.49,85.38,85.33,85.29,85.26,85.22,85.20,85.18,85.17,85.21,85.18,85.18,85.19,85.18,85.07,84.94,84.86,84.82,84.80,84.81,84.78,84.72,84.64,84.58,84.56,84.56,84.57,84.60,84.64,84.59,84.53,84.52,84.55,84.64,84.72,84.78,84.76,84.71,84.73,84.78,84.76,84.61,84.54,84.51,84.50,84.51,84.56,84.59,84.61,84.60,84.60,84.61,84.61,84.58,84.55,84.50,84.43,84.36,84.28,84.21,84.17,84.17,84.19,84.22,84.22,84.20,84.16,84.12,84.10,84.12,84.16,84.19,84.20,84.22,84.26,84.34,84.44,84.46,84.44,84.39,84.36,84.36,84.30,84.19,84.02,83.96,84.01,84.09,84.15,84.11,84.03,83.95,83.90,83.92,83.93,83.91,83.91,83.93,83.88,83.83,83.80,83.80,83.78,83.73,83.65,83.56,83.53,83.60,83.64,83.65,83.63,83.64,83.66,83.68,83.67,83.65,83.64,83.63,83.63,83.63,83.58,83.53,83.48,83.45,83.42,83.45,83.45,83.42,83.40,83.39,83.39,83.40,83.40,83.40,83.41,83.41,83.40,83.35,83.34,83.35,83.36,83.37,83.39,83.40,83.41,83.43,83.43,83.42,83.34,83.21,83.11,83.13,83.14,83.16,83.19,83.19,83.14,83.09,83.03,82.94,82.95,82.99,83.03,83.07,83.15,83.17,83.15,83.13,83.10,83.05,83.01,82.98,82.91,82.90,82.89,82.86,82.83,82.81,82.80,82.80,82.79,82.74,82.83,82.92,82.94,82.85,82.83,82.87,82.90,82.89,82.84,82.86,82.86,82.79,82.61,82.39,82.25,82.16,82.09,82.04,82.07,82.02,81.91,81.90,81.91,81.91,81.90,81.88,81.77,81.77,81.82,81.86,81.81,81.80,81.78,81.78,81.89,81.94,81.96,81.95,81.90,81.91,81.96,82.00,82.00,81.99,82.00,81.98,81.93,81.86,81.77,81.66,81.63,81.70,81.76,81.76,81.72,81.66
85.59,85.62,85.82,85.86,85.80,85.66,85.53,85.46,85.44,85.46,85.54,85.61,85.65,85.65,85.64,85.62,85.61,85.58,85.53,85.43,85.40,85.39,85.36,85.29,85.28,85.24,85.23,85.27,85.22,85.16,85.12,85.08,84.98,84.91,84.86,84.85,84.86,84.88,84.85,84.76,84.63,84.53,84.49,84.48,84.49,84.50,84.58,84.57,84.53,84.53,84.57,84.65,84.71,84.74,84.71,84.65,84.66,84.69,84.67,84.52,84.46,84.46,84.49,84.52,84.58,84.62,84.65,84.64,84.63,84.62,84.60,84.55,84.51,84.43,84.33,84.23,84.18,84.14,84.13,84.14,84.16,84.18,84.20,84.19,84.16,84.11,84.09,84.11,84.15,84.15,84.15,84.19,84.26,84.35,84.42,84.43,84.40,84.34,84.29,84.26,84.19,84.10,84.00,84.01,84.07,84.14,84.15,84.07,83.98,83.92,83.89,83.91,83.92,83.91,83.91,83.93,83.87,83.81,83.77,83.74,83.73,83.71,83.65,83.58,83.52,83.55,83.58,83.61,83.63,83.68,83.71,83.73,83.72,83.67,83.64,83.61,83.60,83.58,83.52,83.47,83.43,83.41,83.40,83.43,83.43,83.42,83.40,83.40,83.40,83.40,83.40,83.40,83.40,83.39,83.37,83.32,83.31,83.33,83.36,83.38,83.40,83.40,83.40,83.41,83.40,83.36,83.25,83.14,83.08,83.15,83.16,83.17,83.19,83.17,83.13,83.10,83.07,82.99,82.96,82.98,83.01,83.06,83.14,83.16,83.17,83.16,83.12,83.10,83.06,82.99,82.92,82.90,82.90,82.88,82.83,82.81,82.81,82.81,82.80,82.76,82.84,82.91,82.94,82.87,82.82,82.84,82.87,82.88,82.85,82.88,82.90,82.86,82.70,82.37,82.21,82.13,82.06,82.03,82.07,82.04,81.95,81.92,81.93,81.93,81.92,81.89,81.76,81.77,81.83,81.88,81.81,81.80,81.77,81.76,81.84,81.92,81.96,81.95,81.89,81.91,81.97,81.99,81.98,81.98,81.99,81.98,81.94,81.86,81.76,81.66,81.65,81.73,81.79,81.79,81.74,81.67
85.53,85.51,85.76,85.82,85.74,85.57,85.45,85.42,85.44,85.51,85.59,85.64,85.70,85.72,85.64,85.65,85.62,85.59,85.57,85.48,85.47,85.47,85.45,85.37,85.35,85.32,85.31,85.34,85.26,85.14,85.04,84.97,84.88,84.93,84.94,84.93,84.92,84.95,84.90,84.78,84.64,84.50,84.44,84.40,84.37,84.35,84.49,84.53,84.54,84.58,84.61,84.66,84.67,84.64,84.62,84.61,84.61,84.61,84.58,84.48,84.43,84.42,84.46,84.53,84.59,84.63,84.66,84.69,84.69,84.67,84.62,84.54,84.48,84.34,84.19,84.08,84.11,84.10,84.12,84.14,84.15,84.15,84.18,84.20,84.19,84.15,84.14,84.14,84.14,84.10,84.10,84.15,84.24,84.35,84.36,84.33,84.30,84.25,84.21,84.14,84.04,83.98,84.01,84.12,84.17,84.18,84.13,84.01,83.93,83.90,83.90,83.90,83.90,83.90,83.90,83.90,83.85,83.78,83.71,83.64,83.61,83.64,83.65,83.62,83.54,83.51,83.53,83.59,83.67,83.74,83.78,83.80,83.78,83.73,83.66,83.61,83.58,83.53,83.45,83.41,83.40,83.40,83.40,83.40,83.40,83.40,83.40,83.40,83.40,83.40,83.40,83.40,83.40,83.37,83.33,83.30,83.30,83.30,83.32,83.37,83.39,83.40,83.40,83.40,83.38,83.27,83.18,83.13,83.17,83.18,83.14,83.13,83.16,83.11,83.09,83.08,83.08,83.08,83.05,83.02,83.01,83.01,83.08,83.10,83.10,83.10,83.12,83.21,83.15,83.01,82.93,82.91,82.90,82.89,82.87,82.82,82.82,82.82,82.83,82.83,82.83,82.87,82.88,82.83,82.83,82.81,82.83,82.87,82.90,82.90,82.90,82.86,82.70,82.32,82.15,82.07,82.01,82.05,82.08,82.07,82.01,81.94,81.98,81.98,81.94,81.89,81.79,81.78,81.82,81.88,81.81,81.80,81.79,81.77,81.75,81.84,81.91,81.93,81.87,81.90,81.97,81.98,81.96,81.95,81.98,81.97,81.92,81.84,81.73,81.70,81.70,81.73,81.79,81.79,81.74,81.69
85.55,85.50,85.61,85.64,85.59,85.47,85.42,85.41,85.45,85.52,85.59,85.63,85.71,85.76,85.72,85.68,85.62,85.57,85.53,85.50,85.54,85.55,85.52,85.45,85.42,85.35,85.30,85.31,85.26,85.14,85.02,84.94,84.95,84.97,84.98,84.97,84.97,84.96,84.87,84.75,84.65,84.54,84.43,84.38,84.38,84.45,84.54,84.57,84.58,84.61,84.64,84.64,84.63,84.61,84.61,84.60,84.59,84.57,84.53,84.47,84.43,84.41,84.42,84.47,84.52,84.56,84.60,84.65,84.68,84.65,84.56,84.45,84.36,84.23,84.13,84.09,84.10,84.12,84.13,84.14,84.14,84.12,84.11,84.12,84.14,84.14,84.13,84.11,84.11,84.15,84.18,84.23,84.31,84.38,84.37,84.33,84.27,84.21,84.12,84.04,84.00,84.00,84.04,84.10,84.11,84.08,84.01,83.92,83.88,83.88,83.89,83.89,83.89,83.86,83.84,83.83,83.84,83.80,83.74,83.69,83.66,83.67,83.66,83.62,83.55,83.52,83.54,83.57,83.61,83.65,83.72,83.76,83.74,83.67,83.63,83.58,83.54,83.50,83.44,83.42,83.41,83.41,83.40,83.40,83.40,83.40,83.40,83.40,83.40,83.40,83.40,83.40,83.40,83.39,83.36,83.33,83.33,83.32,83.33,83.35,83.39,83.40,83.39,83.35,83.27,83.19,83.14,83.13,83.15,83.14,83.12,83.11,83.12,83.06,83.04,83.03,83.03,83.03,83.11,83.11,83.05,83.01,83.05,83.08,83.10,83.13,83.16,83.20,83.14,83.01,82.95,82.91,82.90,82.88,82.84,82.81,82.84,82.87,82.87,82.87,82.87,82.89,82.89,82.87,82.87,82.85,82.83,82.84,82.89,82.90,82.90,82.84,82.61,82.30,82.15,82.09,82.07,82.13,82.14,82.11,82.06,81.98,81.99,81.98,81.94,81.89,81.86,81.87,81.90,81.92,81.85,81.86,81.88,81.86,81.78,81.82,81.86,81.87,81.85,81.92,81.95,81.94,81.93,81.95,81.98,81.95,81.89,81.81,81.73,81.72,81.74,81.76,81.79,81.79,81.74,81.70
85.53,85.46,85.49,85.48,85.45,85.41,85.41,85.42,85.46,85.53,85.60,85.66,85.74,85.80,85.77,85.70,85.64,85.58,85.53,85.54,85.58,85.59,85.57,85.52,85.49,85.40,85.30,85.27,85.22,85.11,85.01,84.96,85.02,85.03,85.01,85.01,85.02,84.99,84.88,84.77,84.68,84.59,84.46,84.39,84.41,84.51,84.56,84.59,84.60,84.62,84.63,84.61,84.59,84.60,84.61,84.60,84.59,84.56,84.52,84.48,84.43,84.39,84.39,84.42,84.46,84.51,84.56,84.62,84.66,84.62,84.51,84.36,84.27,84.16,84.10,84.10,84.10,84.13,84.14,84.14,84.11,84.07,84.05,84.06,84.10,84.12,84.11,84.10,84.12,84.21,84.26,84.32,84.37,84.40,84.36,84.31,84.25,84.17,84.06,84.00,83.99,84.02,84.05,84.09,84.07,84.01,83.91,83.86,83.85,83.87,83.88,83.87,83.85,83.81,83.77,83.76,83.81,83.79,83.76,83.73,83.70,83.69,83.66,83.62,83.56,83.54,83.55,83.55,83.56,83.58,83.67,83.71,83.68,83.63,83.61,83.57,83.52,83.48,83.43,83.42,83.42,83.41,83.40,83.40,83.40,83.40,83.40,83.40,83.40,83.40,83.40,83.40,83.41,83.41,83.41,83.38,83.36,83.36,83.35,83.36,83.39,83.38,83.35,83.30,83.20,83.14,83.13,83.13,83.14,83.12,83.10,83.10,83.09,83.03,83.01,83.00,83.01,83.04,83.17,83.18,83.11,83.03,83.04,83.06,83.10,83.14,83.18,83.20,83.13,83.02,82.95,82.91,82.89,82.87,82.82,82.82,82.86,82.90,82.90,82.88,82.90,82.91,82.91,82.90,82.90,82.88,82.84,82.81,82.87,82.89,82.89,82.80,82.50,82.27,82.16,82.12,82.14,82.19,82.18,82.14,82.09,82.04,82.02,81.99,81.95,81.92,81.91,81.94,81.96,81.94,81.90,81.93,81.95,81.91,81.81,81.81,81.83,81.85,81.84,81.93,81.93,81.92,81.92,81.92,81.96,81.93,81.87,81.79,81.74,81.76,81.79,81.80,81.81,81.80,81.76,81.72
85.45,85.37,85.39,85.37,85.37,85.42,85.43,85.47,85.50,85.55,85.63,85.75,85.80,85.80,85.78,85.72,85.69,85.65,85.60,85.61,85.60,85.60,85.59,85.59,85.56,85.45,85.31,85.18,85.11,85.05,85.02,85.04,85.11,85.10,85.05,85.02,85.06,85.06,84.97,84.86,84.76,84.65,84.53,84.46,84.43,84.45,84.50,84.55,84.57,84.57,84.56,84.56,84.58,84.61,84.62,84.60,84.59,84.58,84.57,84.50,84.43,84.38,84.37,84.40,84.44,84.50,84.56,84.59,84.63,84.59,84.47,84.29,84.20,84.14,84.11,84.10,84.10,84.12,84.14,84.12,84.04,83.99,84.01,84.05,84.08,84.09,84.10,84.13,84.20,84.30,84.37,84.42,84.44,84.39,84.31,84.27,84.21,84.13,84.06,84.04,84.03,84.04,84.05,84.08,84.06,84.00,83.89,83.86,83.86,83.86,83.85,83.81,83.78,83.72,83.69,83.71,83.75,83.74,83.74,83.75,83.71,83.67,83.64,83.62,83.59,83.57,83.54,83.52,83.52,83.56,83.63,83.66,83.64,83.63,83.62,83.59,83.54,83.49,83.43,83.43,83.42,83.41,83.40,83.40,83.40,83.40,83.40,83.40,83.40,83.40,83.40,83.40,83.42,83.44,83.45,83.44,83.41,83.40,83.39,83.39,83.40,83.35,83.29,83.23,83.18,83.16,83.15,83.14,83.14,83.12,83.10,83.10,83.09,83.03,83.01,83.00,83.03,83.14,83.24,83.23,83.16,83.08,83.03,83.03,83.07,83.13,83.18,83.20,83.14,83.04,82.93,82.91,82.87,82.85,82.86,82.86,82.88,82.90,82.89,82.84,82.88,82.93,82.94,82.90,82.90,82.90,82.86,82.80,82.83,82.88,82.87,82.74,82.37,82.24,82.18,82.17,82.19,82.20,82.20,82.16,82.10,82.13,82.09,82.03,81.99,81.97,81.92,81.96,81.97,81.93,81.97,82.02,81.99,81.89,81.81,81.85,81.87,81.88,81.88,81.91,81.91,81.93,81.94,81.85,81.90,81.91,81.87,81.80,81.79,81.83,81.87,81.87,81.86,81.82,81.79,81.78
85.25,85.19,85.28,85.33,85.39,85.47,85.52,85.53,85.54,85.60,85.69,85.81,85.85,85.83,85.79,85.76,85.73,85.69,85.66,85.67,85.64,85.62,85.61,85.60,85.57,85.47,85.32,85.15,85.10,85.08,85.09,85.12,85.17,85.17,85.12,85.09,85.15,85.14,85.07,84.97,84.84,84.67,84.58,84.53,84.49,84.46,84.46,84.49,84.51,84.51,84.52,84.55,84.58,84.59,84.58,84.57,84.57,84.57,84.56,84.51,84.45,84.40,84.38,84.41,84.44,84.48,84.52,84.53,84.58,84.57,84.48,84.33,84.24,84.18,84.14,84.12,84.12,84.16,84.17,84.13,84.05,84.02,84.03,84.05,84.05,84.07,84.12,84.18,84.26,84.34,84.37,84.41,84.42,84.38,84.26,84.18,84.13,84.09,84.07,84.07,84.06,84.05,84.05,84.07,84.06,84.00,83.91,83.87,83.88,83.88,83.86,83.83,83.80,83.74,83.67,83.66,83.70,83.68,83.67,83.68,83.68,83.64,83.62,83.61,83.60,83.57,83.53,83.51,83.50,83.51,83.56,83.59,83.61,83.65,83.63,83.60,83.56,83.51,83.44,83.42,83.41,83.40,83.40,83.40,83.40,83.40,83.40,83.40,83.40,83.40,83.40,83.43,83.47,83.51,83.51,83.49,83.46,83.44,83.43,83.41,83.35,83.29,83.24,83.21,83.19,83.16,83.13,83.12,83.12,83.11,83.08,83.06,83.05,83.02,83.00,83.04,83.13,83.22,83.24,83.21,83.17,83.17,83.14,83.10,83.07,83.08,83.10,83.14,83.12,83.07,83.00,82.93,82.89,82.87,82.88,82.88,82.87,82.84,82.82,82.85,82.86,82.92,82.96,82.90,82.90,82.90,82.88,82.84,82.81,82.87,82.82,82.64,82.32,82.26,82.24,82.24,82.25,82.21,82.20,82.18,82.15,82.17,82.11,82.07,82.03,81.99,82.00,82.00,81.99,81.97,82.03,82.03,81.98,81.90,81.86,81.88,81.89,81.88,81.86,81.90,81.90,81.91,81.92,81.87,81.89,81.90,81.87,81.80,81.81,81.86,81.90,81.90,81.88,81.83,81.78,81.76
85.04,85.01,85.18,85.31,85.42,85.53,85.61,85.59,85.58,85.64,85.75,85.86,85.90,85.87,85.80,85.79,85.76,85.73,85.71,85.72,85.67,85.64,85.63,85.61,85.57,85.47,85.31,85.14,85.12,85.15,85.18,85.20,85.21,85.22,85.18,85.17,85.24,85.19,85.13,85.04,84.89,84.67,84.62,84.60,84.56,84.49,84.44,84.43,84.44,84.45,84.49,84.56,84.58,84.56,84.52,84.53,84.54,84.54,84.54,84.51,84.47,84.42,84.40,84.41,84.44,84.46,84.46,84.47,84.55,84.56,84.51,84.40,84.30,84.22,84.17,84.14,84.15,84.20,84.20,84.14,84.07,84.06,84.05,84.04,84.03,84.07,84.16,84.24,84.30,84.35,84.34,84.35,84.36,84.33,84.19,84.09,84.05,84.06,84.08,84.09,84.07,84.05,84.04,84.07,84.05,84.00,83.91,83.89,83.89,83.88,83.87,83.85,83.83,83.76,83.68,83.62,83.65,83.62,83.60,83.60,83.63,83.62,83.61,83.61,83.60,83.55,83.51,83.49,83.49,83.47,83.49,83.53,83.59,83.66,83.65,83.62,83.59,83.53,83.46,83.42,83.41,83.40,83.40,83.40,83.40,83.40,83.40,83.40,83.40,83.40,83.41,83.46,83.53,83.57,83.57,83.53,83.50,83.49,83.46,83.41,83.30,83.24,83.21,83.20,83.19,83.15,83.11,83.10,83.10,83.09,83.06,83.02,83.02,83.01,83.03,83.12,83.25,83.30,83.25,83.19,83.18,83.26,83.27,83.19,83.09,83.03,83.02,83.07,83.10,83.11,83.10,82.98,82.92,82.91,82.91,82.91,82.85,82.79,82.76,82.89,82.87,82.92,82.96,82.90,82.90,82.90,82.90,82.89,82.81,82.87,82.77,82.54,82.32,82.31,82.31,82.31,82.30,82.23,82.21,82.21,82.20,82.20,82.13,82.11,82.09,82.02,82.08,82.05,82.02,82.04,82.09,82.03,81.96,81.92,81.92,81.91,81.90,81.87,81.83,81.88,81.89,81.89,81.90,81.90,81.90,81.90,81.87,81.82,81.83,81.88,81.92,81.91,81.89,81.83,81.77,81.74
84.89,84.97,85.11,85.25,85.39,85.52,85.62,85.63,85.62,85.64,85.75,85.86,85.90,85.87,85.80,85.80,85.78,85.75,85.71,85.73,85.70,85.68,85.66,85.63,85.53,85.39,85.26,85.18,85.22,85.23,85.25,85.25,85.21,85.21,85.23,85.24,85.25,85.15,85.04,84.92,84.78,84.68,84.66,84.65,84.63,84.58,84.50,84.44,84.40,84.41,84.50,84.56,84.56,84.53,84.51,84.50,84.49,84.49,84.51,84.49,84.44,84.40,84.38,84.38,84.40,84.39,84.37,84.43,84.56,84.61,84.58,84.47,84.35,84.27,84.21,84.18,84.19,84.19,84.15,84.08,84.01,84.01,84.04,84.05,84.04,84.11,84.20,84.25,84.28,84.29,84.29,84.29,84.26,84.19,84.03,84.01,84.04,84.08,84.09,84.05,84.00,83.96,83.98,84.02,83.98,83.91,83.84,83.83,83.83,83.83,83.83,83.82,83.79,83.74,83.67,83.60,83.59,83.60,83.58,83.56,83.58,83.60,83.62,83.64,83.63,83.53,83.46,83.43,83.43,83.46,83.49,83.53,83.58,83.66,83.68,83.65,83.61,83.58,83.52,83.49,83.46,83.42,83.40,83.40,83.40,83.40,83.40,83.40,83.40,83.42,83.47,83.53,83.57,83.59,83.58,83.57,83.53,83.50,83.45,83.36,83.30,83.25,83.21,83.19,83.15,83.12,83.10,83.10,83.10,83.05,83.02,83.03,83.07,83.05,83.18,83.30,83.36,83.36,83.31,83.27,83.26,83.28,83.29,83.27,83.18,83.06,83.02,83.06,83.11,83.15,83.13,83.08,83.03,82.99,82.99,82.97,82.92,82.85,82.83,82.97,83.08,83.04,82.94,82.90,82.90,82.90,82.90,82.89,82.82,82.86,82.75,82.53,82.39,82.39,82.35,82.33,82.37,82.30,82.26,82.24,82.23,82.18,82.14,82.15,82.15,82.08,82.10,82.09,82.11,82.15,82.12,82.05,82.01,81.98,81.96,81.93,81.91,81.89,81.86,81.87,81.85,81.86,81.90,81.92,81.91,81.90,81.89,81.88,81.88,81.92,81.95,81.94,81.90,81.86,81.81,81.77
84.75,84.90,85.04,85.19,85.32,85.42,85.49,85.52,85.56,85.63,85.71,85.83,85.88,85.87,85.80,85.78,85.80,85.77,85.71,85.71,85.68,85.66,85.64,85.59,85.46,85.33,85.24,85.21,85.27,85.28,85.28,85.27,85.21,85.24,85.28,85.28,85.22,85.09,84.98,84.87,84.78,84.72,84.69,84.69,84.69,84.65,84.58,84.47,84.39,84.37,84.46,84.50,84.50,84.48,84.47,84.48,84.48,84.46,84.46,84.46,84.44,84.41,84.38,84.37,84.38,84.39,84.42,84.50,84.61,84.66,84.63,84.54,84.42,84.33,84.26,84.20,84.15,84.13,84.10,84.05,83.99,84.00,84.05,84.10,84.13,84.17,84.24,84.27,84.26,84.24,84.24,84.21,84.15,84.05,83.98,84.01,84.06,84.09,84.09,84.05,84.00,83.97,83.96,83.95,83.91,83.85,83.81,83.81,83.81,83.80,83.80,83.78,83.76,83.73,83.68,83.61,83.56,83.54,83.52,83.53,83.58,83.62,83.63,83.61,83.56,83.49,83.45,83.44,83.46,83.49,83.50,83.52,83.55,83.62,83.68,83.69,83.65,83.61,83.57,83.53,83.49,83.44,83.41,83.40,83.40,83.40,83.40,83.41,83.42,83.46,83.52,83.57,83.58,83.58,83.57,83.55,83.51,83.46,83.41,83.32,83.27,83.22,83.20,83.18,83.13,83.11,83.11,83.10,83.10,83.04,83.02,83.05,83.15,83.23,83.35,83.41,83.41,83.37,83.32,83.30,83.29,83.26,83.28,83.28,83.23,83.15,83.08,83.06,83.09,83.13,83.16,83.15,83.09,83.04,83.03,82.97,82.93,82.90,82.92,83.09,83.23,83.20,83.08,82.98,82.97,82.92,82.89,82.89,82.84,82.82,82.68,82.49,82.45,82.45,82.41,82.38,82.41,82.38,82.33,82.31,82.30,82.19,82.16,82.17,82.17,82.12,82.12,82.11,82.14,82.19,82.16,82.10,82.06,82.02,81.95,81.94,81.92,81.89,81.86,81.86,81.84,81.86,81.91,81.93,81.91,81.90,81.89,81.88,81.90,81.93,81.93,81.92,81.89,81.86,81.82,81.78
84.62,84.83,84.98,85.13,85.23,85.25,85.27,85.30,85.43,85.61,85.64,85.78,85.86,85.86,85.79,85.75,85.81,85.80,85.70,85.69,85.64,85.61,85.58,85.49,85.36,85.29,85.25,85.23,85.29,85.30,85.29,85.27,85.22,85.28,85.33,85.30,85.16,85.02,84.93,84.89,84.86,84.78,84.74,84.74,84.76,84.70,84.65,84.53,84.41,84.34,84.39,84.40,84.40,84.41,84.43,84.48,84.49,84.45,84.40,84.42,84.45,84.45,84.40,84.37,84.37,84.44,84.56,84.64,84.68,84.70,84.68,84.61,84.49,84.41,84.32,84.20,84.07,84.05,84.05,84.05,84.00,84.00,84.07,84.17,84.26,84.25,84.28,84.28,84.24,84.20,84.19,84.12,84.01,83.93,83.99,84.06,84.10,84.09,84.06,84.06,84.06,84.04,83.96,83.87,83.83,83.81,83.81,83.80,83.80,83.80,83.78,83.74,83.75,83.74,83.70,83.63,83.55,83.45,83.43,83.50,83.63,83.67,83.62,83.53,83.43,83.45,83.47,83.51,83.54,83.56,83.53,83.51,83.51,83.55,83.67,83.72,83.70,83.63,83.61,83.57,83.52,83.45,83.41,83.40,83.40,83.40,83.40,83.42,83.46,83.52,83.56,83.59,83.56,83.54,83.52,83.49,83.46,83.40,83.33,83.30,83.22,83.18,83.17,83.16,83.12,83.13,83.12,83.11,83.10,83.04,83.03,83.09,83.25,83.49,83.53,83.49,83.43,83.33,83.31,83.30,83.28,83.22,83.24,83.24,83.25,83.27,83.17,83.07,83.03,83.08,83.20,83.20,83.13,83.07,83.05,82.93,82.90,82.94,83.05,83.22,83.34,83.39,83.33,83.13,83.09,82.96,82.88,82.90,82.86,82.76,82.58,82.43,82.50,82.50,82.47,82.45,82.45,82.45,82.42,82.42,82.41,82.22,82.20,82.18,82.15,82.15,82.15,82.12,82.13,82.20,82.20,82.17,82.12,82.05,81.90,81.93,81.92,81.89,81.85,81.85,81.86,81.88,81.91,81.94,81.91,81.90,81.88,81.85,81.89,81.89,81.88,81.85,81.89,81.86,81.82,81.78
84.58,85.00,85.10,85.17,85.20,85.20,85.17,85.15,85.31,85.58,85.68,85.74,85.82,85.88,85.86,85.85,85.89,85.87,85.76,85.74,85.64,85.56,85.51,85.45,85.43,85.38,85.32,85.28,85.31,85.35,85.39,85.43,85.44,85.43,85.40,85.32,85.15,85.04,84.99,84.95,84.91,84.87,84.86,84.88,84.90,84.84,84.70,84.59,84.49,84.41,84.37,84.39,84.40,84.40,84.42,84.45,84.45,84.43,84.41,84.44,84.48,84.49,84.47,84.46,84.50,84.58,84.67,84.70,84.71,84.70,84.66,84.62,84.56,84.50,84.41,84.28,84.15,84.07,84.04,84.04,84.02,84.04,84.11,84.19,84.26,84.27,84.27,84.23,84.19,84.15,84.12,84.06,84.00,84.00,84.06,84.09,84.10,84.10,84.07,84.08,84.08,84.04,83.95,83.86,83.84,83.84,83.86,83.83,83.80,83.77,83.73,83.70,83.71,83.71,83.67,83.62,83.53,83.41,83.37,83.44,83.56,83.59,83.56,83.50,83.44,83.43,83.44,83.45,83.45,83.48,83.51,83.52,83.51,83.52,83.59,83.65,83.67,83.64,83.63,83.62,83.58,83.53,83.48,83.44,83.41,83.40,83.42,83.47,83.52,83.56,83.56,83.56,83.57,83.57,83.55,83.45,83.39,83.34,83.30,83.27,83.18,83.14,83.12,83.10,83.10,83.16,83.17,83.15,83.14,83.08,83.08,83.18,83.37,83.54,83.56,83.54,83.50,83.40,83.34,83.31,83.29,83.25,83.26,83.24,83.24,83.25,83.23,83.14,83.05,83.02,83.09,83.11,83.07,83.03,83.02,82.96,82.94,83.04,83.21,83.30,83.35,83.38,83.37,83.30,83.27,83.16,83.01,82.87,82.87,82.72,82.56,82.46,82.50,82.53,82.49,82.45,82.48,82.48,82.43,82.43,82.45,82.32,82.26,82.23,82.22,82.22,82.22,82.20,82.17,82.15,82.12,82.15,82.10,81.98,81.90,81.91,81.91,81.89,81.88,81.88,81.88,81.87,81.87,81.91,81.90,81.90,81.91,81.92,81.94,81.92,81.89,81.87,81.89,81.85,81.81,81.77
84.70,85.12,85.16,85.17,85.16,85.15,85.09,85.08,85.28,85.61,85.74,85.71,85.78,85.86,85.89,85.91,85.95,85.92,85.81,85.77,85.64,85.54,85.48,85.42,85.46,85.44,85.39,85.34,85.35,85.39,85.46,85.54,85.58,85.51,85.43,85.31,85.16,85.10,85.08,85.04,84.98,84.96,84.96,84.98,84.98,84.91,84.71,84.62,84.56,84.47,84.38,84.39,84.40,84.39,84.40,84.41,84.41,84.42,84.44,84.47,84.52,84.55,84.55,84.55,84.61,84.69,84.75,84.75,84.73,84.70,84.65,84.61,84.59,84.55,84.47,84.35,84.22,84.12,84.06,84.05,84.05,84.09,84.15,84.22,84.27,84.27,84.25,84.20,84.13,84.08,84.05,84.01,84.01,84.06,84.09,84.09,84.10,84.10,84.07,84.07,84.05,84.00,83.90,83.83,83.83,83.86,83.88,83.84,83.79,83.74,83.70,83.67,83.69,83.68,83.65,83.60,83.51,83.40,83.36,83.42,83.50,83.54,83.53,83.50,83.45,83.43,83.43,83.44,83.44,83.48,83.53,83.54,83.53,83.51,83.54,83.59,83.63,83.66,83.66,83.66,83.64,83.60,83.55,83.50,83.45,83.43,83.46,83.52,83.57,83.59,83.57,83.56,83.58,83.58,83.53,83.40,83.33,83.30,83.29,83.26,83.18,83.12,83.08,83.07,83.10,83.18,83.20,83.18,83.18,83.13,83.13,83.24,83.44,83.53,83.54,83.54,83.53,83.46,83.37,83.32,83.30,83.28,83.27,83.26,83.25,83.25,83.23,83.18,83.08,83.00,83.00,83.04,83.02,83.00,83.02,83.00,83.02,83.14,83.31,83.36,83.36,83.37,83.38,83.40,83.38,83.31,83.17,82.98,82.86,82.66,82.53,82.48,82.50,82.52,82.46,82.43,82.50,82.50,82.45,82.44,82.46,82.38,82.31,82.27,82.27,82.30,82.32,82.30,82.22,82.10,82.03,82.10,82.04,81.91,81.90,81.88,81.89,81.90,81.90,81.90,81.88,81.86,81.86,81.90,81.90,81.92,81.95,82.00,82.00,81.97,81.94,81.91,81.92,81.87,81.81,81.77
85.07,85.18,85.13,85.11,85.10,85.08,85.07,85.14,85.39,85.74,85.84,85.71,85.71,85.79,85.87,85.90,85.95,85.93,85.83,85.75,85.63,85.57,85.53,85.41,85.46,85.47,85.46,85.42,85.42,85.41,85.46,85.55,85.58,85.50,85.38,85.26,85.19,85.21,85.20,85.15,85.07,85.04,85.02,85.01,84.97,84.87,84.68,84.62,84.60,84.52,84.42,84.41,84.40,84.36,84.35,84.34,84.37,84.42,84.49,84.51,84.57,84.61,84.62,84.62,84.68,84.75,84.79,84.79,84.76,84.71,84.64,84.58,84.56,84.54,84.49,84.41,84.29,84.19,84.12,84.10,84.11,84.15,84.21,84.27,84.30,84.25,84.22,84.17,84.09,83.99,83.97,83.98,84.02,84.08,84.07,84.07,84.08,84.09,84.06,84.01,83.96,83.89,83.81,83.78,83.80,83.84,83.86,83.81,83.75,83.71,83.68,83.65,83.67,83.67,83.65,83.58,83.51,83.46,83.45,83.47,83.47,83.50,83.54,83.54,83.48,83.43,83.45,83.49,83.55,83.60,83.61,83.60,83.56,83.53,83.51,83.54,83.60,83.67,83.69,83.69,83.68,83.67,83.65,83.60,83.53,83.50,83.53,83.57,83.59,83.60,83.59,83.58,83.58,83.54,83.44,83.34,83.31,83.30,83.29,83.27,83.21,83.12,83.06,83.07,83.13,83.19,83.21,83.21,83.25,83.20,83.19,83.26,83.40,83.45,83.46,83.48,83.50,83.49,83.42,83.35,83.31,83.30,83.30,83.29,83.29,83.27,83.18,83.18,83.14,83.05,82.94,82.99,82.96,82.97,83.06,83.07,83.16,83.25,83.32,83.38,83.38,83.36,83.35,83.39,83.40,83.39,83.37,83.29,82.83,82.56,82.47,82.50,82.50,82.45,82.38,82.38,82.50,82.50,82.49,82.46,82.42,82.40,82.33,82.30,82.32,82.39,82.45,82.41,82.28,82.07,81.95,81.99,81.93,81.84,81.89,81.84,81.86,81.90,81.90,81.89,81.85,81.85,81.89,81.90,81.91,81.95,82.02,82.08,82.08,82.07,82.04,81.99,81.99,81.92,81.83,81.77
85.17,85.16,85.12,85.10,85.08,85.05,85.13,85.35,85.63,85.87,85.87,85.74,85.70,85.73,85.79,85.87,85.92,85.88,85.76,85.70,85.63,85.63,85.64,85.52,85.52,85.53,85.52,85.50,85.50,85.49,85.52,85.56,85.52,85.44,85.35,85.28,85.26,85.24,85.21,85.15,85.06,85.06,85.06,85.02,84.95,84.85,84.69,84.64,84.61,84.53,84.47,84.49,84.45,84.37,84.31,84.29,84.33,84.41,84.50,84.52,84.59,84.65,84.69,84.67,84.70,84.74,84.76,84.76,84.75,84.70,84.63,84.56,84.53,84.51,84.46,84.37,84.25,84.18,84.15,84.14,84.16,84.19,84.25,84.28,84.28,84.19,84.14,84.09,84.03,83.96,83.98,84.02,84.06,84.09,84.08,84.08,84.09,84.09,84.02,83.93,83.89,83.86,83.81,83.79,83.80,83.81,83.80,83.72,83.68,83.68,83.69,83.67,83.66,83.64,83.60,83.56,83.53,83.50,83.47,83.46,83.46,83.49,83.53,83.55,83.51,83.46,83.50,83.57,83.63,83.66,83.65,83.60,83.55,83.52,83.48,83.49,83.54,83.62,83.67,83.68,83.66,83.64,83.64,83.61,83.56,83.52,83.56,83.59,83.60,83.60,83.59,83.53,83.48,83.42,83.36,83.31,83.28,83.27,83.29,83.29,83.26,83.19,83.14,83.14,83.17,83.20,83.18,83.17,83.22,83.24,83.25,83.27,83.31,83.32,83.37,83.44,83.49,83.50,83.44,83.38,83.34,83.31,83.27,83.28,83.31,83.33,83.24,83.21,83.13,83.04,82.98,82.96,82.93,82.95,83.03,83.07,83.25,83.38,83.40,83.40,83.40,83.38,83.36,83.35,83.35,83.35,83.36,83.30,82.82,82.57,82.47,82.48,82.51,82.48,82.44,82.44,82.47,82.47,82.45,82.44,82.44,82.44,82.38,82.35,82.37,82.43,82.43,82.38,82.28,82.13,82.05,81.98,81.92,81.87,81.90,81.90,81.90,81.90,81.90,81.90,81.84,81.84,81.89,81.85,81.87,81.95,82.04,82.11,82.13,82.12,82.11,82.11,82.10,82.06,81.99,81.92
85.18,85.14,85.10,85.09,85.07,85.07,85.26,85.60,85.86,85.97,85.88,85.78,85.71,85.68,85.71,85.82,85.87,85.82,85.67,85.65,85.65,85.71,85.75,85.65,85.61,85.59,85.58,85.58,85.57,85.57,85.57,85.55,85.45,85.39,85.34,85.33,85.34,85.25,85.18,85.11,85.04,85.07,85.08,85.03,84.93,84.84,84.72,84.66,84.61,84.53,84.53,84.57,84.53,84.41,84.31,84.27,84.31,84.40,84.50,84.53,84.61,84.69,84.75,84.71,84.71,84.71,84.72,84.72,84.71,84.67,84.61,84.54,84.51,84.48,84.41,84.30,84.19,84.16,84.17,84.19,84.20,84.22,84.26,84.28,84.25,84.15,84.07,84.02,83.98,83.96,84.00,84.05,84.09,84.10,84.09,84.09,84.09,84.07,83.96,83.86,83.82,83.83,83.82,83.80,83.80,83.79,83.75,83.65,83.63,83.65,83.69,83.69,83.66,83.61,83.56,83.55,83.54,83.51,83.47,83.44,83.44,83.47,83.51,83.54,83.53,83.51,83.57,83.64,83.70,83.70,83.66,83.60,83.54,83.50,83.46,83.45,83.49,83.56,83.64,83.64,83.62,83.59,83.59,83.59,83.56,83.54,83.56,83.59,83.60,83.59,83.58,83.47,83.37,83.31,83.29,83.30,83.25,83.25,83.28,83.31,83.31,83.27,83.22,83.19,83.19,83.19,83.16,83.13,83.18,83.25,83.28,83.27,83.22,83.21,83.30,83.39,83.47,83.49,83.44,83.41,83.38,83.33,83.25,83.26,83.32,83.37,83.30,83.22,83.12,83.04,83.04,82.98,82.94,82.93,82.98,83.04,83.29,83.45,83.47,83.40,83.40,83.40,83.38,83.33,83.31,83.30,83.30,83.24,82.83,82.62,82.50,82.47,82.55,82.54,82.54,82.53,82.47,82.45,82.42,82.43,82.47,82.47,82.42,82.40,82.41,82.44,82.38,82.33,82.26,82.20,82.17,82.01,81.93,81.93,81.91,81.97,81.94,81.90,81.90,81.92,81.85,81.84,81.88,81.81,81.85,81.95,82.06,82.11,82.15,82.15,82.16,82.21,82.21,82.20,82.16,82.08
85.13,85.11,85.06,85.05,85.10,85.25,85.63,85.85,85.96,85.96,85.84,85.79,85.74,85.69,85.69,85.75,85.79,85.75,85.63,85.68,85.73,85.77,85.78,85.74,85.69,85.66,85.65,85.65,85.64,85.60,85.55,85.48,85.37,85.38,85.38,85.37,85.37,85.26,85.13,85.04,85.03,85.09,85.07,84.99,84.89,84.82,84.74,84.64,84.57,84.57,84.59,84.64,84.63,84.55,84.41,84.31,84.32,84.40,84.52,84.58,84.66,84.74,84.78,84.75,84.70,84.67,84.67,84.68,84.64,84.61,84.57,84.51,84.50,84.44,84.33,84.20,84.16,84.18,84.20,84.23,84.24,84.21,84.22,84.22,84.21,84.16,84.09,84.04,84.03,84.03,84.01,84.03,84.07,84.10,84.10,84.10,84.07,84.00,83.89,83.83,83.80,83.78,83.77,83.79,83.80,83.78,83.75,83.69,83.66,83.65,83.67,83.70,83.66,83.62,83.58,83.55,83.52,83.49,83.43,83.37,83.38,83.40,83.44,83.49,83.55,83.56,83.61,83.66,83.70,83.69,83.65,83.60,83.56,83.52,83.45,83.42,83.43,83.49,83.59,83.59,83.55,83.51,83.49,83.51,83.54,83.56,83.54,83.56,83.58,83.57,83.52,83.44,83.35,83.29,83.26,83.28,83.25,83.26,83.30,83.35,83.36,83.30,83.21,83.14,83.13,83.12,83.12,83.12,83.16,83.20,83.22,83.22,83.21,83.24,83.27,83.32,83.38,83.46,83.43,83.40,83.38,83.37,83.29,83.28,83.31,83.33,83.23,83.13,83.08,83.09,83.13,83.12,83.05,82.97,82.93,82.94,83.18,83.35,83.39,83.35,83.36,83.38,83.39,83.36,83.31,83.31,83.31,83.22,82.90,82.70,82.59,82.58,82.66,82.62,82.64,82.64,82.59,82.56,82.48,82.43,82.42,82.42,82.41,82.40,82.38,82.34,82.32,82.29,82.24,82.19,82.13,82.03,81.98,81.96,81.90,81.95,81.93,81.90,81.91,81.95,81.87,81.84,81.89,81.85,81.93,82.02,82.09,82.10,82.12,82.14,82.18,82.24,82.23,82.21,82.18,82.13
85.10,85.06,85.03,85.05,85.22,85.55,85.85,85.96,85.96,85.89,85.82,85.80,85.77,85.73,85.71,85.66,85.67,85.68,85.67,85.76,85.81,85.81,85.81,85.81,85.73,85.72,85.72,85.72,85.68,85.61,85.53,85.44,85.37,85.42,85.43,85.42,85.38,85.27,85.14,85.07,85.07,85.06,85.01,84.92,84.83,84.76,84.70,84.63,84.60,84.66,84.70,84.72,84.69,84.60,84.50,84.40,84.35,84.39,84.50,84.60,84.71,84.78,84.81,84.76,84.69,84.64,84.60,84.60,84.58,84.57,84.54,84.49,84.46,84.38,84.28,84.19,84.18,84.22,84.25,84.26,84.26,84.22,84.19,84.17,84.14,84.11,84.06,84.05,84.05,84.06,84.03,84.03,84.06,84.10,84.08,84.06,84.01,83.93,83.85,83.84,83.81,83.79,83.77,83.79,83.79,83.78,83.76,83.73,83.69,83.67,83.67,83.67,83.64,83.61,83.59,83.56,83.53,83.51,83.47,83.39,83.34,83.36,83.40,83.46,83.54,83.57,83.62,83.66,83.68,83.66,83.61,83.57,83.54,83.50,83.45,83.42,83.41,83.44,83.51,83.50,83.47,83.45,83.47,83.50,83.54,83.57,83.54,83.54,83.54,83.52,83.47,83.39,83.32,83.27,83.25,83.26,83.25,83.26,83.29,83.32,83.33,83.30,83.23,83.16,83.13,83.11,83.10,83.11,83.15,83.19,83.20,83.20,83.20,83.23,83.23,83.24,83.28,83.39,83.39,83.36,83.35,83.38,83.32,83.29,83.27,83.25,83.17,83.11,83.10,83.13,83.16,83.17,83.13,83.05,82.95,82.90,83.05,83.18,83.24,83.25,83.29,83.35,83.39,83.36,83.31,83.33,83.29,83.13,82.87,82.71,82.64,82.64,82.70,82.67,82.68,82.69,82.66,82.63,82.51,82.42,82.41,82.45,82.43,82.44,82.42,82.35,82.31,82.26,82.22,82.19,82.11,82.03,82.00,81.98,81.90,81.90,81.90,81.90,81.91,81.95,81.88,81.87,81.92,81.89,82.00,82.07,82.11,82.13,82.11,82.14,82.20,82.27,82.26,82.22,82.19,82.16
85.07,85.00,85.02,85.10,85.40,85.92,85.99,85.99,85.91,85.80,85.80,85.80,85.80,85.79,85.76,85.55,85.52,85.60,85.75,85.88,85.89,85.85,85.82,85.86,85.75,85.76,85.79,85.77,85.69,85.60,85.50,85.41,85.43,85.49,85.50,85.47,85.39,85.29,85.19,85.14,85.13,85.01,84.92,84.84,84.76,84.68,84.64,84.64,84.68,84.76,84.83,84.82,84.73,84.61,84.59,84.50,84.40,84.37,84.44,84.60,84.74,84.82,84.83,84.76,84.68,84.61,84.54,84.49,84.51,84.53,84.53,84.48,84.41,84.30,84.23,84.22,84.25,84.29,84.30,84.28,84.26,84.22,84.18,84.13,84.05,84.02,84.02,84.04,84.06,84.07,84.04,84.05,84.07,84.09,84.05,83.99,83.92,83.85,83.83,83.86,83.86,83.83,83.80,83.79,83.78,83.77,83.78,83.76,83.73,83.70,83.67,83.63,83.61,83.60,83.59,83.58,83.56,83.57,83.55,83.45,83.33,83.32,83.37,83.45,83.52,83.56,83.61,83.65,83.65,83.61,83.55,83.51,83.49,83.46,83.45,83.43,83.41,83.40,83.41,83.39,83.38,83.40,83.49,83.54,83.57,83.58,83.56,83.52,83.49,83.45,83.41,83.34,83.29,83.26,83.24,83.22,83.25,83.27,83.26,83.25,83.25,83.27,83.26,83.21,83.17,83.13,83.11,83.11,83.14,83.21,83.22,83.21,83.20,83.20,83.17,83.15,83.18,83.30,83.34,83.31,83.30,83.37,83.36,83.30,83.22,83.15,83.12,83.14,83.16,83.16,83.16,83.18,83.19,83.15,83.03,82.89,82.90,82.97,83.04,83.12,83.20,83.31,83.38,83.36,83.31,83.35,83.26,83.00,82.78,82.68,82.65,82.67,82.70,82.70,82.70,82.70,82.70,82.67,82.53,82.43,82.42,82.52,82.49,82.50,82.51,82.43,82.33,82.24,82.20,82.19,82.11,82.03,82.00,81.98,81.90,81.85,81.87,81.90,81.90,81.92,81.90,81.91,81.96,81.92,82.05,82.10,82.12,82.17,82.12,82.16,82.23,82.30,82.29,82.23,82.20,82.17
85.03,85.03,85.38,85.64,85.84,85.99,85.96,85.93,85.87,85.80,85.80,85.80,85.79,85.77,85.75,85.58,85.54,85.61,85.75,85.82,85.86,85.84,85.81,85.81,85.74,85.75,85.76,85.71,85.62,85.56,85.51,85.49,85.50,85.55,85.56,85.53,85.46,85.35,85.25,85.17,85.14,85.04,84.93,84.85,84.80,84.76,84.75,84.78,84.84,84.87,84.89,84.83,84.74,84.66,84.64,84.54,84.44,84.37,84.39,84.49,84.63,84.73,84.73,84.67,84.59,84.53,84.49,84.48,84.46,84.47,84.47,84.44,84.44,84.40,84.34,84.28,84.31,84.32,84.29,84.25,84.21,84.21,84.16,84.10,84.06,84.03,84.06,84.08,84.08,84.08,84.06,84.07,84.08,84.04,83.95,83.89,83.86,83.84,83.81,83.82,83.81,83.79,83.78,83.77,83.74,83.74,83.76,83.77,83.74,83.70,83.65,83.61,83.62,83.61,83.59,83.56,83.57,83.61,83.60,83.51,83.37,83.33,83.37,83.46,83.55,83.58,83.60,83.61,83.59,83.57,83.55,83.54,83.53,83.50,83.48,83.45,83.43,83.42,83.39,83.35,83.34,83.39,83.47,83.51,83.53,83.54,83.54,83.50,83.46,83.42,83.40,83.34,83.30,83.27,83.23,83.20,83.20,83.19,83.18,83.17,83.20,83.21,83.21,83.21,83.19,83.17,83.15,83.15,83.17,83.21,83.23,83.23,83.21,83.17,83.12,83.08,83.09,83.19,83.27,83.29,83.29,83.34,83.29,83.22,83.16,83.13,83.18,83.19,83.19,83.19,83.19,83.18,83.17,83.15,83.11,83.01,82.92,82.89,82.93,83.04,83.15,83.29,83.37,83.33,83.31,83.35,83.26,83.00,82.81,82.67,82.65,82.68,82.70,82.66,82.65,82.66,82.70,82.69,82.62,82.53,82.46,82.46,82.48,82.53,82.55,82.47,82.43,82.29,82.20,82.19,82.11,82.03,81.98,81.93,81.90,81.88,81.85,81.86,81.90,81.91,81.90,81.91,81.94,81.97,82.06,82.10,82.11,82.12,82.11,82.16,82.21,82.25,82.28,82.23,82.17,82.12
85.04,85.16,85.68,86.01,86.14,86.08,85.95,85.91,85.87,85.81,85.81,85.80,85.77,85.75,85.74,85.61,85.57,85.61,85.70,85.74,85.82,85.83,85.80,85.79,85.74,85.73,85.71,85.65,85.57,85.53,85.52,85.54,85.56,85.60,85.61,85.58,85.52,85.42,85.31,85.22,85.15,85.05,84.94,84.88,84.87,84.88,84.87,84.92,84.96,84.95,84.92,84.83,84.75,84.69,84.64,84.54,84.45,84.39,84.37,84.41,84.52,84.61,84.64,84.58,84.51,84.46,84.46,84.46,84.43,84.44,84.45,84.48,84.52,84.51,84.44,84.36,84.36,84.35,84.31,84.24,84.18,84.16,84.12,84.08,84.07,84.05,84.08,84.10,84.11,84.10,84.09,84.08,84.06,83.99,83.87,83.83,83.82,83.83,83.80,83.79,83.77,83.75,83.75,83.74,83.72,83.73,83.76,83.76,83.73,83.69,83.65,83.62,83.62,83.61,83.58,83.56,83.59,83.62,83.62,83.54,83.41,83.35,83.37,83.46,83.56,83.59,83.59,83.56,83.54,83.54,83.55,83.57,83.56,83.51,83.48,83.43,83.39,83.38,83.33,83.29,83.30,83.37,83.46,83.49,83.51,83.51,83.51,83.48,83.44,83.41,83.40,83.35,83.31,83.26,83.22,83.19,83.16,83.13,83.11,83.12,83.18,83.19,83.19,83.19,83.20,83.19,83.18,83.18,83.19,83.21,83.23,83.23,83.19,83.14,83.09,83.05,83.04,83.09,83.18,83.24,83.26,83.26,83.21,83.17,83.15,83.16,83.24,83.22,83.21,83.20,83.20,83.19,83.15,83.13,83.15,83.10,82.95,82.85,82.85,82.94,83.07,83.24,83.36,83.32,83.32,83.33,83.22,82.98,82.82,82.69,82.67,82.72,82.73,82.67,82.62,82.63,82.67,82.65,82.63,82.58,82.50,82.44,82.46,82.52,82.56,82.50,82.44,82.30,82.20,82.19,82.11,82.03,81.95,81.88,81.87,81.88,81.85,81.82,81.87,81.89,81.92,81.92,81.92,81.98,82.07,82.10,82.10,82.11,82.13,82.17,82.21,82.21,82.26,82.22,82.15,82.07
85.11,85.44,85.90,86.14,86.23,86.19,85.99,85.94,85.90,85.84,85.84,85.80,85.75,85.72,85.74,85.65,85.60,85.58,85.59,85.64,85.78,85.82,85.80,85.79,85.75,85.71,85.66,85.60,85.55,85.52,85.53,85.56,85.60,85.64,85.64,85.62,85.57,85.47,85.37,85.28,85.17,85.03,84.94,84.92,84.96,85.06,85.03,85.04,85.03,84.96,84.90,84.84,84.76,84.67,84.59,84.48,84.43,84.42,84.42,84.38,84.41,84.48,84.55,84.48,84.43,84.41,84.42,84.44,84.44,84.45,84.50,84.60,84.67,84.63,84.55,84.46,84.40,84.39,84.35,84.28,84.17,84.08,84.05,84.06,84.09,84.08,84.09,84.11,84.13,84.15,84.13,84.08,84.01,83.91,83.82,83.80,83.81,83.81,83.80,83.78,83.74,83.72,83.72,83.71,83.73,83.75,83.78,83.76,83.72,83.70,83.68,83.67,83.63,83.59,83.57,83.59,83.63,83.62,83.59,83.55,83.47,83.38,83.37,83.45,83.56,83.59,83.55,83.50,83.48,83.51,83.55,83.58,83.58,83.50,83.41,83.33,83.28,83.26,83.24,83.23,83.26,83.35,83.45,83.49,83.50,83.49,83.45,83.46,83.44,83.42,83.40,83.39,83.31,83.24,83.20,83.20,83.15,83.09,83.05,83.08,83.20,83.22,83.19,83.14,83.18,83.19,83.20,83.20,83.20,83.20,83.20,83.19,83.14,83.11,83.10,83.07,83.02,83.01,83.08,83.14,83.18,83.14,83.12,83.15,83.21,83.27,83.29,83.24,83.21,83.20,83.20,83.20,83.16,83.12,83.11,83.16,83.02,82.89,82.82,82.82,82.94,83.16,83.34,83.31,83.37,83.29,83.12,82.91,82.81,82.73,82.73,82.78,82.80,82.72,82.65,82.60,82.60,82.53,82.51,82.53,82.56,82.49,82.43,82.46,82.51,82.50,82.35,82.25,82.20,82.19,82.12,82.03,81.91,81.81,81.81,81.86,81.84,81.80,81.79,81.87,81.96,81.97,81.92,81.95,82.06,82.10,82.11,82.13,82.18,82.21,82.21,82.20,82.21,82.20,82.14,82.03
85.02,85.51,85.87,85.95,85.96,86.04,85.97,85.94,85.91,85.87,85.87,85.82,85.77,85.74,85.76,85.68,85.64,85.61,85.57,85.60,85.71,85.78,85.80,85.80,85.77,85.70,85.63,85.58,85.56,85.52,85.50,85.51,85.57,85.62,85.63,85.60,85.52,85.41,85.35,85.28,85.19,85.03,85.00,85.02,85.08,85.15,85.11,85.09,85.05,84.97,84.90,84.84,84.75,84.64,84.54,84.45,84.41,84.41,84.42,84.38,84.36,84.39,84.44,84.43,84.41,84.40,84.41,84.42,84.46,84.53,84.63,84.73,84.76,84.68,84.58,84.49,84.45,84.44,84.37,84.24,84.04,84.00,84.02,84.06,84.09,84.09,84.11,84.14,84.17,84.18,84.14,84.05,83.95,83.87,83.86,83.86,83.87,83.85,83.79,83.76,83.76,83.76,83.76,83.76,83.75,83.74,83.74,83.73,83.69,83.67,83.67,83.66,83.62,83.59,83.58,83.60,83.64,83.65,83.63,83.59,83.52,83.45,83.46,83.51,83.58,83.55,83.51,83.48,83.49,83.50,83.54,83.56,83.53,83.43,83.33,83.27,83.23,83.22,83.22,83.23,83.24,83.26,83.36,83.44,83.48,83.48,83.47,83.47,83.45,83.41,83.38,83.30,83.21,83.17,83.19,83.23,83.17,83.12,83.11,83.14,83.20,83.21,83.17,83.13,83.14,83.17,83.17,83.17,83.18,83.16,83.15,83.14,83.11,83.10,83.10,83.07,83.02,83.01,83.01,83.06,83.11,83.11,83.15,83.25,83.37,83.44,83.40,83.31,83.24,83.21,83.20,83.20,83.18,83.15,83.12,83.12,83.06,82.99,82.93,82.85,82.86,83.00,83.17,83.25,83.35,83.20,83.00,82.86,82.74,82.71,82.74,82.80,82.82,82.73,82.63,82.58,82.59,82.52,82.48,82.47,82.48,82.43,82.39,82.45,82.51,82.46,82.29,82.22,82.20,82.20,82.16,82.05,81.93,81.83,81.80,81.83,81.82,81.78,81.74,81.86,81.98,82.02,81.99,82.03,82.09,82.12,82.14,82.17,82.20,82.23,82.24,82.20,82.20,82.19,82.12,81.99
84.81,85.39,85.68,85.68,85.63,85.74,85.91,85.94,85.93,85.91,85.88,85.82,85.80,85.79,85.80,85.72,85.68,85.64,85.59,85.59,85.65,85.73,85.78,85.78,85.76,85.69,85.62,85.59,85.59,85.54,85.48,85.46,85.52,85.58,85.59,85.56,85.47,85.35,85.31,85.26,85.17,85.05,85.09,85.14,85.18,85.20,85.18,85.13,85.06,84.97,84.90,84.83,84.73,84.61,84.50,84.43,84.41,84.41,84.42,84.40,84.36,84.35,84.37,84.39,84.40,84.40,84.41,84.42,84.51,84.63,84.74,84.81,84.80,84.70,84.58,84.50,84.49,84.47,84.36,84.17,83.94,83.95,84.01,84.06,84.10,84.10,84.13,84.17,84.20,84.18,84.11,84.00,83.91,83.87,83.90,83.93,83.92,83.88,83.77,83.75,83.77,83.80,83.81,83.81,83.78,83.74,83.71,83.70,83.67,83.66,83.65,83.65,83.62,83.60,83.60,83.60,83.64,83.68,83.67,83.62,83.56,83.53,83.54,83.57,83.59,83.52,83.49,83.49,83.51,83.50,83.52,83.51,83.46,83.35,83.26,83.21,83.20,83.22,83.22,83.24,83.23,83.19,83.26,83.36,83.43,83.46,83.47,83.46,83.42,83.38,83.33,83.19,83.11,83.11,83.16,83.25,83.19,83.16,83.16,83.19,83.18,83.17,83.15,83.12,83.10,83.13,83.14,83.14,83.16,83.13,83.11,83.10,83.10,83.10,83.10,83.07,83.02,83.02,82.97,83.00,83.06,83.10,83.20,83.35,83.50,83.59,83.51,83.39,83.29,83.22,83.20,83.20,83.20,83.18,83.14,83.09,83.09,83.09,83.05,82.92,82.82,82.85,82.98,83.14,83.29,83.09,82.89,82.81,82.70,82.70,82.74,82.80,82.81,82.70,82.60,82.57,82.60,82.52,82.48,82.44,82.41,82.38,82.37,82.43,82.47,82.39,82.24,82.20,82.20,82.21,82.20,82.09,81.97,81.88,81.81,81.80,81.80,81.77,81.72,81.87,82.00,82.05,82.06,82.09,82.13,82.14,82.16,82.20,82.21,82.26,82.26,82.20,82.21,82.19,82.11,81.96
84.29,84.79,85.16,85.38,85.33,85.06,85.73,85.93,85.97,85.94,85.83,85.81,85.84,85.87,85.87,85.84,85.75,85.68,85.66,85.60,85.62,85.67,85.72,85.71,85.67,85.66,85.66,85.61,85.65,85.60,85.53,85.47,85.45,85.50,85.52,85.51,85.46,85.34,85.28,85.19,85.08,85.11,85.21,85.25,85.24,85.21,85.20,85.17,85.09,84.97,84.91,84.84,84.72,84.58,84.51,84.47,84.44,84.44,84.48,84.47,84.47,84.45,84.41,84.35,84.38,84.40,84.43,84.51,84.66,84.73,84.75,84.78,84.74,84.67,84.59,84.50,84.48,84.37,84.21,84.05,84.00,84.02,84.05,84.07,84.08,84.11,84.16,84.20,84.19,84.08,83.99,83.95,83.95,83.96,83.96,83.93,83.90,83.86,83.78,83.74,83.75,83.79,83.84,83.84,83.81,83.77,83.74,83.72,83.70,83.68,83.66,83.64,83.63,83.61,83.60,83.59,83.63,83.66,83.64,83.59,83.57,83.58,83.58,83.57,83.56,83.54,83.55,83.55,83.54,83.50,83.47,83.42,83.35,83.27,83.21,83.19,83.21,83.25,83.26,83.26,83.23,83.19,83.19,83.25,83.32,83.37,83.37,83.34,83.30,83.26,83.20,83.11,83.07,83.08,83.14,83.21,83.18,83.14,83.13,83.15,83.14,83.13,83.12,83.13,83.11,83.11,83.12,83.13,83.12,83.11,83.10,83.10,83.10,83.10,83.10,83.07,83.02,83.03,83.01,83.00,83.03,83.09,83.23,83.34,83.48,83.60,83.58,83.46,83.34,83.25,83.21,83.20,83.20,83.20,83.19,83.17,83.15,83.15,83.14,83.04,82.86,82.79,82.83,82.92,83.12,82.97,82.81,82.77,82.74,82.74,82.76,82.78,82.74,82.62,82.58,82.60,82.63,82.56,82.54,82.52,82.48,82.41,82.41,82.39,82.35,82.23,82.21,82.20,82.22,82.24,82.21,82.14,82.07,81.98,81.85,81.81,81.80,81.79,81.80,81.94,82.00,82.05,82.08,82.06,82.11,82.14,82.16,82.20,82.21,82.26,82.26,82.21,82.24,82.21,82.12,81.96
83.40,83.89,84.10,84.35,84.52,84.63,85.22,85.45,85.60,85.74,85.82,85.84,85.88,85.91,85.90,85.89,85.82,85.76,85.74,85.69,85.66,85.64,85.64,85.64,85.62,85.66,85.67,85.64,85.68,85.65,85.58,85.51,85.43,85.45,85.46,85.45,85.45,85.31,85.24,85.19,85.15,85.21,85.28,85.30,85.28,85.26,85.26,85.20,85.09,84.98,84.90,84.82,84.72,84.62,84.56,84.52,84.49,84.49,84.52,84.52,84.53,84.51,84.44,84.37,84.36,84.40,84.48,84.59,84.74,84.78,84.78,84.77,84.71,84.67,84.58,84.46,84.40,84.26,84.13,84.06,84.07,84.07,84.09,84.11,84.14,84.17,84.19,84.17,84.12,84.00,83.95,83.96,83.99,84.01,83.99,83.96,83.92,83.87,83.82,83.77,83.78,83.82,83.86,83.85,83.82,83.79,83.76,83.75,83.73,83.72,83.70,83.67,83.65,83.64,83.63,83.61,83.60,83.60,83.59,83.56,83.57,83.58,83.57,83.56,83.55,83.58,83.60,83.60,83.57,83.50,83.43,83.36,83.28,83.22,83.18,83.17,83.20,83.25,83.26,83.26,83.25,83.23,83.19,83.19,83.23,83.27,83.28,83.25,83.21,83.17,83.12,83.08,83.07,83.09,83.13,83.18,83.16,83.14,83.13,83.13,83.13,83.14,83.14,83.14,83.13,83.13,83.13,83.13,83.11,83.10,83.10,83.10,83.10,83.08,83.09,83.05,83.00,83.02,83.00,82.98,82.99,83.06,83.18,83.27,83.40,83.56,83.58,83.50,83.41,83.32,83.25,83.23,83.23,83.22,83.20,83.20,83.19,83.17,83.15,83.06,82.90,82.80,82.78,82.79,82.93,82.87,82.79,82.77,82.76,82.77,82.78,82.77,82.68,82.59,82.60,82.64,82.67,82.62,82.63,82.64,82.64,82.59,82.54,82.46,82.36,82.25,82.21,82.18,82.19,82.24,82.18,82.16,82.15,82.10,81.95,81.84,81.80,81.81,81.86,82.01,82.06,82.08,82.09,82.06,82.11,82.14,82.17,82.20,82.21,82.26,82.28,82.25,82.27,82.24,82.14,81.98
82.29,82.82,82.78,82.94,83.46,84.31,84.53,84.73,85.02,85.40,85.82,85.89,85.91,85.92,85.90,85.90,85.89,85.87,85.82,85.81,85.74,85.63,85.55,85.56,85.60,85.65,85.68,85.66,85.69,85.69,85.64,85.56,85.45,85.41,85.39,85.40,85.43,85.29,85.20,85.22,85.32,85.33,85.32,85.31,85.30,85.32,85.33,85.22,85.08,84.99,84.88,84.78,84.73,84.70,84.62,84.56,84.54,84.55,84.56,84.55,84.56,84.54,84.47,84.40,84.36,84.41,84.54,84.67,84.76,84.80,84.80,84.77,84.72,84.66,84.56,84.41,84.29,84.15,84.11,84.13,84.15,84.11,84.12,84.17,84.22,84.25,84.21,84.12,84.01,83.93,83.97,84.02,84.04,84.02,84.00,83.99,83.96,83.91,83.87,83.82,83.83,83.86,83.87,83.86,83.82,83.79,83.77,83.78,83.76,83.75,83.74,83.70,83.66,83.67,83.69,83.65,83.57,83.53,83.52,83.54,83.57,83.57,83.55,83.53,83.56,83.62,83.64,83.64,83.60,83.50,83.41,83.33,83.25,83.20,83.16,83.15,83.18,83.23,83.25,83.27,83.29,83.29,83.22,83.17,83.16,83.17,83.18,83.16,83.13,83.10,83.07,83.09,83.10,83.11,83.13,83.15,83.15,83.15,83.14,83.12,83.14,83.19,83.19,83.16,83.16,83.16,83.15,83.12,83.10,83.10,83.10,83.10,83.09,83.06,83.07,83.03,82.97,82.99,82.96,82.94,82.95,83.01,83.09,83.17,83.30,83.48,83.52,83.51,83.48,83.42,83.31,83.28,83.27,83.25,83.21,83.20,83.20,83.18,83.12,83.05,82.93,82.85,82.79,82.72,82.75,82.78,82.79,82.79,82.78,82.80,82.80,82.77,82.64,82.57,82.60,82.66,82.70,82.69,82.73,82.79,82.84,82.83,82.72,82.58,82.45,82.36,82.24,82.16,82.16,82.21,82.13,82.16,82.22,82.23,82.07,81.87,81.80,81.83,81.91,82.06,82.14,82.14,82.10,82.09,82.10,82.15,82.19,82.20,82.21,82.26,82.30,82.29,82.30,82.28,82.18,82.00
81.08,81.69,81.79,82.14,82.73,83.47,83.94,84.35,84.69,85.04,85.52,85.79,85.91,85.92,85.87,85.87,85.87,85.87,85.87,85.86,85.79,85.70,85.60,85.52,85.57,85.65,85.71,85.71,85.70,85.69,85.66,85.61,85.54,85.45,85.38,85.34,85.36,85.27,85.24,85.28,85.37,85.37,85.34,85.30,85.28,85.31,85.32,85.23,85.12,85.04,84.93,84.84,84.78,84.74,84.67,84.63,84.62,84.63,84.64,84.61,84.57,84.52,84.47,84.42,84.38,84.41,84.51,84.66,84.71,84.74,84.75,84.75,84.70,84.56,84.42,84.30,84.25,84.22,84.22,84.24,84.24,84.16,84.15,84.19,84.23,84.22,84.14,84.06,84.02,84.02,84.07,84.10,84.09,84.04,84.01,83.98,83.96,83.93,83.90,83.88,83.89,83.92,83.94,83.90,83.87,83.84,83.82,83.81,83.80,83.77,83.71,83.64,83.62,83.67,83.72,83.71,83.60,83.52,83.49,83.52,83.56,83.54,83.53,83.55,83.61,83.65,83.66,83.63,83.57,83.45,83.38,83.33,83.28,83.22,83.16,83.17,83.21,83.27,83.30,83.33,83.34,83.31,83.27,83.22,83.16,83.10,83.08,83.07,83.08,83.09,83.09,83.10,83.10,83.09,83.07,83.07,83.07,83.05,83.03,83.04,83.09,83.18,83.24,83.24,83.24,83.24,83.22,83.17,83.16,83.12,83.08,83.05,83.04,83.02,83.00,82.98,82.97,82.95,82.93,82.91,82.92,82.95,83.09,83.20,83.31,83.43,83.49,83.50,83.52,83.51,83.44,83.34,83.27,83.24,83.26,83.26,83.23,83.20,83.15,83.04,82.94,82.89,82.86,82.83,82.75,82.70,82.69,82.73,82.78,82.84,82.86,82.84,82.74,82.08,82.00,82.30,82.71,82.73,82.77,82.80,82.81,82.81,82.72,82.69,82.66,82.58,82.44,82.35,82.26,82.16,82.12,82.12,82.16,82.19,82.09,81.97,81.87,81.87,82.02,82.03,82.13,82.15,82.10,82.10,82.11,82.15,82.20,82.21,82.25,82.29,82.32,82.34,82.31,82.28,82.16,81.97
79.82,80.54,80.84,81.38,82.03,82.66,83.20,83.82,84.33,84.72,85.14,85.56,85.78,85.86,85.84,85.83,85.84,85.86,85.88,85.86,85.79,85.71,85.62,85.51,85.54,85.63,85.70,85.73,85.70,85.68,85.67,85.65,85.60,85.49,85.40,85.36,85.34,85.30,85.31,85.36,85.42,85.39,85.35,85.31,85.29,85.33,85.32,85.25,85.15,85.06,84.96,84.89,84.82,84.77,84.71,84.68,84.67,84.68,84.69,84.63,84.56,84.50,84.45,84.42,84.39,84.40,84.47,84.58,84.65,84.70,84.74,84.76,84.68,84.49,84.34,84.27,84.29,84.34,84.35,84.34,84.29,84.22,84.21,84.22,84.22,84.16,84.08,84.04,84.04,84.09,84.15,84.15,84.12,84.07,84.03,84.01,83.98,83.95,83.93,83.92,83.93,83.94,83.95,83.92,83.90,83.88,83.87,83.86,83.86,83.83,83.75,83.65,83.64,83.69,83.73,83.74,83.62,83.53,83.49,83.51,83.55,83.54,83.55,83.58,83.64,83.67,83.67,83.63,83.54,83.41,83.36,83.33,83.30,83.25,83.20,83.21,83.25,83.30,83.33,83.35,83.35,83.33,83.30,83.26,83.18,83.09,83.03,83.02,83.04,83.08,83.10,83.10,83.10,83.07,83.03,83.02,83.00,82.98,82.97,83.00,83.05,83.15,83.23,83.25,83.25,83.26,83.23,83.19,83.17,83.11,83.05,83.01,82.98,82.97,82.94,82.94,82.95,82.91,82.88,82.88,82.90,82.92,83.04,83.15,83.26,83.38,83.45,83.49,83.53,83.54,83.49,83.39,83.29,83.24,83.26,83.28,83.23,83.19,83.14,83.01,82.93,82.89,82.88,82.89,82.78,82.67,82.63,82.67,82.74,82.81,82.85,82.84,82.76,81.79,81.61,81.90,82.33,82.43,82.65,82.79,82.79,82.77,82.72,82.74,82.77,82.71,82.55,82.48,82.39,82.24,82.19,82.13,82.14,82.16,82.09,82.02,81.92,81.91,82.03,82.00,82.09,82.13,82.10,82.10,82.12,82.15,82.18,82.19,82.24,82.28,82.31,82.34,82.30,82.27,82.16,81.96
78.50,79.34,79.94,80.67,81.36,81.87,82.30,83.14,83.92,84.46,84.67,85.17,85.51,85.71,85.79,85.76,85.78,85.82,85.83,85.78,85.70,85.65,85.60,85.53,85.53,85.59,85.66,85.70,85.69,85.66,85.66,85.68,85.64,85.53,85.48,85.45,85.37,85.38,85.42,85.45,85.46,85.39,85.34,85.33,85.35,85.37,85.35,85.25,85.15,85.07,84.99,84.91,84.84,84.78,84.76,84.71,84.70,84.69,84.68,84.61,84.53,84.46,84.41,84.40,84.39,84.38,84.39,84.43,84.57,84.70,84.78,84.78,84.67,84.45,84.31,84.32,84.41,84.50,84.50,84.42,84.30,84.28,84.28,84.25,84.18,84.06,84.03,84.05,84.09,84.13,84.18,84.18,84.14,84.10,84.08,84.06,84.01,83.96,83.94,83.94,83.93,83.91,83.92,83.90,83.92,83.94,83.94,83.93,83.96,83.93,83.85,83.73,83.73,83.74,83.74,83.70,83.65,83.58,83.52,83.51,83.55,83.58,83.59,83.61,83.65,83.69,83.70,83.64,83.52,83.37,83.32,83.30,83.30,83.29,83.29,83.29,83.31,83.35,83.34,83.32,83.33,83.35,83.33,83.30,83.23,83.13,83.04,83.01,83.03,83.07,83.10,83.10,83.10,83.07,83.03,83.00,82.96,82.96,82.99,83.01,83.01,83.09,83.16,83.20,83.20,83.20,83.19,83.17,83.13,83.06,83.01,82.97,82.93,82.91,82.91,82.92,82.93,82.85,82.81,82.84,82.90,82.94,82.93,83.00,83.14,83.33,83.41,83.50,83.52,83.49,83.44,83.43,83.32,83.23,83.21,83.25,83.22,83.15,83.06,82.94,82.91,82.87,82.85,82.89,82.82,82.71,82.62,82.60,82.65,82.72,82.77,82.75,82.66,81.76,81.44,81.43,81.49,81.71,82.37,82.77,82.78,82.70,82.70,82.73,82.76,82.73,82.57,82.56,82.55,82.48,82.36,82.21,82.15,82.14,82.07,82.04,81.97,81.93,81.94,81.97,82.04,82.09,82.10,82.10,82.14,82.15,82.14,82.14,82.17,82.23,82.27,82.27,82.26,82.26,82.17,82.00
77.88,78.60,79.20,79.89,80.58,81.20,81.74,82.41,83.11,83.80,84.42,84.83,85.22,85.53,85.66,85.71,85.73,85.71,85.65,85.60,85.61,85.59,85.54,85.47,85.47,85.55,85.63,85.66,85.69,85.68,85.68,85.68,85.62,85.57,85.55,85.53,85.49,85.50,85.52,85.54,85.54,85.48,85.40,85.37,85.38,85.38,85.33,85.23,85.13,85.03,84.99,84.93,84.87,84.83,84.80,84.77,84.70,84.62,84.58,84.54,84.48,84.45,84.44,84.40,84.40,84.39,84.39,84.41,84.50,84.60,84.65,84.60,84.53,84.43,84.41,84.47,84.56,84.58,84.54,84.44,84.30,84.28,84.23,84.16,84.09,84.04,84.07,84.11,84.13,84.12,84.13,84.13,84.11,84.08,84.07,84.04,84.00,83.96,83.97,83.96,83.93,83.92,83.93,83.95,83.94,83.91,83.86,83.86,83.91,83.92,83.88,83.83,83.83,83.82,83.80,83.76,83.71,83.62,83.56,83.53,83.57,83.61,83.63,83.63,83.63,83.65,83.66,83.65,83.60,83.47,83.38,83.32,83.30,83.30,83.31,83.33,83.35,83.36,83.36,83.32,83.30,83.31,83.28,83.25,83.19,83.11,83.02,82.99,83.01,83.06,83.12,83.10,83.08,83.05,83.02,83.01,82.98,83.00,83.03,83.03,83.00,83.06,83.11,83.14,83.13,83.13,83.11,83.09,83.08,83.03,82.97,82.92,82.89,82.88,82.88,82.88,82.86,82.81,82.76,82.84,82.98,83.06,82.97,82.96,83.04,83.21,83.38,83.45,83.47,83.47,83.48,83.50,83.37,83.22,83.16,83.14,83.11,83.05,82.97,82.89,82.89,82.89,82.90,82.92,82.87,82.77,82.67,82.59,82.57,82.60,82.65,82.69,82.67,81.94,81.66,81.56,81.47,81.75,82.38,82.78,82.81,82.73,82.73,82.72,82.69,82.63,82.56,82.56,82.57,82.56,82.50,82.41,82.31,82.21,82.09,82.07,82.02,81.98,82.00,82.04,82.04,82.05,82.08,82.10,82.12,82.09,82.06,82.06,82.10,82.19,82.26,82.25,82.23,82.20,82.13,81.99
77.16,77.83,78.42,79.07,79.77,80.50,81.16,81.67,82.30,83.09,84.04,84.44,84.91,85.32,85.50,85.62,85.62,85.55,85.44,85.41,85.49,85.50,85.45,85.40,85.46,85.54,85.60,85.61,85.68,85.68,85.68,85.68,85.63,85.61,85.60,85.60,85.60,85.61,85.61,85.61,85.60,85.57,85.47,85.40,85.39,85.37,85.29,85.20,85.10,85.00,84.98,84.93,84.89,84.87,84.81,84.80,84.68,84.55,84.49,84.46,84.43,84.43,84.46,84.42,84.42,84.42,84.43,84.44,84.46,84.51,84.52,84.45,84.42,84.44,84.51,84.60,84.67,84.64,84.58,84.48,84.33,84.27,84.18,84.09,84.03,84.06,84.13,84.17,84.17,84.11,84.09,84.09,84.09,84.06,84.04,84.01,83.99,83.97,84.00,83.98,83.95,83.93,83.97,84.00,83.97,83.89,83.80,83.80,83.86,83.89,83.90,83.90,83.90,83.89,83.86,83.81,83.74,83.65,83.58,83.55,83.58,83.63,83.66,83.66,83.63,83.62,83.63,83.65,83.67,83.56,83.44,83.35,83.31,83.31,83.33,83.36,83.38,83.36,83.37,83.33,83.29,83.27,83.24,83.19,83.14,83.07,82.99,82.97,82.98,83.04,83.13,83.09,83.04,83.01,83.00,83.01,82.99,83.02,83.05,83.03,83.00,83.04,83.08,83.10,83.08,83.07,83.04,83.01,83.02,82.98,82.92,82.87,82.85,82.85,82.85,82.83,82.80,82.76,82.73,82.86,83.04,83.16,83.04,82.95,82.96,83.09,83.31,83.38,83.41,83.45,83.52,83.53,83.38,83.20,83.09,83.01,82.99,82.95,82.90,82.86,82.89,82.92,82.95,82.96,82.93,82.84,82.73,82.63,82.54,82.50,82.54,82.62,82.67,82.17,81.95,81.79,81.57,81.95,82.48,82.81,82.86,82.79,82.78,82.72,82.64,82.54,82.52,82.52,82.55,82.59,82.62,82.58,82.45,82.27,82.14,82.12,82.06,82.03,82.07,82.14,82.08,82.03,82.04,82.07,82.07,82.03,81.99,81.99,82.04,82.16,82.24,82.24,82.20,82.16,82.12,82.00
75.90,76.81,77.48,78.18,78.91,79.66,80.34,80.95,81.63,82.41,83.22,83.90,84.56,85.06,85.30,85.44,85.36,85.24,85.19,85.24,85.30,85.33,85.34,85.38,85.57,85.62,85.59,85.56,85.65,85.64,85.66,85.71,85.73,85.64,85.61,85.62,85.62,85.67,85.67,85.66,85.63,85.60,85.51,85.42,85.35,85.33,85.25,85.16,85.07,85.00,84.98,84.94,84.90,84.85,84.77,84.71,84.62,84.53,84.47,84.41,84.38,84.39,84.44,84.48,84.50,84.51,84.52,84.53,84.53,84.51,84.48,84.44,84.45,84.49,84.57,84.65,84.71,84.70,84.65,84.56,84.43,84.26,84.16,84.11,84.11,84.13,84.19,84.22,84.21,84.13,84.08,84.08,84.10,84.08,84.03,83.99,83.98,83.99,84.01,84.00,83.99,83.99,84.02,84.03,84.01,83.96,83.88,83.82,83.85,83.88,83.90,83.90,83.90,83.90,83.88,83.80,83.70,83.63,83.58,83.55,83.56,83.62,83.66,83.67,83.67,83.65,83.64,83.64,83.65,83.58,83.47,83.37,83.32,83.32,83.37,83.39,83.38,83.38,83.37,83.34,83.31,83.29,83.24,83.18,83.09,83.00,82.94,82.92,82.94,83.01,83.10,83.06,82.98,82.93,82.94,82.99,82.95,82.97,83.00,83.01,82.98,83.02,83.08,83.13,83.09,83.05,83.00,82.96,82.93,82.89,82.87,82.85,82.83,82.81,82.81,82.81,82.79,82.73,82.74,82.89,83.07,83.14,83.08,82.98,82.94,82.99,83.14,83.30,83.39,83.45,83.52,83.45,83.30,83.12,82.95,82.89,82.87,82.86,82.85,82.86,82.92,82.96,82.99,82.99,82.98,82.91,82.83,82.77,82.60,82.48,82.46,82.51,82.58,82.41,82.30,82.06,81.67,82.28,82.67,82.88,82.93,82.88,82.86,82.79,82.68,82.51,82.42,82.42,82.48,82.55,82.67,82.62,82.46,82.29,82.25,82.18,82.11,82.07,82.10,82.24,82.21,82.09,81.95,81.97,81.97,81.95,81.94,81.94,82.00,82.10,82.19,82.22,82.20,82.18,82.15,82.04
75.32,75.89,76.48,77.24,78.04,78.76,79.42,80.04,80.74,81.53,82.28,83.08,83.81,84.41,84.83,85.09,85.12,85.08,85.07,85.13,85.17,85.24,85.34,85.48,85.66,85.68,85.64,85.59,85.61,85.60,85.64,85.70,85.71,85.62,85.61,85.64,85.64,85.67,85.66,85.64,85.61,85.62,85.55,85.47,85.40,85.37,85.30,85.19,85.09,85.01,84.99,84.96,84.91,84.85,84.75,84.66,84.58,84.50,84.43,84.40,84.38,84.40,84.46,84.52,84.55,84.58,84.61,84.64,84.62,84.56,84.50,84.47,84.52,84.57,84.62,84.67,84.71,84.70,84.65,84.54,84.39,84.25,84.18,84.17,84.18,84.18,84.22,84.24,84.21,84.13,84.08,84.08,84.09,84.07,84.02,83.99,83.99,84.02,84.04,84.05,84.05,84.06,84.09,84.10,84.10,84.06,83.97,83.90,83.90,83.90,83.89,83.89,83.88,83.85,83.79,83.72,83.65,83.61,83.57,83.54,83.55,83.62,83.66,83.67,83.67,83.66,83.65,83.64,83.62,83.56,83.46,83.38,83.33,83.34,83.39,83.39,83.37,83.39,83.39,83.35,83.32,83.29,83.21,83.13,83.05,82.98,82.95,82.92,82.92,82.96,83.02,83.00,82.95,82.92,82.92,82.96,82.96,82.95,82.96,82.96,82.94,83.00,83.08,83.15,83.11,83.05,82.99,82.93,82.87,82.86,82.86,82.86,82.85,82.81,82.80,82.80,82.78,82.70,82.76,82.91,83.07,83.12,83.14,83.07,82.98,82.95,83.01,83.19,83.32,83.40,83.50,83.43,83.29,83.12,82.94,82.85,82.82,82.82,82.83,82.87,82.94,82.98,83.00,83.00,83.00,82.94,82.88,82.85,82.73,82.58,82.48,82.45,82.49,82.48,82.45,82.21,81.79,82.51,82.79,82.90,82.93,82.90,82.89,82.81,82.67,82.46,82.33,82.31,82.35,82.40,82.51,82.49,82.40,82.30,82.29,82.21,82.14,82.10,82.15,82.28,82.30,82.23,82.08,81.91,81.91,81.92,81.90,81.88,82.01,82.09,82.14,82.18,82.20,82.19,82.17,82.05
75.09,75.07,75.50,76.32,77.16,77.81,78.43,79.03,79.74,80.54,81.28,82.12,82.89,83.57,84.21,84.65,84.87,84.97,85.01,85.05,85.09,85.21,85.41,85.64,85.72,85.74,85.71,85.66,85.57,85.57,85.62,85.68,85.64,85.59,85.61,85.65,85.65,85.65,85.62,85.59,85.57,85.63,85.58,85.52,85.48,85.44,85.38,85.25,85.12,85.04,85.01,84.99,84.93,84.84,84.73,84.65,84.55,84.46,84.40,84.40,84.41,84.44,84.49,84.55,84.59,84.64,84.69,84.75,84.72,84.64,84.56,84.52,84.58,84.65,84.67,84.66,84.68,84.67,84.60,84.47,84.30,84.22,84.22,84.24,84.25,84.23,84.25,84.24,84.19,84.10,84.07,84.08,84.09,84.06,84.01,84.00,84.01,84.04,84.08,84.09,84.11,84.14,84.16,84.18,84.20,84.16,84.06,83.99,83.97,83.93,83.87,83.87,83.84,83.76,83.66,83.60,83.60,83.58,83.55,83.52,83.55,83.62,83.65,83.65,83.65,83.67,83.66,83.64,83.60,83.53,83.45,83.38,83.34,83.36,83.39,83.37,83.36,83.40,83.41,83.36,83.32,83.27,83.16,83.08,83.02,82.99,82.98,82.94,82.92,82.91,82.93,82.92,82.93,82.93,82.92,82.95,82.97,82.96,82.93,82.92,82.92,82.99,83.09,83.16,83.13,83.05,82.98,82.90,82.82,82.85,82.88,82.90,82.89,82.83,82.81,82.80,82.77,82.67,82.78,82.94,83.07,83.10,83.20,83.16,83.05,82.94,82.91,83.06,83.21,83.33,83.46,83.42,83.31,83.16,83.00,82.86,82.81,82.80,82.81,82.88,82.95,82.99,83.00,83.00,83.00,82.95,82.91,82.90,82.88,82.72,82.55,82.43,82.40,82.47,82.50,82.31,81.94,82.67,82.87,82.90,82.90,82.90,82.89,82.80,82.63,82.41,82.26,82.21,82.21,82.22,82.29,82.30,82.30,82.30,82.30,82.23,82.15,82.13,82.21,82.30,82.37,82.39,82.30,81.89,81.89,81.89,81.87,81.82,82.04,82.11,82.11,82.13,82.20,82.21,82.17,82.04
75.02,74.99,75.19,75.75,76.36,76.81,77.35,77.94,78.62,79.39,80.30,81.30,82.10,82.81,83.52,84.13,84.59,84.85,84.93,85.00,85.28,85.51,85.68,85.81,85.76,85.76,85.79,85.78,85.68,85.63,85.61,85.61,85.61,85.55,85.55,85.57,85.57,85.57,85.58,85.58,85.59,85.60,85.57,85.53,85.48,85.43,85.32,85.21,85.11,85.02,84.99,84.97,84.94,84.88,84.77,84.68,84.59,84.51,84.45,84.44,84.44,84.47,84.55,84.58,84.60,84.63,84.68,84.73,84.72,84.67,84.60,84.54,84.56,84.62,84.65,84.65,84.63,84.59,84.48,84.34,84.23,84.24,84.30,84.35,84.34,84.28,84.28,84.27,84.22,84.11,84.05,84.05,84.06,84.06,84.01,84.00,84.01,84.04,84.06,84.05,84.07,84.12,84.19,84.18,84.15,84.10,84.03,84.03,84.02,83.98,83.90,83.83,83.75,83.68,83.63,83.63,83.63,83.59,83.54,83.51,83.55,83.60,83.62,83.62,83.65,83.66,83.64,83.61,83.60,83.57,83.52,83.44,83.36,83.36,83.36,83.36,83.37,83.40,83.37,83.33,83.28,83.20,83.13,83.09,83.07,83.05,83.02,82.99,82.97,82.96,82.93,82.91,82.91,82.91,82.91,82.92,82.96,82.95,82.94,82.95,82.97,83.02,83.08,83.11,83.06,82.96,82.88,82.82,82.76,82.83,82.90,82.93,82.91,82.87,82.83,82.76,82.69,82.67,82.86,83.01,83.09,83.10,83.17,83.12,83.02,82.92,82.87,82.90,83.03,83.20,83.33,83.33,83.27,83.16,83.01,82.91,82.84,82.81,82.80,82.83,82.85,82.89,82.93,82.98,82.95,82.93,82.91,82.90,82.89,82.84,82.72,82.55,82.39,82.41,82.45,82.43,82.36,82.72,82.85,82.90,82.90,82.90,82.81,82.69,82.56,82.41,82.32,82.28,82.27,82.27,82.25,82.25,82.25,82.26,82.31,82.24,82.17,82.18,82.31,82.36,82.39,82.38,82.32,82.20,81.99,81.87,81.83,81.82,82.00,82.10,82.16,82.20,82.26,82.23,82.12,81.94
74.93,74.91,74.97,75.32,75.72,76.01,76.44,76.90,77.45,78.17,79.31,80.38,81.26,82.06,82.88,83.55,84.04,84.46,84.81,84.96,85.39,85.68,85.80,85.87,85.76,85.76,85.81,85.86,85.78,85.70,85.64,85.60,85.57,85.52,85.51,85.52,85.52,85.53,85.56,85.58,85.59,85.57,85.55,85.52,85.46,85.39,85.25,85.16,85.10,85.04,85.01,84.97,84.93,84.88,84.81,84.73,84.65,84.57,84.51,84.50,84.50,84.54,84.63,84.65,84.66,84.66,84.68,84.72,84.72,84.69,84.65,84.58,84.55,84.56,84.59,84.61,84.57,84.48,84.36,84.25,84.21,84.27,84.35,84.40,84.38,84.32,84.31,84.29,84.24,84.14,84.08,84.06,84.06,84.06,84.02,84.02,84.04,84.04,84.04,84.02,84.04,84.10,84.17,84.14,84.09,84.04,84.02,84.04,84.05,84.01,83.91,83.78,83.68,83.63,83.62,83.65,83.66,83.61,83.56,83.54,83.57,83.58,83.59,83.60,83.65,83.64,83.60,83.58,83.60,83.60,83.56,83.48,83.39,83.37,83.36,83.36,83.37,83.38,83.33,83.30,83.24,83.16,83.11,83.11,83.11,83.10,83.06,83.03,83.02,83.00,82.96,82.93,82.92,82.91,82.91,82.92,82.96,82.95,82.94,82.95,82.98,83.02,83.03,83.01,82.95,82.86,82.79,82.73,82.67,82.75,82.84,82.88,82.87,82.86,82.82,82.73,82.63,82.66,82.86,83.01,83.08,83.10,83.13,83.08,83.01,82.95,82.90,82.86,82.93,83.06,83.17,83.22,83.22,83.16,83.02,82.93,82.85,82.81,82.80,82.81,82.79,82.83,82.90,82.95,82.94,82.94,82.93,82.91,82.91,82.90,82.83,82.69,82.49,82.43,82.42,82.44,82.51,82.69,82.82,82.88,82.89,82.89,82.75,82.61,82.49,82.41,82.36,82.33,82.32,82.31,82.26,82.26,82.26,82.29,82.38,82.29,82.24,82.28,82.40,82.41,82.41,82.38,82.35,82.34,82.11,81.92,81.81,81.80,81.94,82.07,82.18,82.26,82.29,82.25,82.11,81.90
74.83,74.83,74.85,75.02,75.23,75.42,75.70,75.91,76.23,76.88,78.30,79.37,80.36,81.32,82.28,82.89,83.24,83.81,84.64,84.92,85.42,85.69,85.76,85.82,85.73,85.72,85.78,85.89,85.86,85.80,85.71,85.62,85.52,85.50,85.50,85.50,85.50,85.52,85.57,85.59,85.57,85.52,85.51,85.50,85.43,85.29,85.16,85.11,85.10,85.08,85.07,84.99,84.91,84.84,84.86,84.79,84.71,84.64,84.59,84.58,84.60,84.64,84.72,84.77,84.77,84.73,84.70,84.70,84.70,84.70,84.69,84.65,84.56,84.48,84.48,84.53,84.51,84.35,84.25,84.21,84.24,84.31,84.37,84.39,84.37,84.34,84.35,84.32,84.25,84.20,84.16,84.12,84.09,84.06,84.04,84.07,84.08,84.04,84.01,84.00,84.02,84.06,84.10,84.07,84.02,84.00,84.01,84.04,84.06,84.02,83.89,83.71,83.62,83.62,83.65,83.68,83.67,83.65,83.62,83.60,83.61,83.58,83.56,83.58,83.64,83.60,83.56,83.55,83.61,83.62,83.57,83.50,83.43,83.40,83.39,83.38,83.37,83.33,83.30,83.26,83.20,83.15,83.11,83.13,83.14,83.12,83.09,83.08,83.05,83.03,83.02,82.97,82.95,82.94,82.94,82.96,82.98,82.96,82.93,82.92,82.95,82.96,82.94,82.88,82.79,82.78,82.72,82.63,82.56,82.62,82.69,82.75,82.77,82.79,82.78,82.69,82.59,82.63,82.78,82.93,83.04,83.09,83.08,83.06,83.03,83.02,83.00,82.94,82.90,82.91,82.99,83.10,83.17,83.15,83.03,82.91,82.84,82.81,82.80,82.83,82.77,82.81,82.89,82.91,82.97,82.99,82.98,82.95,82.94,82.91,82.89,82.85,82.72,82.54,82.40,82.34,82.38,82.58,82.76,82.85,82.86,82.86,82.73,82.55,82.42,82.40,82.40,82.37,82.35,82.34,82.30,82.33,82.34,82.38,82.52,82.39,82.36,82.41,82.49,82.45,82.42,82.40,82.38,82.31,82.24,82.04,81.82,81.76,81.85,82.02,82.18,82.30,82.30,82.28,82.14,81.91
74.75,74.75,74.76,74.86,75.00,75.17,75.42,75.56,75.81,76.37,77.59,78.51,79.49,80.48,81.37,82.07,82.59,83.21,83.99,84.65,85.08,85.40,85.60,85.63,85.59,85.63,85.74,85.89,85.87,85.81,85.73,85.64,85.52,85.50,85.50,85.52,85.56,85.56,85.56,85.57,85.59,85.55,85.48,85.42,85.36,85.23,85.15,85.12,85.11,85.10,85.07,85.02,84.94,84.85,84.83,84.79,84.74,84.68,84.64,84.65,84.72,84.79,84.81,84.81,84.75,84.69,84.65,84.66,84.66,84.67,84.69,84.72,84.63,84.54,84.49,84.46,84.43,84.33,84.27,84.26,84.27,84.30,84.34,84.37,84.38,84.37,84.33,84.27,84.20,84.19,84.15,84.11,84.09,84.10,84.09,84.08,84.06,84.03,84.01,84.00,84.01,84.01,84.02,84.00,83.97,83.97,83.98,84.00,83.98,83.90,83.78,83.66,83.62,83.63,83.64,83.63,83.58,83.59,83.60,83.60,83.62,83.62,83.60,83.58,83.59,83.59,83.59,83.60,83.62,83.61,83.56,83.49,83.42,83.38,83.37,83.36,83.35,83.32,83.29,83.25,83.22,83.18,83.13,83.12,83.11,83.09,83.05,83.04,83.02,83.00,82.97,82.93,82.93,82.94,82.95,82.96,82.95,82.94,82.92,82.89,82.91,82.89,82.85,82.80,82.77,82.80,82.74,82.61,82.51,82.59,82.63,82.67,82.69,82.72,82.70,82.65,82.60,82.61,82.72,82.85,82.98,83.07,83.07,83.07,83.07,83.07,83.05,82.98,82.91,82.86,82.90,82.98,83.09,83.12,83.00,82.87,82.82,82.80,82.81,82.85,82.81,82.84,82.89,82.90,82.95,82.98,82.99,82.98,82.97,82.93,82.90,82.89,82.83,82.72,82.57,82.44,82.38,82.50,82.63,82.73,82.79,82.82,82.67,82.53,82.43,82.40,82.43,82.40,82.38,82.37,82.34,82.36,82.50,82.68,82.78,82.54,82.48,82.50,82.50,82.48,82.45,82.42,82.38,82.31,82.28,82.14,81.95,81.81,81.85,82.06,82.26,82.34,82.34,82.30,82.15,81.91
74.68,74.68,74.68,74.73,74.84,74.99,75.21,75.30,75.53,76.03,76.96,77.74,78.66,79.60,80.43,81.22,81.93,82.60,83.31,84.21,84.67,85.07,85.38,85.41,85.43,85.53,85.68,85.84,85.83,85.79,85.72,85.64,85.53,85.51,85.51,85.54,85.60,85.60,85.57,85.56,85.59,85.56,85.44,85.34,85.28,85.20,85.16,85.14,85.13,85.11,85.05,85.02,84.97,84.88,84.82,84.79,84.76,84.72,84.70,84.72,84.83,84.89,84.87,84.81,84.71,84.64,84.61,84.63,84.62,84.64,84.69,84.76,84.69,84.60,84.50,84.42,84.38,84.33,84.31,84.30,84.30,84.30,84.32,84.36,84.40,84.37,84.31,84.23,84.17,84.20,84.15,84.12,84.11,84.14,84.13,84.09,84.06,84.03,84.03,84.01,84.00,83.98,83.96,83.94,83.93,83.94,83.96,83.95,83.89,83.80,83.70,83.65,83.65,83.66,83.65,83.60,83.52,83.55,83.58,83.59,83.63,83.66,83.64,83.59,83.55,83.58,83.61,83.64,83.65,83.60,83.54,83.47,83.40,83.36,83.36,83.35,83.34,83.32,83.28,83.25,83.23,83.20,83.13,83.10,83.08,83.06,83.02,83.00,83.00,82.98,82.94,82.91,82.92,82.93,82.94,82.93,82.91,82.91,82.91,82.88,82.87,82.82,82.77,82.74,82.78,82.82,82.75,82.62,82.50,82.57,82.60,82.61,82.63,82.66,82.63,82.61,82.60,82.59,82.66,82.78,82.92,83.03,83.05,83.07,83.08,83.08,83.06,82.99,82.90,82.83,82.86,82.88,83.00,83.05,82.95,82.84,82.81,82.80,82.81,82.88,82.84,82.85,82.89,82.90,82.92,82.95,82.98,82.98,83.00,82.95,82.92,82.91,82.90,82.86,82.74,82.58,82.44,82.48,82.54,82.62,82.72,82.81,82.62,82.51,82.46,82.42,82.48,82.45,82.41,82.40,82.38,82.40,82.69,83.03,82.95,82.66,82.57,82.56,82.52,82.50,82.49,82.45,82.38,82.31,82.28,82.20,82.07,81.91,81.84,82.03,82.25,82.37,82.39,82.33,82.15,81.91
74.61,74.60,74.60,74.65,74.76,74.89,75.04,75.10,75.38,75.89,76.42,77.12,77.89,78.69,79.49,80.35,81.18,81.95,82.68,83.47,84.21,84.75,85.06,85.18,85.24,85.43,85.62,85.71,85.71,85.71,85.67,85.61,85.58,85.54,85.53,85.55,85.60,85.62,85.60,85.57,85.56,85.52,85.39,85.27,85.19,85.21,85.22,85.21,85.17,85.12,84.97,84.95,84.94,84.91,84.85,84.82,84.81,84.80,84.78,84.82,84.87,84.87,84.82,84.73,84.67,84.63,84.62,84.65,84.64,84.65,84.69,84.76,84.69,84.60,84.51,84.44,84.41,84.36,84.33,84.32,84.30,84.31,84.35,84.38,84.39,84.31,84.27,84.25,84.24,84.25,84.24,84.20,84.17,84.17,84.15,84.13,84.10,84.08,84.07,84.04,84.00,83.95,83.91,83.91,83.91,83.91,83.91,83.89,83.83,83.76,83.70,83.71,83.74,83.75,83.72,83.63,83.55,83.55,83.56,83.57,83.62,83.66,83.64,83.59,83.55,83.56,83.61,83.66,83.68,83.62,83.53,83.44,83.37,83.34,83.37,83.37,83.34,83.31,83.27,83.26,83.24,83.19,83.09,83.08,83.08,83.07,83.03,83.01,83.00,82.98,82.94,82.91,82.91,82.92,82.91,82.87,82.85,82.87,82.89,82.88,82.82,82.79,82.75,82.71,82.79,82.80,82.77,82.69,82.55,82.58,82.60,82.61,82.61,82.61,82.61,82.60,82.59,82.55,82.60,82.71,82.83,82.94,83.00,83.02,83.03,83.03,83.03,82.94,82.86,82.83,82.87,82.85,82.88,82.90,82.86,82.81,82.80,82.80,82.81,82.88,82.84,82.85,82.89,82.90,82.90,82.92,82.93,82.93,82.98,82.98,82.97,82.96,82.91,82.89,82.86,82.77,82.63,82.58,82.54,82.56,82.66,82.84,82.63,82.51,82.49,82.48,82.55,82.52,82.45,82.40,82.40,82.45,82.95,83.43,82.87,82.66,82.59,82.59,82.58,82.51,82.50,82.46,82.38,82.31,82.24,82.20,82.17,82.11,81.82,81.84,82.05,82.34,82.45,82.39,82.19,81.92
74.59,74.55,74.54,74.58,74.67,74.79,74.90,74.95,75.21,75.65,75.99,76.56,77.22,77.94,78.70,79.52,80.38,81.19,81.93,82.64,83.47,84.19,84.70,84.93,85.13,85.41,85.62,85.67,85.68,85.69,85.67,85.63,85.62,85.60,85.59,85.58,85.58,85.62,85.61,85.57,85.51,85.44,85.35,85.26,85.20,85.20,85.20,85.20,85.17,85.11,84.97,84.95,84.96,84.95,84.91,84.84,84.82,84.83,84.81,84.84,84.85,84.83,84.77,84.70,84.67,84.65,84.64,84.66,84.64,84.65,84.68,84.71,84.65,84.58,84.51,84.47,84.48,84.44,84.38,84.34,84.30,84.31,84.34,84.36,84.35,84.27,84.26,84.27,84.27,84.28,84.26,84.20,84.16,84.15,84.16,84.16,84.15,84.12,84.09,84.06,84.01,83.96,83.94,83.92,83.91,83.90,83.88,83.85,83.82,83.78,83.73,83.69,83.69,83.72,83.73,83.67,83.58,83.57,83.59,83.60,83.62,83.65,83.64,83.61,83.57,83.57,83.61,83.66,83.67,83.58,83.49,83.41,83.35,83.33,83.34,83.34,83.33,83.30,83.26,83.25,83.23,83.18,83.09,83.07,83.08,83.08,83.03,83.01,83.00,82.98,82.94,82.93,82.91,82.89,82.86,82.83,82.84,82.87,82.88,82.86,82.83,82.82,82.77,82.67,82.70,82.70,82.71,82.69,82.60,82.59,82.60,82.60,82.60,82.57,82.58,82.60,82.63,82.61,82.61,82.65,82.72,82.81,82.88,82.93,82.96,82.96,82.93,82.87,82.84,82.85,82.89,82.84,82.85,82.86,82.82,82.77,82.76,82.75,82.76,82.80,82.80,82.82,82.84,82.86,82.89,82.90,82.91,82.92,82.98,82.99,82.99,82.98,82.95,82.91,82.90,82.87,82.82,82.75,82.66,82.63,82.69,82.84,82.83,82.74,82.66,82.68,82.69,82.62,82.53,82.47,82.47,82.55,83.18,83.71,82.82,82.68,82.64,82.64,82.64,82.57,82.53,82.43,82.30,82.25,82.21,82.20,82.19,82.14,81.87,81.79,81.93,82.24,82.40,82.35,82.14,81.87
74.57,74.50,74.50,74.53,74.60,74.71,74.79,74.83,75.04,75.37,75.60,76.04,76.59,77.25,77.98,78.71,79.56,80.40,81.17,81.81,82.63,83.52,84.29,84.66,85.06,85.43,85.65,85.67,85.70,85.70,85.68,85.66,85.66,85.66,85.66,85.63,85.57,85.62,85.60,85.54,85.46,85.35,85.30,85.27,85.24,85.20,85.16,85.17,85.16,85.09,85.00,84.99,85.00,84.99,84.96,84.85,84.82,84.83,84.82,84.83,84.82,84.78,84.73,84.70,84.68,84.68,84.67,84.65,84.63,84.65,84.66,84.64,84.60,84.54,84.51,84.51,84.56,84.52,84.45,84.36,84.30,84.31,84.32,84.32,84.29,84.24,84.27,84.29,84.30,84.29,84.25,84.17,84.11,84.11,84.18,84.20,84.18,84.15,84.10,84.07,84.02,83.98,83.97,83.95,83.92,83.89,83.87,83.82,83.83,83.82,83.76,83.64,83.60,83.65,83.71,83.69,83.60,83.61,83.63,83.63,83.61,83.64,83.64,83.63,83.59,83.60,83.63,83.65,83.63,83.53,83.45,83.39,83.34,83.31,83.31,83.31,83.31,83.30,83.25,83.22,83.20,83.18,83.09,83.07,83.08,83.08,83.04,83.01,83.00,82.98,82.94,82.95,82.90,82.85,82.81,82.81,82.84,82.88,82.88,82.84,82.86,82.88,82.80,82.63,82.58,82.59,82.63,82.66,82.63,82.61,82.60,82.60,82.59,82.55,82.57,82.62,82.69,82.71,82.66,82.62,82.62,82.68,82.75,82.82,82.87,82.87,82.82,82.81,82.83,82.88,82.90,82.84,82.85,82.86,82.82,82.74,82.71,82.69,82.69,82.70,82.75,82.78,82.79,82.80,82.87,82.89,82.90,82.91,82.98,82.99,83.00,83.00,82.98,82.93,82.91,82.93,82.99,82.94,82.83,82.76,82.77,82.84,83.10,83.07,82.93,82.99,82.92,82.81,82.68,82.58,82.58,82.77,83.46,83.94,82.79,82.71,82.70,82.70,82.70,82.64,82.56,82.39,82.19,82.18,82.18,82.19,82.18,82.11,81.96,81.82,81.86,82.10,82.28,82.24,82.06,81.82
74.54,74.50,74.50,74.56,74.65,74.75,74.79,74.78,74.87,75.06,75.22,75.55,76.01,76.59,77.26,77.93,78.78,79.69,80.57,81.29,81.85,82.71,83.70,84.44,84.96,85.36,85.61,85.69,85.71,85.67,85.64,85.63,85.64,85.68,85.71,85.70,85.61,85.56,85.51,85.46,85.42,85.36,85.28,85.26,85.28,85.25,85.18,85.15,85.12,85.10,85.05,85.02,84.99,84.97,84.92,84.83,84.77,84.75,84.76,84.80,84.81,84.79,84.77,84.76,84.76,84.74,84.70,84.64,84.66,84.67,84.65,84.59,84.55,84.52,84.51,84.53,84.58,84.58,84.53,84.45,84.34,84.31,84.30,84.28,84.26,84.29,84.32,84.31,84.27,84.23,84.20,84.16,84.15,84.20,84.23,84.22,84.18,84.15,84.08,84.03,84.00,83.96,83.92,83.90,83.87,83.87,83.89,83.88,83.87,83.86,83.80,83.66,83.59,83.63,83.70,83.70,83.61,83.60,83.61,83.62,83.64,83.65,83.63,83.62,83.63,83.65,83.65,83.62,83.57,83.51,83.48,83.43,83.37,83.31,83.32,83.31,83.31,83.29,83.27,83.22,83.16,83.12,83.09,83.08,83.07,83.04,83.02,83.01,83.01,82.99,82.94,82.87,82.82,82.80,82.81,82.85,82.86,82.87,82.88,82.87,82.85,82.86,82.80,82.65,82.53,82.53,82.58,82.64,82.62,82.59,82.56,82.55,82.57,82.62,82.69,82.75,82.80,82.81,82.71,82.65,82.64,82.69,82.71,82.76,82.79,82.77,82.79,82.80,82.83,82.87,82.89,82.85,82.83,82.84,82.86,82.80,82.74,82.68,82.65,82.67,82.68,82.69,82.72,82.79,82.85,82.87,82.89,82.91,82.96,82.98,82.98,82.97,82.94,82.91,82.91,82.94,82.99,82.98,82.94,82.92,82.94,83.01,83.24,83.37,83.49,83.71,83.58,83.47,83.22,82.86,82.89,83.64,84.26,84.21,82.83,82.72,82.71,82.73,82.72,82.68,82.54,82.33,82.14,82.13,82.14,82.16,82.17,82.17,82.04,81.89,81.83,81.88,82.02,82.06,82.00,81.87
74.49,74.47,74.47,74.54,74.64,74.75,74.79,74.73,74.74,74.84,74.93,75.23,75.59,76.04,76.60,77.22,78.04,78.97,79.90,80.68,81.21,81.95,82.90,83.92,84.67,85.19,85.53,85.74,85.66,85.63,85.61,85.61,85.60,85.68,85.72,85.71,85.62,85.51,85.46,85.44,85.40,85.37,85.27,85.26,85.30,85.28,85.22,85.15,85.09,85.07,85.05,85.01,84.97,84.94,84.88,84.84,84.79,84.76,84.76,84.80,84.82,84.83,84.82,84.79,84.77,84.75,84.71,84.65,84.66,84.65,84.61,84.55,84.54,84.55,84.56,84.57,84.60,84.60,84.56,84.48,84.38,84.32,84.30,84.29,84.31,84.39,84.40,84.35,84.25,84.19,84.16,84.14,84.17,84.23,84.24,84.22,84.19,84.14,84.06,84.02,84.00,83.98,83.95,83.91,83.88,83.88,83.90,83.89,83.87,83.83,83.78,83.67,83.59,83.62,83.68,83.70,83.62,83.61,83.60,83.60,83.63,83.63,83.62,83.60,83.62,83.65,83.62,83.57,83.50,83.48,83.47,83.43,83.38,83.34,83.35,83.35,83.32,83.28,83.25,83.19,83.12,83.07,83.06,83.06,83.05,83.03,83.04,83.03,83.04,83.03,82.98,82.86,82.77,82.76,82.81,82.87,82.88,82.89,82.89,82.88,82.85,82.82,82.76,82.64,82.50,82.48,82.52,82.58,82.59,82.57,82.54,82.52,82.55,82.68,82.77,82.82,82.85,82.82,82.73,82.69,82.69,82.70,82.70,82.72,82.74,82.73,82.78,82.79,82.82,82.86,82.89,82.87,82.83,82.83,82.86,82.84,82.78,82.72,82.65,82.65,82.61,82.61,82.65,82.75,82.81,82.83,82.86,82.89,82.93,82.94,82.95,82.94,82.89,82.91,82.93,82.96,82.99,83.00,83.00,83.00,83.02,83.14,83.36,83.55,83.75,84.02,84.05,84.08,83.87,83.44,83.51,84.33,84.81,84.47,82.85,82.73,82.72,82.74,82.73,82.71,82.46,82.23,82.10,82.10,82.13,82.13,82.13,82.15,82.06,81.94,81.84,81.80,81.88,81.91,81.90,81.84
74.42,74.41,74.41,74.47,74.57,74.71,74.79,74.68,74.65,74.71,74.73,75.08,75.33,75.59,76.00,76.56,77.35,78.24,79.15,79.99,80.68,81.24,81.92,83.13,84.22,84.93,85.43,85.81,85.57,85.57,85.60,85.58,85.54,85.65,85.70,85.67,85.58,85.45,85.46,85.46,85.41,85.38,85.27,85.26,85.31,85.30,85.27,85.16,85.06,85.01,85.01,84.98,84.94,84.88,84.84,84.88,84.89,84.86,84.81,84.82,84.86,84.89,84.86,84.79,84.74,84.71,84.70,84.67,84.62,84.59,84.56,84.53,84.59,84.65,84.66,84.63,84.61,84.61,84.55,84.48,84.42,84.33,84.32,84.36,84.44,84.53,84.51,84.40,84.25,84.17,84.13,84.13,84.16,84.21,84.22,84.23,84.20,84.14,84.03,84.02,84.03,84.05,84.05,83.98,83.94,83.92,83.91,83.88,83.82,83.76,83.71,83.66,83.61,83.62,83.66,83.68,83.63,83.62,83.61,83.60,83.60,83.60,83.59,83.58,83.57,83.58,83.55,83.50,83.44,83.43,83.42,83.40,83.38,83.39,83.42,83.41,83.35,83.26,83.18,83.14,83.09,83.04,83.01,83.00,83.01,83.04,83.10,83.08,83.09,83.09,83.07,82.89,82.74,82.72,82.80,82.88,82.92,82.93,82.90,82.86,82.85,82.78,82.69,82.61,82.51,82.45,82.45,82.49,82.54,82.53,82.51,82.50,82.52,82.71,82.81,82.85,82.83,82.75,82.74,82.76,82.77,82.73,82.71,82.70,82.72,82.75,82.78,82.80,82.82,82.85,82.89,82.90,82.86,82.83,82.84,82.85,82.85,82.80,82.71,82.63,82.55,82.54,82.58,82.68,82.73,82.77,82.81,82.85,82.89,82.90,82.90,82.89,82.85,82.92,82.97,83.00,83.00,83.00,83.00,83.00,83.04,83.24,83.47,83.61,83.73,83.92,84.35,84.65,84.62,84.31,84.44,84.86,85.13,84.70,82.84,82.72,82.72,82.73,82.73,82.70,82.32,82.08,82.08,82.10,82.12,82.09,82.04,82.07,82.04,81.96,81.89,81.86,81.85,81.80,81.77,81.73
74.31,74.35,74.34,74.36,74.44,74.61,74.71,74.61,74.58,74.67,74.70,75.00,75.20,75.39,75.70,76.11,76.82,77.65,78.48,79.30,80.00,80.61,81.26,82.18,83.29,84.22,84.91,85.33,85.41,85.53,85.61,85.63,85.62,85.70,85.74,85.70,85.60,85.46,85.47,85.48,85.46,85.43,85.32,85.30,85.32,85.27,85.21,85.13,85.06,85.04,85.01,84.97,84.93,84.90,84.89,84.92,84.91,84.88,84.85,84.82,84.85,84.87,84.85,84.80,84.77,84.76,84.73,84.67,84.61,84.58,84.54,84.51,84.55,84.58,84.58,84.55,84.52,84.51,84.47,84.44,84.41,84.36,84.35,84.37,84.43,84.51,84.48,84.37,84.24,84.19,84.17,84.17,84.20,84.23,84.25,84.27,84.26,84.22,84.13,84.11,84.09,84.08,84.07,84.03,84.00,83.98,83.95,83.91,83.86,83.80,83.74,83.67,83.63,83.61,83.61,83.62,83.60,83.60,83.59,83.58,83.57,83.58,83.57,83.55,83.53,83.52,83.48,83.45,83.41,83.41,83.38,83.36,83.36,83.41,83.44,83.44,83.40,83.31,83.22,83.16,83.10,83.03,83.00,83.03,83.06,83.10,83.15,83.14,83.13,83.13,83.13,82.99,82.86,82.80,82.83,82.86,82.88,82.88,82.87,82.87,82.83,82.74,82.65,82.59,82.49,82.41,82.41,82.47,82.52,82.49,82.48,82.49,82.52,82.70,82.82,82.87,82.86,82.79,82.79,82.83,82.86,82.84,82.80,82.77,82.76,82.77,82.76,82.78,82.82,82.87,82.90,82.90,82.88,82.86,82.86,82.84,82.83,82.80,82.76,82.71,82.63,82.62,82.65,82.68,82.74,82.78,82.80,82.82,82.85,82.88,82.90,82.89,82.87,82.91,82.96,83.00,83.00,83.00,83.00,83.02,83.09,83.31,83.50,83.62,83.69,83.75,83.88,84.22,84.55,84.77,84.89,85.07,84.66,83.75,82.77,82.71,82.71,82.71,82.71,82.66,82.30,82.04,81.99,81.99,82.00,81.99,81.95,81.92,81.91,81.84,81.79,81.78,81.77,81.74,81.72,81.63
74.22,74.29,74.27,74.26,74.34,74.53,74.61,74.51,74.50,74.59,74.66,74.87,75.01,75.15,75.38,75.66,76.27,77.00,77.74,78.58,79.30,79.98,80.67,81.43,82.52,83.56,84.37,84.84,85.23,85.46,85.59,85.65,85.65,85.73,85.74,85.69,85.59,85.49,85.48,85.50,85.49,85.45,85.36,85.33,85.31,85.23,85.13,85.08,85.05,85.05,85.02,84.97,84.93,84.92,84.95,84.95,84.92,84.88,84.86,84.83,84.85,84.86,84.84,84.81,84.80,84.79,84.76,84.67,84.61,84.57,84.54,84.51,84.51,84.53,84.51,84.48,84.44,84.42,84.41,84.40,84.40,84.39,84.37,84.37,84.41,84.46,84.43,84.34,84.24,84.21,84.21,84.21,84.22,84.24,84.27,84.30,84.31,84.28,84.22,84.19,84.15,84.11,84.10,84.09,84.07,84.04,83.99,83.94,83.89,83.83,83.76,83.69,83.66,83.62,83.59,83.57,83.59,83.59,83.58,83.56,83.53,83.54,83.55,83.53,83.49,83.47,83.43,83.41,83.39,83.39,83.35,83.33,83.35,83.41,83.45,83.46,83.44,83.36,83.26,83.18,83.10,83.03,83.00,83.05,83.11,83.16,83.17,83.17,83.15,83.14,83.14,83.05,82.94,82.88,82.86,82.85,82.84,82.83,82.84,82.86,82.80,82.70,82.63,82.58,82.47,82.39,82.40,82.45,82.48,82.45,82.45,82.47,82.51,82.69,82.82,82.88,82.87,82.79,82.76,82.79,82.83,82.85,82.82,82.79,82.78,82.77,82.72,82.74,82.78,82.83,82.85,82.86,82.84,82.85,82.89,82.85,82.81,82.79,82.79,82.75,82.69,82.69,82.70,82.67,82.74,82.77,82.77,82.77,82.78,82.82,82.83,82.83,82.81,82.82,82.85,82.88,82.88,82.87,82.85,82.81,82.82,83.00,83.14,83.21,83.22,83.15,83.06,83.30,83.70,84.12,84.31,84.36,83.59,82.50,82.29,82.28,82.23,82.18,82.20,82.14,81.82,81.55,81.45,81.41,81.38,81.36,81.43,81.64,81.58,81.46,81.40,81.44,81.35,81.35,81.30,81.10
74.19,74.27,74.23,74.21,74.31,74.51,74.48,74.39,74.35,74.40,74.55,74.63,74.67,74.75,74.96,75.18,75.62,76.20,76.88,77.81,78.59,79.36,80.18,81.10,82.12,83.07,83.85,84.44,84.99,85.33,85.52,85.57,85.58,85.67,85.66,85.60,85.53,85.53,85.51,85.50,85.49,85.45,85.38,85.32,85.26,85.14,85.05,85.02,85.01,85.02,85.03,85.00,84.95,84.93,84.98,84.95,84.89,84.83,84.81,84.85,84.87,84.86,84.82,84.84,84.81,84.79,84.76,84.68,84.61,84.57,84.55,84.54,84.51,84.51,84.49,84.46,84.41,84.38,84.38,84.39,84.40,84.40,84.39,84.38,84.37,84.36,84.34,84.30,84.26,84.23,84.23,84.23,84.23,84.21,84.27,84.29,84.30,84.30,84.28,84.25,84.20,84.16,84.18,84.20,84.17,84.11,84.02,83.94,83.87,83.81,83.76,83.72,83.72,83.68,83.62,83.59,83.62,83.63,83.60,83.54,83.48,83.48,83.50,83.51,83.47,83.43,83.41,83.39,83.37,83.37,83.37,83.36,83.35,83.38,83.44,83.48,83.47,83.42,83.30,83.19,83.10,83.03,83.00,83.07,83.14,83.18,83.16,83.13,83.09,83.06,83.04,82.98,82.93,82.90,82.88,82.84,82.82,82.81,82.81,82.82,82.76,82.68,82.62,82.58,82.44,82.41,82.42,82.43,82.43,82.41,82.42,82.44,82.50,82.68,82.81,82.86,82.82,82.70,82.54,82.51,82.57,82.65,82.65,82.71,82.75,82.73,82.66,82.64,82.65,82.67,82.72,82.73,82.70,82.75,82.91,82.91,82.81,82.76,82.77,82.72,82.69,82.68,82.66,82.60,82.71,82.71,82.68,82.66,82.67,82.66,82.65,82.64,82.61,82.55,82.55,82.55,82.50,82.48,82.38,82.15,81.90,81.94,81.97,81.95,81.86,81.68,81.66,81.54,81.38,81.28,81.67,81.83,81.43,80.86,81.00,81.01,80.78,80.61,80.70,80.68,80.36,80.12,80.01,79.85,79.73,79.69,80.04,81.07,80.89,80.53,80.42,80.62,80.25,80.26,80.11,79.70
74.15,74.23,74.21,74.19,74.24,74.39,74.31,74.27,74.25,74.26,74.38,74.43,74.45,74.50,74.66,74.82,75.18,75.69,76.35,77.29,77.91,78.69,79.67,80.76,81.83,82.68,83.35,83.91,84.66,85.10,85.38,85.54,85.57,85.66,85.65,85.58,85.51,85.56,85.55,85.52,85.50,85.50,85.45,85.35,85.22,85.11,85.05,85.02,85.00,85.01,85.05,85.01,84.96,84.93,84.98,84.94,84.87,84.81,84.81,84.87,84.89,84.86,84.82,84.87,84.84,84.81,84.77,84.72,84.65,84.59,84.56,84.52,84.48,84.49,84.49,84.47,84.43,84.39,84.38,84.39,84.40,84.40,84.40,84.38,84.36,84.32,84.31,84.30,84.30,84.30,84.27,84.26,84.26,84.24,84.28,84.30,84.30,84.30,84.30,84.26,84.19,84.15,84.16,84.20,84.22,84.19,84.08,83.96,83.87,83.78,83.72,83.73,83.75,83.69,83.61,83.60,83.61,83.62,83.60,83.54,83.48,83.47,83.46,83.45,83.43,83.41,83.39,83.36,83.31,83.31,83.35,83.36,83.34,83.34,83.39,83.43,83.43,83.38,83.28,83.18,83.10,83.02,82.99,83.02,83.06,83.08,83.05,83.04,83.01,82.97,82.92,82.86,82.81,82.83,82.87,82.83,82.80,82.78,82.76,82.72,82.64,82.51,82.40,82.32,82.22,82.21,82.17,82.13,82.15,82.18,82.17,82.17,82.20,82.33,82.38,82.38,82.33,82.24,82.06,81.97,82.00,82.12,82.13,82.19,82.22,82.20,82.13,82.08,82.09,82.10,82.00,81.92,81.84,81.89,82.06,81.96,81.78,81.74,81.78,81.64,81.64,81.60,81.53,81.50,81.61,81.61,81.52,81.40,81.51,81.42,81.31,81.21,81.09,80.96,80.89,80.82,80.73,80.71,80.66,80.52,80.33,80.30,80.32,80.31,80.24,80.13,80.16,80.05,79.87,79.75,79.99,80.09,79.94,79.72,79.80,79.84,79.72,79.61,79.65,79.64,79.48,79.35,79.28,79.19,79.09,79.06,79.29,79.96,79.85,79.63,79.55,79.66,79.42,79.41,79.31,79.06
74.13,74.19,74.20,74.17,74.18,74.25,74.16,74.18,74.17,74.15,74.22,74.28,74.31,74.34,74.44,74.56,74.86,75.32,75.94,76.89,77.29,78.03,79.14,80.42,81.52,82.31,82.87,83.35,84.28,84.78,85.18,85.49,85.58,85.66,85.66,85.60,85.51,85.58,85.58,85.56,85.53,85.56,85.53,85.38,85.19,85.10,85.08,85.04,85.01,85.02,85.06,85.01,84.95,84.92,84.97,84.92,84.85,84.81,84.82,84.88,84.90,84.87,84.83,84.89,84.87,84.83,84.79,84.76,84.69,84.62,84.55,84.49,84.45,84.48,84.50,84.49,84.46,84.42,84.40,84.40,84.40,84.39,84.39,84.39,84.36,84.31,84.29,84.30,84.32,84.34,84.31,84.29,84.28,84.28,84.28,84.28,84.28,84.28,84.29,84.24,84.16,84.10,84.09,84.16,84.24,84.24,84.12,83.96,83.85,83.74,83.66,83.70,83.73,83.66,83.57,83.57,83.56,83.56,83.53,83.49,83.45,83.41,83.37,83.33,83.33,83.32,83.30,83.25,83.19,83.18,83.24,83.27,83.25,83.21,83.23,83.26,83.26,83.20,83.12,83.05,82.97,82.88,82.84,82.82,82.81,82.80,82.79,82.80,82.78,82.73,82.64,82.55,82.49,82.54,82.64,82.61,82.59,82.56,82.51,82.41,82.30,82.11,81.93,81.81,81.76,81.75,81.66,81.57,81.64,81.68,81.66,81.62,81.62,81.67,81.62,81.57,81.52,81.47,81.32,81.20,81.19,81.33,81.34,81.36,81.37,81.36,81.30,81.21,81.25,81.27,81.01,80.81,80.70,80.73,80.86,80.65,80.43,80.40,80.46,80.24,80.27,80.20,80.11,80.10,80.20,80.21,80.07,79.87,80.08,79.92,79.72,79.53,79.33,79.17,79.03,78.90,78.79,78.78,78.80,78.81,78.79,78.72,78.76,78.77,78.76,78.76,78.83,78.83,78.83,78.83,78.85,78.84,78.86,78.87,78.79,78.86,78.90,78.91,78.89,78.87,78.87,78.87,78.87,78.88,78.85,78.83,78.83,78.82,78.83,78.83,78.81,78.78,78.79,78.76,78.75,78.76
74.16,74.14,74.19,74.19,74.17,74.16,74.17,74.19,74.19,74.18,74.21,74.32,74.36,74.39,74.49,74.67,74.86,75.13,75.61,76.61,76.94,77.49,78.51,80.09,80.96,81.84,82.53,82.93,83.65,84.16,84.70,85.26,85.57,85.62,85.61,85.58,85.51,85.58,85.60,85.61,85.61,85.53,85.50,85.42,85.27,85.10,85.09,85.07,85.05,85.02,85.07,85.01,84.93,84.87,84.92,84.90,84.86,84.83,84.88,84.91,84.94,84.93,84.88,84.88,84.85,84.81,84.80,84.79,84.74,84.65,84.55,84.49,84.45,84.48,84.50,84.48,84.43,84.41,84.40,84.39,84.38,84.36,84.35,84.35,84.35,84.29,84.25,84.20,84.19,84.24,84.28,84.26,84.22,84.19,84.16,84.11,84.11,84.16,84.20,84.16,84.08,84.01,83.95,84.05,84.16,84.14,83.94,83.74,83.68,83.62,83.55,83.52,83.52,83.46,83.38,83.33,83.31,83.25,83.19,83.15,83.08,83.03,82.95,82.87,82.80,82.79,82.79,82.78,82.72,82.67,82.70,82.71,82.67,82.58,82.54,82.50,82.42,82.30,82.23,82.17,82.08,81.96,81.87,81.81,81.77,81.74,81.70,81.72,81.68,81.56,81.37,81.25,81.16,81.14,81.15,81.12,81.14,81.13,81.07,80.94,80.79,80.55,80.35,80.26,80.22,80.19,80.14,80.10,80.13,80.07,79.97,79.89,79.87,79.88,79.86,79.81,79.72,79.66,79.61,79.58,79.59,79.60,79.61,79.63,79.64,79.61,79.57,79.57,79.62,79.65,79.52,79.41,79.38,79.41,79.47,79.41,79.33,79.31,79.35,79.28,79.29,79.29,79.27,79.25,79.27,79.27,79.24,79.20,79.27,79.22,79.12,79.03,79.05,79.06,79.01,78.93,78.87,78.86,78.83,78.84,78.88,78.82,78.80,78.75,78.73,78.77,78.75,78.77,78.81,78.83,78.82,78.81,78.79,78.77,78.72,78.76,78.81,78.84,78.82,78.83,78.77,78.77,78.82,78.78,78.79,78.78,78.74,78.71,78.77,78.68,78.62,78.67,78.71,78.76,78.77,78.75
74.21,74.18,74.21,74.20,74.18,74.15,74.21,74.23,74.23,74.23,74.23,74.36,74.43,74.47,74.55,74.71,74.84,75.01,75.36,76.37,76.70,77.07,77.86,79.44,80.39,81.39,82.16,82.55,83.09,83.70,84.39,85.07,85.42,85.52,85.55,85.53,85.49,85.57,85.58,85.56,85.56,85.49,85.47,85.41,85.29,85.15,85.11,85.08,85.05,85.01,85.02,85.00,84.95,84.89,84.90,84.87,84.83,84.81,84.83,84.83,84.84,84.82,84.77,84.76,84.71,84.66,84.62,84.60,84.54,84.44,84.33,84.24,84.21,84.22,84.22,84.19,84.14,84.09,84.05,84.00,83.95,83.89,83.89,83.90,83.89,83.79,83.69,83.57,83.49,83.53,83.67,83.63,83.52,83.42,83.31,83.18,83.14,83.21,83.36,83.34,83.29,83.23,83.13,83.19,83.26,83.20,83.00,82.84,82.80,82.76,82.70,82.65,82.62,82.53,82.41,82.33,82.29,82.18,82.08,82.01,81.94,81.88,81.79,81.68,81.59,81.60,81.64,81.63,81.56,81.49,81.53,81.53,81.45,81.32,81.27,81.20,81.08,80.93,80.84,80.82,80.77,80.68,80.58,80.51,80.47,80.45,80.42,80.44,80.41,80.32,80.19,80.12,80.06,80.02,79.98,79.95,79.98,79.98,79.95,79.86,79.73,79.54,79.41,79.40,79.41,79.38,79.35,79.32,79.32,79.26,79.18,79.11,79.09,79.11,79.10,79.02,78.90,78.86,78.86,78.92,78.96,78.94,78.95,78.98,79.00,78.99,78.99,79.00,79.03,79.02,78.89,78.82,78.81,78.83,78.85,78.86,78.84,78.83,78.83,78.83,78.85,78.88,78.89,78.89,78.89,78.87,78.86,78.88,78.89,78.89,78.83,78.79,78.89,78.97,78.97,78.92,78.88,78.89,78.87,78.89,78.93,78.88,78.83,78.77,78.75,78.80,78.78,78.81,78.85,78.88,78.86,78.85,78.82,78.78,78.72,78.75,78.78,78.80,78.78,78.83,78.77,78.75,78.77,78.71,78.74,78.73,78.70,78.67,78.75,78.66,78.59,78.64,78.68,78.74,78.76,78.73
74.29,74.28,74.25,74.22,74.21,74.21,74.26,74.29,74.29,74.29,74.29,74.41,74.50,74.56,74.63,74.69,74.81,74.94,75.19,76.14,76.55,76.74,77.17,78.53,79.84,80.95,81.75,82.21,82.58,83.37,84.22,84.91,85.15,85.37,85.46,85.47,85.45,85.56,85.52,85.44,85.39,85.43,85.43,85.36,85.26,85.23,85.12,85.07,85.04,84.98,84.93,84.98,85.01,84.98,84.91,84.83,84.77,84.73,84.70,84.67,84.63,84.58,84.55,84.52,84.48,84.38,84.28,84.23,84.12,84.03,83.93,83.80,83.76,83.74,83.72,83.69,83.64,83.53,83.41,83.30,83.18,83.07,83.09,83.11,83.04,82.89,82.70,82.49,82.32,82.32,82.57,82.51,82.28,82.06,81.86,81.62,81.50,81.59,81.88,81.91,81.91,81.88,81.77,81.71,81.67,81.58,81.44,81.35,81.31,81.27,81.24,81.21,81.16,80.99,80.80,80.69,80.65,80.49,80.33,80.22,80.16,80.09,79.99,79.89,79.82,79.88,79.95,79.93,79.82,79.75,79.83,79.82,79.69,79.56,79.53,79.45,79.31,79.15,79.06,79.09,79.12,79.09,79.01,78.97,78.96,78.97,78.98,78.98,78.99,79.02,79.07,79.13,79.15,79.13,79.09,79.06,79.06,79.07,79.09,79.10,79.05,78.99,79.00,79.10,79.21,79.20,79.17,79.14,79.11,79.14,79.13,79.11,79.12,79.19,79.16,79.05,78.90,78.88,78.91,79.04,79.16,79.15,79.18,79.22,79.26,79.30,79.34,79.33,79.30,79.21,78.97,78.89,78.87,78.87,78.87,78.87,78.87,78.85,78.81,78.80,78.86,78.89,78.91,78.96,78.95,78.91,78.87,78.85,78.89,78.86,78.81,78.78,78.84,78.90,78.91,78.88,78.84,78.88,78.91,78.94,78.96,78.89,78.85,78.82,78.82,78.85,78.89,78.92,78.94,78.96,78.96,78.94,78.93,78.88,78.77,78.82,78.81,78.78,78.79,78.85,78.84,78.78,78.70,78.68,78.70,78.69,78.68,78.67,78.76,78.75,78.70,78.67,78.69,78.70,78.71,78.69
74.29,74.34,74.35,74.33,74.31,74.34,74.52,74.48,74.42,74.39,74.39,74.62,74.73,74.77,74.80,74.80,74.97,75.23,75.58,76.32,76.67,76.84,77.14,78.06,79.21,80.20,80.90,81.26,81.55,82.52,83.32,83.65,83.39,83.99,84.19,84.05,83.82,84.00,84.04,83.94,83.78,83.89,83.83,83.74,83.66,83.60,83.53,83.34,83.16,83.06,82.99,83.03,83.06,83.05,82.99,82.83,82.73,82.66,82.61,82.54,82.48,82.46,82.47,82.45,82.39,82.29,82.19,82.16,82.08,81.98,81.85,81.71,81.68,81.67,81.67,81.67,81.65,81.55,81.45,81.37,81.29,81.20,81.15,81.11,81.04,80.93,80.84,80.74,80.66,80.65,80.76,80.70,80.55,80.41,80.29,80.15,80.06,80.07,80.19,80.19,80.19,80.18,80.13,80.07,80.07,80.05,80.00,79.98,79.96,79.96,79.97,79.99,79.95,79.87,79.81,79.81,79.78,79.68,79.58,79.52,79.52,79.49,79.45,79.40,79.39,79.43,79.46,79.45,79.41,79.40,79.43,79.42,79.37,79.36,79.36,79.33,79.27,79.20,79.18,79.19,79.19,79.15,79.08,79.02,79.01,79.05,79.11,79.08,79.06,79.08,79.14,79.19,79.21,79.20,79.17,79.13,79.12,79.12,79.13,79.14,79.06,79.02,79.08,79.24,79.37,79.37,79.36,79.34,79.23,79.19,79.19,79.18,79.15,79.19,79.19,79.09,78.95,78.96,78.95,79.06,79.19,79.20,79.09,79.06,79.08,79.10,79.06,79.05,79.03,78.95,78.79,78.74,78.01,77.23,76.96,77.76,77.56,77.75,78.12,77.08,76.90,76.89,76.78,76.33,75.78,75.81,75.78,75.47,75.35,76.08,76.04,75.49,75.38,77.62,78.63,78.89,78.88,78.94,78.96,79.00,79.03,78.97,78.91,78.87,78.85,78.83,78.84,78.85,78.87,78.91,78.88,78.83,78.82,78.83,78.79,78.81,78.82,78.83,78.85,78.94,78.89,78.87,78.91,78.88,78.88,78.95,79.16,79.57,79.35,79.96,80.52,80.55,80.22,80.07,80.19,80.28
74.95,75.05,75.06,75.05,75.05,75.09,75.31,75.25,75.17,75.15,75.17,75.41,75.52,75.54,75.54,75.52,75.72,76.03,76.39,76.88,77.16,77.29,77.48,78.01,78.85,79.61,80.13,80.35,80.51,81.42,82.04,82.07,81.58,82.31,82.52,82.28,81.92,82.11,82.21,82.14,81.95,82.07,81.97,81.89,81.84,81.78,81.75,81.51,81.25,81.16,81.09,81.10,81.13,81.13,81.08,80.91,80.82,80.77,80.72,80.64,80.58,80.56,80.59,80.58,80.55,80.48,80.42,80.39,80.35,80.26,80.15,80.04,80.02,80.02,80.04,80.06,80.06,79.98,79.92,79.88,79.83,79.77,79.70,79.62,79.55,79.48,79.46,79.45,79.43,79.42,79.44,79.38,79.30,79.24,79.18,79.13,79.09,79.06,79.05,79.02,79.02,79.03,79.01,78.96,78.99,79.02,79.03,79.04,79.04,79.05,79.08,79.13,79.12,79.14,79.19,79.29,79.28,79.22,79.18,79.17,79.19,79.20,79.18,79.17,79.18,79.21,79.20,79.19,79.21,79.25,79.23,79.21,79.21,79.28,79.29,79.30,79.31,79.33,79.34,79.34,79.31,79.25,79.18,79.10,79.08,79.11,79.18,79.14,79.11,79.11,79.15,79.17,79.19,79.12,78.98,78.86,78.89,78.88,78.79,78.60,78.47,78.42,78.39,78.37,78.39,78.47,78.48,78.40,78.20,78.12,78.12,78.14,78.12,78.28,78.25,78.10,77.94,77.98,77.97,78.05,78.14,78.15,77.97,77.91,77.91,77.92,77.84,77.83,77.81,77.77,77.68,77.66,76.72,75.70,75.36,76.38,76.13,76.38,76.88,75.52,75.24,75.22,75.06,74.45,73.73,73.79,73.77,73.37,73.19,74.14,74.20,73.70,73.95,77.09,78.51,78.87,78.88,79.00,79.02,79.05,79.10,79.07,79.02,78.99,78.98,78.99,79.03,79.06,79.11,79.16,79.14,79.07,79.07,79.09,79.08,79.11,79.27,79.43,79.50,79.62,79.44,79.47,79.77,79.96,79.93,79.96,80.18,80.67,80.33,81.10,81.82,81.85,81.37,81.15,81.27,81.38
