72.67,72.68,72.70,72.71,72.67,72.55,72.42,72.34,72.22,72.03,71.73,71.56,71.63,71.81,71.97,72.03,72.03,71.98,71.91,71.88,71.93,72.00,72.06,72.10,72.10,72.12,72.15,72.16,72.15,72.15,72.16,72.20,72.25,72.28,72.31,72.31,72.27,72.24,72.21,72.19,72.18,72.18,72.18,72.12,72.01,71.91,71.93,71.95,71.94,71.87,71.77,71.72,71.70,71.70,71.68,71.64,71.66,71.70,71.74,71.74,71.74,71.72,71.66,71.55,71.39,71.23,71.10,71.01,70.90,70.80,70.79,70.89,70.97,70.95,70.92,70.90,70.88,70.86,70.84,70.83,70.81,70.81,70.81,70.82,70.81,70.79,70.81,70.83,70.85,70.88,70.86,70.85,70.84,70.84,70.88,70.89,70.86,70.78,70.61,70.64,70.73,70.80,70.80,70.72,70.68,70.67,70.66,70.56,70.50,70.49,70.49,70.43,70.41,70.42,70.45,70.48,70.45,70.48,70.57,70.68,70.68,70.58,70.52,70.49,70.44,70.40,70.30,70.19,70.14,70.34,70.37,70.31,70.25,70.35,70.39,70.43,70.47,70.48,70.44,70.41,70.43,70.49,70.44,70.41,70.36,70.32,70.30,70.28,70.30,70.32,70.32,70.33,70.40,70.46,70.48,70.43,70.36,70.36,70.40,70.43,70.43,70.41,70.40,70.40,70.39,70.33,70.32,70.35,70.42,70.53,70.56,70.53,70.45,70.32,70.30,70.31,70.32,70.35,70.27,70.13,70.08,70.22,70.19,70.14,70.10,70.08,70.10,70.09,70.03,69.94,69.90,69.89,69.88,69.89,69.95,69.88,69.89,69.99,70.13,70.15,70.14,70.21,70.35,70.52,70.63,70.68,70.67,70.64,70.80,71.05,71.28,71.50,71.68,72.03,72.54,73.02,73.32,73.76,74.64,75.66,76.58,77.11,77.98,78.98,79.99,80.87,81.17,81.20,81.08,80.92,80.90,80.86,80.67,80.33,79.92,79.94,80.15,80.47,80.72,80.15,78.62,76.89,75.45,74.89,74.86,75.04,75.41,76.02,77.44,79.19,80.27,80.33,80.32,80.31,80.33,80.35
72.72,72.72,72.72,72.69,72.62,72.52,72.43,72.36,72.24,72.03,71.70,71.53,71.57,71.73,71.85,71.91,71.90,71.86,71.80,71.77,71.81,71.87,71.94,71.98,71.99,72.02,72.06,72.11,72.12,72.12,72.12,72.13,72.15,72.18,72.22,72.24,72.21,72.18,72.16,72.15,72.14,72.16,72.14,72.07,71.98,71.90,71.91,71.92,71.90,71.83,71.73,71.68,71.67,71.68,71.69,71.66,71.67,71.71,71.74,71.72,71.70,71.68,71.63,71.53,71.39,71.26,71.14,71.04,70.91,70.81,70.77,70.80,70.88,70.91,70.91,70.87,70.83,70.81,70.81,70.81,70.80,70.82,70.83,70.83,70.80,70.75,70.76,70.78,70.81,70.85,70.85,70.82,70.80,70.80,70.86,70.90,70.87,70.77,70.58,70.60,70.69,70.77,70.80,70.74,70.71,70.69,70.66,70.55,70.50,70.48,70.48,70.42,70.40,70.40,70.40,70.43,70.38,70.43,70.52,70.61,70.65,70.56,70.50,70.47,70.40,70.41,70.31,70.19,70.13,70.33,70.37,70.31,70.25,70.37,70.39,70.44,70.47,70.47,70.40,70.37,70.39,70.44,70.40,70.37,70.33,70.28,70.24,70.29,70.28,70.26,70.27,70.30,70.39,70.45,70.46,70.40,70.34,70.34,70.37,70.40,70.44,70.42,70.40,70.41,70.38,70.33,70.31,70.32,70.34,70.38,70.42,70.43,70.38,70.29,70.28,70.31,70.35,70.39,70.29,70.14,70.08,70.23,70.19,70.15,70.11,70.09,70.08,70.08,70.04,69.97,69.91,69.90,69.87,69.84,69.83,69.78,69.81,69.89,69.98,69.99,70.01,70.07,70.16,70.28,70.39,70.43,70.44,70.46,70.66,70.89,71.14,71.36,71.51,71.68,72.07,72.47,72.71,72.90,73.58,74.55,75.57,76.17,76.96,77.86,78.86,79.93,80.49,80.53,80.29,80.00,80.04,80.16,80.05,79.77,79.50,79.59,79.93,80.35,80.64,79.96,78.37,76.68,75.32,74.73,74.70,74.84,75.16,75.74,77.37,79.23,80.34,80.33,80.31,80.32,80.34,80.36
72.79,72.78,72.74,72.65,72.55,72.50,72.46,72.39,72.25,72.00,71.63,71.51,71.55,71.67,71.76,71.81,71.81,71.80,71.80,71.76,71.76,71.78,71.83,71.86,71.90,71.93,71.99,72.06,72.09,72.10,72.08,72.05,72.01,72.05,72.09,72.11,72.11,72.11,72.10,72.10,72.10,72.10,72.04,71.97,71.91,71.90,71.87,71.83,71.79,71.75,71.66,71.62,71.62,71.66,71.69,71.69,71.72,71.77,71.79,71.71,71.67,71.65,71.61,71.49,71.38,71.29,71.20,71.08,70.92,70.83,70.74,70.62,70.68,70.82,70.88,70.84,70.80,70.80,70.80,70.80,70.81,70.85,70.89,70.88,70.82,70.75,70.75,70.77,70.79,70.81,70.87,70.83,70.78,70.79,70.84,70.90,70.88,70.75,70.56,70.54,70.64,70.76,70.80,70.74,70.71,70.68,70.61,70.53,70.47,70.45,70.46,70.41,70.40,70.39,70.37,70.34,70.30,70.38,70.46,70.50,70.54,70.50,70.48,70.45,70.39,70.41,70.31,70.19,70.13,70.31,70.32,70.27,70.24,70.37,70.39,70.42,70.43,70.43,70.36,70.32,70.33,70.37,70.40,70.33,70.29,70.24,70.15,70.27,70.25,70.21,70.24,70.29,70.42,70.47,70.43,70.40,70.36,70.32,70.33,70.40,70.40,70.40,70.41,70.43,70.39,70.35,70.34,70.33,70.28,70.26,70.26,70.27,70.27,70.23,70.25,70.31,70.36,70.39,70.28,70.13,70.06,70.17,70.16,70.15,70.11,70.06,70.05,70.05,70.02,69.98,69.94,69.91,69.89,69.85,69.79,69.77,69.78,69.78,69.77,69.79,69.85,69.91,69.98,70.09,70.15,70.18,70.22,70.32,70.53,70.76,71.04,71.32,71.50,71.56,71.75,72.00,72.22,72.27,72.86,73.70,74.56,75.13,75.96,76.83,77.70,78.52,79.31,79.30,78.92,78.52,78.71,79.12,79.19,79.03,79.02,79.26,79.77,80.29,80.53,79.66,77.95,76.34,75.17,74.58,74.56,74.67,74.94,75.48,77.26,79.24,80.37,80.33,80.34,80.33,80.33,80.34
72.76,72.72,72.67,72.62,72.58,72.56,72.53,72.43,72.26,72.01,71.68,71.51,71.51,71.61,71.71,71.79,71.82,71.82,71.79,71.76,71.74,71.75,71.78,71.81,71.84,71.87,71.90,71.93,71.96,71.98,71.99,71.99,71.96,71.97,72.00,72.03,72.02,72.02,72.03,72.05,72.06,72.06,72.04,71.98,71.90,71.86,71.87,71.86,71.83,71.76,71.66,71.60,71.59,71.61,71.63,71.66,71.72,71.76,71.76,71.65,71.59,71.57,71.55,71.40,71.31,71.25,71.19,71.07,70.92,70.82,70.73,70.62,70.62,70.73,70.78,70.77,70.75,70.78,70.80,70.80,70.82,70.86,70.90,70.89,70.83,70.77,70.73,70.72,70.73,70.79,70.86,70.86,70.82,70.79,70.78,70.79,70.80,70.75,70.55,70.50,70.59,70.73,70.79,70.74,70.71,70.68,70.63,70.54,70.48,70.45,70.45,70.41,70.42,70.40,70.37,70.36,70.27,70.33,70.40,70.43,70.41,70.40,70.39,70.37,70.34,70.39,70.29,70.17,70.13,70.25,70.28,70.24,70.21,70.34,70.37,70.39,70.41,70.43,70.36,70.30,70.28,70.30,70.33,70.29,70.27,70.24,70.16,70.24,70.23,70.22,70.27,70.30,70.40,70.46,70.43,70.40,70.38,70.35,70.36,70.43,70.41,70.40,70.41,70.44,70.45,70.45,70.43,70.39,70.34,70.26,70.25,70.25,70.21,70.16,70.18,70.22,70.26,70.28,70.20,70.09,70.03,70.09,70.12,70.11,70.06,69.99,70.02,70.02,70.01,69.99,69.97,69.94,69.90,69.84,69.76,69.78,69.79,69.77,69.73,69.74,69.78,69.80,69.82,69.88,69.90,69.93,70.02,70.17,70.33,70.49,70.74,71.05,71.38,71.47,71.56,71.64,71.71,71.79,72.14,72.67,73.33,74.11,74.82,75.51,76.28,77.21,78.08,78.20,77.99,77.76,77.85,78.13,78.29,78.35,78.48,78.76,79.33,79.98,80.46,79.66,77.95,76.28,75.04,74.45,74.42,74.48,74.70,75.21,77.15,79.22,80.41,80.39,80.36,80.32,80.30,80.29
72.72,72.65,72.63,72.62,72.62,72.61,72.59,72.44,72.23,71.99,71.70,71.50,71.47,71.55,71.66,71.77,71.82,71.82,71.78,71.75,71.72,71.73,71.76,71.78,71.79,71.81,71.82,71.82,71.83,71.86,71.89,71.92,71.89,71.89,71.92,71.94,71.92,71.90,71.92,71.96,72.00,72.01,72.01,71.95,71.86,71.81,71.86,71.88,71.85,71.76,71.65,71.59,71.56,71.56,71.57,71.63,71.71,71.75,71.71,71.58,71.51,71.49,71.48,71.33,71.25,71.20,71.16,71.06,70.92,70.82,70.74,70.67,70.65,70.69,70.72,70.73,70.74,70.79,70.80,70.79,70.80,70.82,70.86,70.87,70.81,70.75,70.69,70.65,70.65,70.74,70.82,70.84,70.82,70.76,70.71,70.69,70.71,70.71,70.54,70.46,70.53,70.66,70.74,70.69,70.67,70.64,70.60,70.51,70.46,70.43,70.41,70.39,70.41,70.38,70.35,70.36,70.25,70.27,70.31,70.34,70.29,70.30,70.29,70.27,70.27,70.33,70.24,70.15,70.12,70.19,70.22,70.19,70.18,70.30,70.32,70.34,70.37,70.41,70.34,70.27,70.24,70.24,70.27,70.26,70.26,70.25,70.20,70.24,70.23,70.24,70.30,70.27,70.37,70.42,70.40,70.38,70.40,70.38,70.39,70.45,70.41,70.40,70.41,70.44,70.49,70.50,70.48,70.43,70.37,70.28,70.25,70.23,70.18,70.11,70.12,70.13,70.15,70.18,70.12,70.05,70.00,70.02,70.07,70.08,70.03,69.94,69.98,69.98,69.99,70.00,70.00,69.97,69.91,69.83,69.74,69.79,69.81,69.79,69.75,69.75,69.78,69.77,69.75,69.75,69.73,69.75,69.84,69.98,70.08,70.19,70.41,70.75,71.17,71.33,71.35,71.31,71.27,71.38,71.54,71.79,72.20,72.97,73.56,74.14,74.82,75.71,76.75,77.18,77.30,77.27,77.29,77.43,77.61,77.79,77.99,78.29,78.83,79.54,80.22,79.68,78.04,76.29,74.91,74.33,74.28,74.33,74.53,75.06,77.07,79.21,80.44,80.43,80.37,80.31,80.26,80.23
72.67,72.64,72.67,72.66,72.64,72.62,72.60,72.40,72.15,71.90,71.64,71.47,71.44,71.51,71.62,71.70,71.76,71.79,71.77,71.73,71.72,71.74,71.77,71.75,71.71,71.73,71.75,71.76,71.76,71.78,71.80,71.81,71.78,71.81,71.84,71.84,71.78,71.72,71.75,71.82,71.91,71.94,71.91,71.83,71.75,71.75,71.83,71.86,71.83,71.75,71.64,71.58,71.53,71.51,71.51,71.62,71.70,71.73,71.64,71.49,71.42,71.42,71.43,71.30,71.20,71.13,71.09,71.03,70.92,70.83,70.79,70.80,70.80,70.77,70.75,70.75,70.80,70.83,70.80,70.75,70.71,70.71,70.75,70.76,70.73,70.68,70.60,70.55,70.56,70.64,70.68,70.70,70.70,70.67,70.62,70.61,70.61,70.60,70.49,70.45,70.47,70.53,70.57,70.55,70.54,70.52,70.47,70.41,70.38,70.35,70.33,70.33,70.33,70.30,70.28,70.28,70.23,70.20,70.20,70.21,70.17,70.18,70.17,70.16,70.18,70.19,70.15,70.12,70.11,70.13,70.14,70.13,70.13,70.23,70.24,70.25,70.27,70.33,70.27,70.23,70.21,70.21,70.21,70.25,70.28,70.29,70.28,70.27,70.27,70.28,70.29,70.19,70.32,70.35,70.28,70.33,70.38,70.40,70.40,70.43,70.40,70.40,70.40,70.42,70.49,70.46,70.43,70.40,70.32,70.28,70.24,70.21,70.18,70.11,70.10,70.08,70.06,70.11,70.05,70.01,69.98,69.94,70.02,70.06,70.02,69.91,69.92,69.93,69.96,70.00,70.00,69.98,69.92,69.83,69.73,69.80,69.85,69.87,69.86,69.86,69.87,69.86,69.83,69.79,69.75,69.68,69.65,69.69,69.74,69.88,70.10,70.39,70.77,71.08,71.08,70.99,71.00,71.09,71.17,71.25,71.35,71.59,72.09,72.70,73.32,73.83,75.17,76.32,77.01,77.21,77.28,77.32,77.37,77.46,77.62,77.87,78.26,78.86,79.64,79.66,78.25,76.40,74.76,74.18,74.14,74.23,74.51,75.13,77.09,79.22,80.45,80.45,80.37,80.28,80.19,80.14
72.64,72.58,72.62,72.62,72.60,72.56,72.48,72.27,72.02,71.79,71.57,71.44,71.40,71.45,71.56,71.65,71.72,71.75,71.76,71.72,71.71,71.73,71.73,71.69,71.63,71.65,71.70,71.72,71.72,71.74,71.74,71.71,71.65,71.68,71.71,71.70,71.63,71.56,71.59,71.68,71.80,71.82,71.75,71.65,71.58,71.58,71.72,71.79,71.78,71.68,71.57,71.51,71.46,71.41,71.38,71.45,71.53,71.55,71.46,71.34,71.29,71.28,71.27,71.18,71.10,71.05,71.02,70.99,70.88,70.80,70.77,70.80,70.83,70.80,70.77,70.77,70.79,70.79,70.75,70.69,70.65,70.65,70.67,70.68,70.66,70.61,70.54,70.51,70.52,70.56,70.58,70.59,70.59,70.56,70.52,70.51,70.51,70.49,70.44,70.40,70.40,70.41,70.43,70.45,70.43,70.41,70.37,70.35,70.33,70.33,70.33,70.32,70.28,70.27,70.27,70.24,70.24,70.21,70.18,70.18,70.17,70.17,70.18,70.20,70.21,70.19,70.14,70.11,70.10,70.11,70.14,70.17,70.21,70.29,70.27,70.26,70.27,70.30,70.24,70.26,70.27,70.26,70.28,70.32,70.34,70.35,70.35,70.34,70.33,70.34,70.33,70.20,70.26,70.27,70.23,70.26,70.33,70.37,70.39,70.36,70.36,70.35,70.34,70.33,70.43,70.39,70.37,70.35,70.31,70.26,70.22,70.18,70.13,70.07,70.05,70.05,70.06,70.09,70.06,70.02,69.98,69.96,70.00,70.00,69.97,69.90,69.90,69.90,69.92,69.95,69.97,69.97,69.89,69.81,69.76,69.83,69.84,69.84,69.85,69.88,69.90,69.89,69.87,69.84,69.81,69.73,69.68,69.66,69.60,69.68,69.84,70.07,70.37,70.57,70.64,70.67,70.76,70.94,71.05,71.09,71.11,71.25,71.78,72.26,72.65,72.95,73.93,74.98,75.91,76.60,76.96,77.10,77.18,77.24,77.34,77.50,77.78,78.31,79.10,79.35,78.07,76.26,74.59,74.05,74.03,74.13,74.41,75.04,77.01,79.18,80.46,80.46,80.37,80.27,80.18,80.13
72.57,72.48,72.49,72.50,72.50,72.45,72.29,72.09,71.87,71.67,71.50,71.41,71.37,71.40,71.50,71.60,71.67,71.70,71.72,71.70,71.69,71.69,71.67,71.60,71.52,71.56,71.62,71.66,71.66,71.68,71.66,71.60,71.51,71.53,71.56,71.55,71.47,71.40,71.43,71.52,71.64,71.64,71.55,71.45,71.37,71.38,71.56,71.66,71.67,71.56,71.44,71.40,71.36,71.29,71.21,71.24,71.30,71.31,71.24,71.16,71.14,71.13,71.09,71.04,70.99,70.97,70.96,70.94,70.83,70.75,70.73,70.78,70.82,70.81,70.80,70.79,70.77,70.74,70.70,70.66,70.62,70.61,70.61,70.61,70.61,70.56,70.52,70.51,70.52,70.52,70.51,70.51,70.50,70.46,70.43,70.43,70.43,70.43,70.43,70.37,70.33,70.32,70.32,70.37,70.36,70.34,70.33,70.32,70.32,70.34,70.37,70.33,70.25,70.25,70.26,70.23,70.27,70.24,70.20,70.19,70.20,70.20,70.24,70.29,70.30,70.24,70.16,70.11,70.10,70.11,70.18,70.25,70.32,70.39,70.34,70.31,70.31,70.29,70.23,70.31,70.35,70.32,70.38,70.39,70.39,70.40,70.40,70.40,70.40,70.40,70.38,70.24,70.20,70.19,70.19,70.20,70.26,70.32,70.35,70.29,70.30,70.30,70.26,70.22,70.35,70.32,70.30,70.30,70.30,70.22,70.19,70.16,70.07,70.01,70.00,70.04,70.08,70.08,70.09,70.04,70.00,70.00,69.99,69.95,69.91,69.90,69.89,69.88,69.88,69.89,69.92,69.93,69.85,69.77,69.78,69.84,69.80,69.77,69.79,69.86,69.88,69.89,69.89,69.89,69.86,69.79,69.74,69.70,69.53,69.54,69.62,69.76,69.97,70.00,70.17,70.36,70.53,70.82,71.01,71.08,71.10,71.26,71.81,72.12,72.27,72.48,72.93,73.64,74.64,75.80,76.43,76.78,76.97,77.05,77.10,77.15,77.34,77.80,78.56,78.90,77.72,76.00,74.42,73.92,73.93,74.02,74.29,74.91,76.92,79.15,80.47,80.47,80.38,80.28,80.20,80.15
72.14,72.11,72.12,72.13,72.12,72.09,71.96,71.84,71.72,71.59,71.48,71.40,71.36,71.37,71.44,71.50,71.55,71.57,71.56,71.52,71.53,71.54,71.53,71.45,71.37,71.37,71.40,71.43,71.41,71.39,71.37,71.35,71.31,71.32,71.33,71.33,71.30,71.27,71.26,71.27,71.29,71.29,71.24,71.17,71.12,71.12,71.19,71.23,71.22,71.16,71.11,71.12,71.12,71.10,71.07,71.11,71.11,71.08,71.01,70.98,70.97,70.97,70.96,70.95,70.93,70.91,70.88,70.84,70.75,70.70,70.71,70.81,70.90,70.88,70.84,70.82,70.84,70.82,70.81,70.79,70.73,70.69,70.65,70.64,70.66,70.66,70.65,70.65,70.63,70.60,70.55,70.52,70.52,70.53,70.50,70.52,70.54,70.57,70.64,70.52,70.42,70.37,70.37,70.43,70.45,70.47,70.51,70.50,70.46,70.46,70.46,70.42,70.29,70.26,70.27,70.26,70.25,70.22,70.18,70.15,70.18,70.20,70.24,70.31,70.36,70.30,70.20,70.12,70.09,70.16,70.31,70.39,70.40,70.46,70.40,70.38,70.34,70.27,70.24,70.30,70.32,70.31,70.38,70.36,70.35,70.36,70.40,70.40,70.39,70.38,70.36,70.23,70.19,70.16,70.14,70.18,70.18,70.19,70.21,70.26,70.27,70.28,70.25,70.20,70.23,70.28,70.31,70.31,70.27,70.22,70.19,70.15,70.06,70.01,69.99,70.00,70.03,70.03,70.06,70.03,69.99,69.98,69.99,69.98,69.94,69.90,69.88,69.85,69.84,69.84,69.89,69.85,69.75,69.64,69.58,69.69,69.70,69.69,69.71,69.79,69.81,69.82,69.83,69.83,69.77,69.67,69.57,69.52,69.49,69.46,69.47,69.53,69.65,69.77,69.93,70.11,70.32,70.61,70.88,71.01,71.02,71.07,71.32,71.58,71.85,72.20,72.75,73.40,74.17,74.98,75.40,76.11,76.56,76.73,76.80,76.82,76.88,77.19,77.87,78.29,77.19,75.63,74.24,73.75,73.74,73.86,74.19,74.90,76.94,79.20,80.53,80.53,80.42,80.33,80.26,80.20
71.82,71.84,71.84,71.82,71.81,71.80,71.71,71.66,71.60,71.53,71.47,71.40,71.37,71.37,71.40,71.43,71.47,71.48,71.44,71.40,71.39,71.40,71.40,71.35,71.29,71.27,71.27,71.28,71.25,71.23,71.22,71.22,71.22,71.23,71.24,71.24,71.22,71.23,71.21,71.18,71.16,71.16,71.14,71.10,71.07,71.05,71.03,71.02,71.03,71.04,71.07,71.10,71.11,71.10,71.08,71.10,71.10,71.06,71.01,71.01,71.01,71.01,71.02,71.03,71.05,71.01,70.94,70.84,70.73,70.67,70.70,70.82,70.96,70.96,70.94,70.95,71.00,70.95,70.92,70.89,70.83,70.77,70.72,70.70,70.71,70.73,70.73,70.73,70.71,70.69,70.61,70.56,70.55,70.58,70.54,70.57,70.62,70.68,70.74,70.59,70.47,70.41,70.40,70.44,70.47,70.52,70.59,70.52,70.49,70.50,70.52,70.51,70.36,70.28,70.26,70.26,70.24,70.22,70.19,70.15,70.18,70.21,70.26,70.34,70.39,70.33,70.24,70.14,70.08,70.19,70.38,70.46,70.46,70.49,70.43,70.40,70.37,70.29,70.30,70.33,70.34,70.33,70.37,70.36,70.35,70.36,70.40,70.39,70.36,70.34,70.32,70.21,70.18,70.16,70.14,70.18,70.13,70.08,70.09,70.18,70.20,70.20,70.18,70.16,70.13,70.22,70.29,70.32,70.26,70.23,70.20,70.16,70.08,69.99,69.96,69.95,69.97,70.00,70.03,70.01,69.97,69.95,69.99,69.98,69.95,69.90,69.89,69.87,69.84,69.82,69.81,69.77,69.68,69.56,69.47,69.58,69.63,69.66,69.68,69.71,69.70,69.72,69.75,69.74,69.69,69.56,69.45,69.41,69.49,69.45,69.41,69.41,69.45,69.58,69.71,69.87,70.08,70.37,70.67,70.83,70.87,70.91,71.03,71.20,71.47,71.84,72.39,72.92,73.51,74.16,74.58,75.35,75.86,76.11,76.32,76.47,76.47,76.62,77.10,77.49,76.50,75.19,74.07,73.59,73.58,73.70,74.05,74.81,76.88,79.16,80.51,80.55,80.43,80.35,80.29,80.25
71.58,71.65,71.63,71.58,71.55,71.55,71.54,71.53,71.52,71.50,71.46,71.42,71.39,71.39,71.39,71.40,71.41,71.40,71.37,71.30,71.26,71.26,71.28,71.28,71.27,71.25,71.22,71.20,71.17,71.18,71.19,71.21,71.22,71.25,71.26,71.26,71.22,71.25,71.25,71.24,71.22,71.23,71.22,71.21,71.19,71.12,71.04,71.02,71.06,71.17,71.28,71.31,71.29,71.26,71.23,71.22,71.22,71.23,71.22,71.21,71.21,71.22,71.24,71.27,71.30,71.25,71.11,70.92,70.76,70.68,70.70,70.81,70.97,71.04,71.10,71.18,71.22,71.12,71.04,70.98,70.92,70.85,70.80,70.77,70.77,70.77,70.78,70.76,70.74,70.76,70.68,70.63,70.60,70.60,70.56,70.59,70.66,70.75,70.73,70.59,70.49,70.43,70.41,70.40,70.43,70.50,70.59,70.41,70.42,70.48,70.55,70.60,70.45,70.31,70.23,70.23,70.25,70.25,70.22,70.19,70.20,70.23,70.30,70.38,70.40,70.33,70.28,70.18,70.05,70.19,70.38,70.48,70.50,70.50,70.43,70.40,70.39,70.36,70.39,70.40,70.38,70.35,70.35,70.38,70.40,70.40,70.40,70.36,70.32,70.29,70.24,70.17,70.18,70.20,70.20,70.20,70.09,70.00,69.98,70.06,70.09,70.07,70.06,70.09,70.06,70.15,70.26,70.32,70.26,70.25,70.22,70.18,70.11,69.97,69.92,69.90,69.91,69.99,70.00,69.97,69.93,69.91,69.98,69.96,69.93,69.90,69.93,69.91,69.87,69.81,69.71,69.70,69.63,69.53,69.44,69.53,69.59,69.65,69.68,69.63,69.58,69.60,69.64,69.63,69.59,69.45,69.35,69.38,69.53,69.48,69.42,69.38,69.36,69.43,69.51,69.63,69.83,70.10,70.39,70.57,70.64,70.79,70.90,70.98,71.12,71.43,71.87,72.22,72.68,73.32,73.93,74.52,74.91,75.21,75.67,76.10,76.11,76.08,76.28,76.53,75.68,74.69,73.90,73.43,73.42,73.54,73.88,74.65,76.76,79.05,80.43,80.52,80.40,80.33,80.30,80.29
71.89,72.04,72.02,71.96,71.93,71.93,71.83,71.73,71.66,71.60,71.48,71.40,71.36,71.34,71.34,71.39,71.46,71.51,71.52,71.48,71.49,71.54,71.60,71.63,71.55,71.46,71.41,71.40,71.40,71.37,71.32,71.27,71.27,71.30,71.31,71.30,71.27,71.28,71.26,71.25,71.26,71.29,71.27,71.25,71.22,71.18,71.10,71.05,71.07,71.20,71.32,71.36,71.37,71.36,71.34,71.32,71.32,71.34,71.34,71.32,71.30,71.32,71.39,71.48,71.50,71.40,71.21,70.99,70.81,70.70,70.68,70.77,70.94,71.05,71.13,71.20,71.22,71.12,71.03,70.96,70.90,70.81,70.74,70.71,70.70,70.68,70.73,70.74,70.74,70.77,70.72,70.67,70.64,70.63,70.62,70.66,70.72,70.77,70.73,70.59,70.52,70.51,70.49,70.45,70.43,70.45,70.47,70.36,70.38,70.44,70.51,70.51,70.46,70.35,70.27,70.26,70.24,70.23,70.24,70.24,70.22,70.27,70.34,70.36,70.30,70.29,70.27,70.17,70.04,70.14,70.35,70.48,70.51,70.53,70.45,70.41,70.38,70.33,70.38,70.40,70.39,70.37,70.33,70.37,70.38,70.36,70.36,70.33,70.31,70.29,70.26,70.15,70.21,70.26,70.26,70.26,70.16,70.10,70.08,70.11,70.12,70.05,70.02,70.03,70.02,70.07,70.13,70.18,70.19,70.26,70.26,70.17,70.01,69.93,69.88,69.87,69.90,69.95,69.95,69.96,69.95,69.90,69.90,69.88,69.86,69.86,69.91,69.90,69.84,69.77,69.74,69.71,69.66,69.60,69.52,69.52,69.51,69.52,69.55,69.54,69.50,69.54,69.59,69.56,69.51,69.38,69.32,69.40,69.50,69.46,69.41,69.37,69.32,69.34,69.36,69.42,69.56,69.77,69.97,70.10,70.20,70.41,70.74,70.88,70.95,71.15,71.72,71.96,72.20,72.63,73.37,74.13,74.53,74.65,74.85,75.16,75.40,75.57,75.64,75.70,75.25,74.53,73.75,73.27,73.29,73.41,73.74,74.43,76.60,79.03,80.48,80.54,80.39,80.31,80.25,80.21
72.21,72.35,72.34,72.28,72.25,72.26,72.12,71.96,71.85,71.75,71.55,71.41,71.33,71.30,71.32,71.41,71.53,71.62,71.65,71.65,71.70,71.78,71.85,71.88,71.77,71.65,71.58,71.59,71.61,71.55,71.44,71.34,71.31,71.33,71.34,71.33,71.29,71.30,71.28,71.26,71.29,71.32,71.31,71.28,71.23,71.20,71.12,71.06,71.07,71.20,71.31,71.36,71.39,71.42,71.44,71.40,71.40,71.42,71.43,71.39,71.37,71.40,71.48,71.60,71.61,71.48,71.25,71.01,70.82,70.70,70.66,70.73,70.90,71.03,71.13,71.20,71.20,71.11,71.02,70.95,70.88,70.80,70.72,70.67,70.63,70.60,70.68,70.74,70.75,70.76,70.74,70.71,70.69,70.69,70.69,70.72,70.76,70.78,70.73,70.60,70.57,70.60,70.59,70.52,70.46,70.41,70.39,70.33,70.38,70.45,70.50,70.48,70.50,70.43,70.35,70.33,70.27,70.26,70.28,70.30,70.25,70.31,70.36,70.34,70.23,70.27,70.25,70.16,70.04,70.11,70.33,70.48,70.52,70.55,70.44,70.40,70.38,70.33,70.40,70.42,70.42,70.41,70.34,70.37,70.37,70.35,70.35,70.31,70.30,70.30,70.27,70.13,70.21,70.29,70.32,70.30,70.23,70.20,70.18,70.16,70.16,70.08,70.02,70.00,70.00,70.01,70.02,70.05,70.09,70.17,70.20,70.11,69.91,69.88,69.84,69.84,69.89,69.91,69.92,69.94,69.94,69.89,69.85,69.83,69.82,69.84,69.87,69.87,69.82,69.77,69.77,69.73,69.71,69.66,69.59,69.53,69.47,69.44,69.45,69.47,69.44,69.48,69.52,69.47,69.43,69.32,69.30,69.39,69.45,69.40,69.36,69.32,69.26,69.27,69.25,69.26,69.35,69.49,69.60,69.71,69.84,70.07,70.46,70.63,70.69,70.84,71.46,71.67,71.75,71.95,72.63,73.48,73.96,74.10,74.18,74.40,74.76,75.03,75.06,74.98,74.80,74.31,73.59,73.13,73.15,73.28,73.62,74.33,76.49,78.93,80.43,80.53,80.36,80.28,80.21,80.16
72.49,72.47,72.46,72.43,72.41,72.41,72.34,72.22,72.11,71.99,71.72,71.45,71.31,71.29,71.36,71.48,71.60,71.70,71.75,71.78,71.84,71.89,71.92,71.90,71.83,71.76,71.71,71.73,71.73,71.65,71.53,71.39,71.33,71.32,71.31,71.29,71.28,71.29,71.29,71.28,71.28,71.30,71.30,71.27,71.21,71.14,71.06,71.01,71.03,71.16,71.23,71.27,71.34,71.43,71.48,71.45,71.44,71.45,71.45,71.41,71.42,71.44,71.47,71.57,71.58,71.45,71.20,70.94,70.77,70.67,70.65,70.73,70.86,70.98,71.09,71.16,71.18,71.10,71.02,70.96,70.90,70.85,70.79,70.71,70.60,70.57,70.67,70.75,70.77,70.75,70.73,70.74,70.75,70.76,70.76,70.77,70.79,70.79,70.74,70.64,70.62,70.67,70.72,70.63,70.52,70.43,70.39,70.33,70.43,70.52,70.56,70.55,70.60,70.58,70.52,70.45,70.38,70.36,70.36,70.36,70.30,70.35,70.36,70.31,70.21,70.27,70.21,70.11,70.03,70.14,70.35,70.50,70.56,70.53,70.39,70.37,70.39,70.38,70.45,70.47,70.48,70.46,70.39,70.39,70.39,70.39,70.39,70.33,70.30,70.30,70.28,70.14,70.18,70.28,70.36,70.30,70.29,70.28,70.25,70.19,70.19,70.18,70.11,70.00,70.00,70.00,69.97,69.93,69.94,69.90,69.96,69.97,69.82,69.82,69.81,69.85,69.90,69.90,69.90,69.91,69.91,69.90,69.88,69.84,69.83,69.86,69.82,69.82,69.83,69.84,69.79,69.78,69.76,69.71,69.60,69.58,69.52,69.46,69.42,69.41,69.40,69.41,69.41,69.38,69.33,69.30,69.30,69.32,69.37,69.31,69.25,69.19,69.15,69.20,69.21,69.22,69.26,69.32,69.36,69.46,69.63,69.85,69.95,70.06,70.22,70.47,71.00,71.30,71.36,71.28,71.55,72.28,72.99,73.53,73.82,74.04,74.26,74.45,74.59,74.44,74.26,73.92,73.43,73.02,73.00,73.14,73.56,74.43,76.46,78.69,80.16,80.45,80.29,80.22,80.18,80.17
72.52,72.46,72.46,72.46,72.47,72.48,72.46,72.38,72.27,72.10,71.76,71.44,71.31,71.31,71.41,71.54,71.66,71.76,71.83,71.86,71.91,71.93,71.92,71.91,71.89,71.84,71.81,71.81,71.79,71.71,71.59,71.44,71.33,71.31,71.30,71.29,71.28,71.30,71.29,71.29,71.29,71.28,71.27,71.24,71.19,71.13,71.02,70.95,70.97,71.09,71.17,71.22,71.29,71.38,71.45,71.44,71.44,71.45,71.45,71.42,71.43,71.45,71.46,71.51,71.55,71.48,71.28,71.01,70.79,70.66,70.64,70.73,70.85,70.96,71.07,71.16,71.21,71.14,71.06,70.99,70.92,70.88,70.85,70.79,70.67,70.60,70.68,70.76,70.78,70.70,70.70,70.75,70.80,70.80,70.79,70.79,70.80,70.79,70.77,70.70,70.68,70.70,70.75,70.72,70.60,70.48,70.40,70.34,70.43,70.51,70.55,70.57,70.64,70.67,70.65,70.60,70.52,70.48,70.42,70.36,70.32,70.36,70.38,70.36,70.32,70.32,70.23,70.11,70.04,70.18,70.39,70.53,70.57,70.55,70.42,70.39,70.40,70.41,70.47,70.49,70.51,70.52,70.41,70.34,70.32,70.34,70.34,70.31,70.30,70.30,70.27,70.10,70.14,70.25,70.31,70.22,70.22,70.24,70.22,70.14,70.14,70.18,70.15,70.05,70.02,70.04,70.03,70.00,69.97,69.91,69.93,69.93,69.83,69.84,69.84,69.86,69.89,69.89,69.90,69.89,69.89,69.90,69.89,69.85,69.83,69.83,69.79,69.80,69.80,69.78,69.77,69.78,69.77,69.72,69.60,69.58,69.53,69.47,69.43,69.40,69.37,69.35,69.33,69.31,69.31,69.30,69.28,69.26,69.26,69.21,69.16,69.12,69.12,69.16,69.18,69.19,69.23,69.24,69.23,69.29,69.45,69.68,69.72,69.82,69.99,70.22,70.56,70.86,70.99,70.95,71.04,71.41,71.85,72.27,72.62,73.00,73.34,73.73,74.20,74.07,73.91,73.64,73.25,72.88,72.86,72.98,73.36,74.26,76.36,78.61,80.08,80.40,80.29,80.24,80.21,80.21
72.48,72.43,72.44,72.46,72.49,72.52,72.54,72.48,72.36,72.13,71.74,71.42,71.31,71.34,71.46,71.60,71.72,71.81,71.89,71.91,71.94,71.93,71.91,71.93,71.93,71.90,71.88,71.87,71.82,71.74,71.63,71.49,71.33,71.31,71.30,71.30,71.29,71.30,71.30,71.30,71.29,71.26,71.23,71.21,71.19,71.14,70.99,70.90,70.90,71.02,71.13,71.19,71.25,71.32,71.39,71.39,71.41,71.44,71.43,71.40,71.43,71.45,71.44,71.46,71.53,71.52,71.40,71.11,70.82,70.66,70.64,70.73,70.83,70.95,71.06,71.16,71.23,71.18,71.09,71.00,70.93,70.90,70.89,70.85,70.76,70.65,70.70,70.76,70.76,70.66,70.66,70.75,70.82,70.82,70.79,70.79,70.79,70.80,70.80,70.75,70.71,70.70,70.74,70.76,70.65,70.51,70.41,70.35,70.41,70.47,70.52,70.58,70.66,70.73,70.76,70.73,70.66,70.60,70.50,70.36,70.33,70.38,70.42,70.44,70.48,70.41,70.29,70.15,70.05,70.23,70.42,70.54,70.56,70.55,70.47,70.43,70.43,70.43,70.48,70.49,70.53,70.55,70.40,70.27,70.24,70.26,70.27,70.29,70.30,70.29,70.25,70.07,70.12,70.20,70.23,70.12,70.13,70.15,70.15,70.08,70.07,70.15,70.17,70.10,70.04,70.08,70.11,70.11,70.06,70.01,69.98,69.94,69.88,69.90,69.89,69.87,69.87,69.86,69.89,69.88,69.87,69.89,69.89,69.85,69.82,69.79,69.77,69.78,69.76,69.72,69.75,69.78,69.78,69.72,69.60,69.57,69.53,69.49,69.45,69.40,69.36,69.33,69.29,69.26,69.32,69.31,69.26,69.21,69.15,69.11,69.08,69.08,69.11,69.14,69.16,69.18,69.20,69.18,69.13,69.16,69.28,69.50,69.55,69.66,69.81,70.00,70.13,70.41,70.65,70.74,70.74,70.76,70.83,71.00,71.34,71.83,72.32,72.95,73.74,73.73,73.61,73.39,73.08,72.72,72.73,72.81,73.15,74.01,76.24,78.59,80.08,80.35,80.31,80.28,80.25,80.26
72.49,72.46,72.44,72.47,72.50,72.51,72.51,72.45,72.29,72.04,71.68,71.39,71.28,71.33,71.49,71.66,71.77,71.85,71.90,71.90,71.91,71.91,71.90,71.91,71.89,71.87,71.86,71.86,71.81,71.76,71.66,71.52,71.36,71.33,71.33,71.33,71.30,71.31,71.32,71.32,71.29,71.23,71.21,71.20,71.17,71.10,70.96,70.88,70.90,71.02,71.15,71.22,71.27,71.29,71.32,71.35,71.36,71.35,71.33,71.36,71.42,71.46,71.45,71.46,71.53,71.52,71.40,71.15,70.86,70.68,70.64,70.72,70.79,70.88,70.97,71.04,71.11,71.06,70.99,70.92,70.87,70.85,70.84,70.83,70.79,70.69,70.71,70.73,70.71,70.61,70.63,70.70,70.75,70.74,70.73,70.73,70.74,70.77,70.78,70.71,70.66,70.64,70.62,70.61,70.53,70.45,70.39,70.40,70.44,70.49,70.53,70.61,70.68,70.73,70.74,70.75,70.72,70.71,70.62,70.48,70.45,70.49,70.53,70.58,70.70,70.63,70.53,70.34,70.09,70.21,70.35,70.45,70.47,70.43,70.46,70.47,70.48,70.48,70.47,70.47,70.49,70.50,70.33,70.24,70.22,70.22,70.22,70.25,70.28,70.27,70.19,70.07,70.09,70.14,70.17,70.11,70.06,70.08,70.10,70.06,70.03,70.09,70.10,70.04,70.04,70.08,70.14,70.17,70.12,70.11,70.10,70.07,69.99,69.95,69.91,69.88,69.85,69.82,69.85,69.84,69.82,69.83,69.85,69.85,69.81,69.75,69.73,69.79,69.79,69.77,69.83,69.85,69.81,69.73,69.62,69.57,69.54,69.50,69.45,69.41,69.44,69.41,69.35,69.31,69.38,69.31,69.22,69.17,69.10,69.03,69.03,69.08,69.10,69.12,69.15,69.16,69.12,69.09,69.09,69.09,69.11,69.18,69.25,69.39,69.57,69.78,69.76,70.02,70.36,70.63,70.65,70.65,70.69,70.80,70.95,71.14,71.48,72.05,72.84,73.22,73.25,73.13,72.91,72.57,72.59,72.68,73.01,73.81,76.12,78.65,80.20,80.35,80.34,80.29,80.26,80.30
72.47,72.47,72.44,72.47,72.50,72.49,72.51,72.44,72.26,71.96,71.60,71.36,71.26,71.32,71.50,71.72,71.83,71.87,71.89,71.88,71.88,71.89,71.91,71.92,71.91,71.88,71.87,71.87,71.83,71.76,71.64,71.50,71.38,71.35,71.35,71.35,71.33,71.32,71.32,71.30,71.28,71.24,71.23,71.20,71.14,71.04,70.92,70.86,70.90,71.02,71.13,71.17,71.20,71.22,71.23,71.27,71.28,71.28,71.26,71.32,71.40,71.45,71.46,71.47,71.52,71.51,71.38,71.13,70.87,70.70,70.64,70.70,70.75,70.83,70.89,70.94,71.01,70.99,70.95,70.91,70.89,70.87,70.87,70.86,70.81,70.67,70.66,70.65,70.60,70.50,70.56,70.63,70.69,70.71,70.71,70.70,70.72,70.75,70.75,70.64,70.57,70.54,70.51,70.49,70.45,70.40,70.37,70.42,70.47,70.50,70.55,70.66,70.72,70.68,70.66,70.74,70.76,70.75,70.69,70.60,70.61,70.64,70.66,70.71,70.83,70.78,70.68,70.45,70.11,70.19,70.31,70.39,70.41,70.37,70.45,70.48,70.48,70.48,70.45,70.44,70.45,70.44,70.30,70.22,70.18,70.18,70.22,70.23,70.26,70.23,70.14,70.06,70.06,70.08,70.09,70.10,70.03,70.05,70.09,70.07,70.01,70.01,69.98,69.94,69.98,70.03,70.09,70.15,70.13,70.15,70.15,70.11,70.04,69.98,69.95,69.91,69.86,69.83,69.83,69.81,69.80,69.79,69.78,69.77,69.74,69.70,69.71,69.81,69.84,69.83,69.90,69.89,69.84,69.77,69.70,69.59,69.57,69.54,69.49,69.48,69.51,69.46,69.38,69.38,69.42,69.32,69.20,69.13,69.08,69.01,69.02,69.08,69.09,69.09,69.10,69.09,69.03,69.01,69.04,69.04,69.03,69.02,69.05,69.15,69.30,69.47,69.44,69.64,69.97,70.30,70.42,70.44,70.50,70.58,70.64,70.74,71.02,71.53,72.22,72.66,72.83,72.83,72.70,72.41,72.44,72.53,72.81,73.51,75.78,78.38,80.02,80.24,80.29,80.27,80.27,80.31
72.43,72.46,72.44,72.48,72.50,72.48,72.51,72.46,72.24,71.89,71.51,71.33,71.25,71.30,71.49,71.78,71.88,71.90,71.89,71.85,71.84,71.87,71.92,71.96,71.96,71.93,71.90,71.90,71.86,71.73,71.58,71.45,71.39,71.36,71.35,71.35,71.37,71.35,71.30,71.26,71.25,71.28,71.26,71.20,71.11,70.97,70.87,70.84,70.90,71.01,71.07,71.06,71.06,71.10,71.14,71.18,71.19,71.20,71.21,71.29,71.37,71.43,71.48,71.48,71.52,71.49,71.35,71.08,70.86,70.71,70.65,70.67,70.72,70.78,70.83,70.86,70.91,70.94,70.95,70.95,70.95,70.95,70.95,70.92,70.83,70.61,70.56,70.51,70.43,70.36,70.46,70.56,70.65,70.72,70.72,70.71,70.72,70.74,70.71,70.56,70.45,70.40,70.40,70.40,70.40,70.38,70.34,70.43,70.48,70.51,70.57,70.73,70.75,70.60,70.52,70.72,70.78,70.75,70.72,70.72,70.79,70.81,70.81,70.82,70.88,70.87,70.78,70.51,70.12,70.16,70.30,70.36,70.35,70.36,70.45,70.47,70.45,70.44,70.41,70.40,70.40,70.38,70.29,70.19,70.14,70.16,70.25,70.22,70.22,70.19,70.10,70.02,70.02,70.01,69.99,70.08,70.02,70.05,70.10,70.10,70.02,69.90,69.82,69.81,69.86,69.93,70.01,70.07,70.10,70.15,70.14,70.09,70.03,70.00,70.00,69.96,69.89,69.87,69.82,69.80,69.79,69.77,69.68,69.65,69.64,69.64,69.71,69.84,69.89,69.91,69.97,69.91,69.85,69.82,69.81,69.63,69.60,69.59,69.58,69.57,69.56,69.46,69.39,69.47,69.46,69.34,69.20,69.10,69.08,69.03,69.05,69.10,69.08,69.04,69.02,68.99,68.92,68.94,68.98,69.01,69.00,68.98,68.93,68.94,69.00,69.10,69.14,69.27,69.49,69.81,70.10,70.18,70.26,70.35,70.39,70.55,70.85,71.29,71.80,72.08,72.36,72.50,72.46,72.26,72.29,72.35,72.55,73.12,75.27,77.86,79.63,80.07,80.17,80.23,80.27,80.32
72.38,72.39,72.39,72.40,72.41,72.41,72.42,72.32,72.11,71.81,71.50,71.33,71.25,71.29,71.47,71.72,71.83,71.87,71.87,71.82,71.82,71.85,71.89,71.92,71.90,71.86,71.84,71.84,71.82,71.71,71.58,71.45,71.37,71.36,71.37,71.37,71.36,71.34,71.31,71.28,71.25,71.24,71.24,71.21,71.14,71.02,70.88,70.84,70.89,70.98,71.00,70.98,70.99,71.02,71.06,71.10,71.13,71.14,71.16,71.22,71.28,71.36,71.43,71.45,71.50,71.50,71.39,71.10,70.84,70.68,70.63,70.67,70.73,70.78,70.82,70.88,70.98,71.02,71.02,70.99,70.96,70.94,70.94,70.92,70.86,70.63,70.52,70.43,70.37,70.33,70.40,70.51,70.62,70.71,70.69,70.65,70.64,70.67,70.66,70.53,70.42,70.36,70.38,70.37,70.38,70.38,70.37,70.45,70.46,70.49,70.58,70.77,70.78,70.70,70.66,70.77,70.79,70.77,70.79,70.85,70.90,70.86,70.82,70.79,70.76,70.67,70.54,70.33,70.08,70.16,70.27,70.32,70.32,70.33,70.40,70.40,70.37,70.36,70.35,70.34,70.34,70.33,70.25,70.20,70.15,70.13,70.17,70.15,70.15,70.12,70.05,69.97,69.96,69.92,69.88,69.92,69.86,69.88,69.94,69.98,70.00,69.86,69.73,69.69,69.75,69.83,69.91,69.97,69.98,70.05,70.06,70.04,70.01,70.00,69.97,69.95,69.96,69.94,69.84,69.80,69.80,69.78,69.70,69.64,69.59,69.55,69.58,69.63,69.66,69.69,69.81,69.83,69.84,69.82,69.74,69.67,69.62,69.59,69.58,69.53,69.52,69.47,69.45,69.56,69.55,69.35,69.16,69.07,69.01,69.05,69.08,69.08,69.04,69.01,68.97,68.94,68.92,68.97,68.98,68.97,68.94,68.93,68.91,68.91,68.94,68.97,69.00,69.08,69.24,69.45,69.66,69.79,69.91,70.04,70.15,70.29,70.55,70.96,71.51,71.79,72.02,72.14,72.15,72.10,72.14,72.24,72.51,73.09,74.99,77.49,79.24,79.70,79.93,80.06,80.08,80.05
72.34,72.34,72.34,72.34,72.35,72.35,72.33,72.20,72.01,71.78,71.51,71.33,71.24,71.28,71.44,71.63,71.74,71.81,71.84,71.82,71.81,71.83,71.85,71.85,71.82,71.78,71.75,71.77,71.76,71.67,71.56,71.44,71.35,71.36,71.38,71.38,71.36,71.35,71.32,71.29,71.26,71.23,71.22,71.20,71.16,71.05,70.90,70.85,70.88,70.94,70.95,70.93,70.94,70.97,71.01,71.04,71.07,71.10,71.12,71.17,71.22,71.29,71.37,71.41,71.46,71.47,71.39,71.10,70.82,70.67,70.62,70.67,70.74,70.78,70.83,70.91,71.05,71.10,71.09,71.03,70.96,70.92,70.91,70.92,70.89,70.68,70.52,70.41,70.35,70.34,70.37,70.46,70.58,70.67,70.65,70.59,70.57,70.59,70.60,70.50,70.41,70.35,70.38,70.35,70.35,70.37,70.39,70.44,70.44,70.47,70.57,70.78,70.81,70.78,70.74,70.77,70.78,70.78,70.82,70.90,70.97,70.91,70.86,70.79,70.68,70.52,70.36,70.19,70.04,70.13,70.24,70.29,70.30,70.31,70.36,70.35,70.32,70.31,70.31,70.31,70.30,70.28,70.22,70.18,70.14,70.11,70.14,70.13,70.13,70.10,70.03,69.96,69.92,69.89,69.86,69.86,69.78,69.77,69.81,69.86,69.93,69.81,69.69,69.65,69.71,69.78,69.85,69.89,69.88,69.97,70.00,69.99,69.98,69.98,69.95,69.96,70.00,69.99,69.85,69.80,69.79,69.79,69.70,69.62,69.56,69.50,69.50,69.50,69.50,69.54,69.66,69.71,69.79,69.79,69.69,69.70,69.64,69.60,69.58,69.52,69.50,69.50,69.52,69.59,69.53,69.32,69.15,69.07,69.00,69.08,69.11,69.07,69.02,68.98,68.93,68.90,68.93,68.98,68.97,68.93,68.90,68.90,68.89,68.89,68.90,68.89,68.89,68.93,69.02,69.15,69.30,69.45,69.61,69.76,69.90,70.02,70.24,70.63,71.22,71.56,71.74,71.84,71.90,71.94,71.98,72.11,72.41,72.98,74.64,76.99,78.67,79.13,79.46,79.64,79.59,79.39
72.31,72.31,72.31,72.32,72.32,72.30,72.25,72.11,71.97,71.82,71.56,71.33,71.23,71.26,71.40,71.48,71.59,71.70,71.81,71.84,71.82,71.79,71.77,71.73,71.68,71.65,71.65,71.65,71.66,71.62,71.53,71.42,71.32,71.37,71.40,71.39,71.35,71.38,71.36,71.32,71.28,71.24,71.21,71.19,71.14,71.05,70.93,70.87,70.87,70.92,70.94,70.94,70.94,70.96,71.00,71.01,71.04,71.07,71.10,71.14,71.21,71.26,71.29,71.34,71.40,71.40,71.32,71.09,70.82,70.66,70.62,70.67,70.74,70.78,70.86,70.98,71.12,71.16,71.15,71.08,70.97,70.88,70.87,70.89,70.89,70.80,70.61,70.46,70.39,70.39,70.35,70.43,70.54,70.61,70.61,70.56,70.53,70.52,70.52,70.46,70.41,70.39,70.40,70.35,70.32,70.33,70.38,70.40,70.41,70.44,70.53,70.73,70.84,70.80,70.73,70.70,70.71,70.75,70.79,70.84,70.95,70.97,70.95,70.85,70.67,70.45,70.27,70.12,70.02,70.08,70.20,70.28,70.30,70.31,70.31,70.31,70.30,70.30,70.29,70.30,70.27,70.22,70.20,70.14,70.11,70.12,70.18,70.19,70.19,70.16,70.08,70.01,69.95,69.94,69.97,69.95,69.83,69.75,69.72,69.73,69.79,69.77,69.73,69.71,69.76,69.83,69.87,69.87,69.81,69.94,69.98,69.96,69.91,69.93,69.97,69.99,70.00,69.97,69.85,69.79,69.78,69.78,69.66,69.61,69.55,69.48,69.50,69.50,69.49,69.49,69.53,69.55,69.65,69.71,69.67,69.72,69.67,69.62,69.59,69.55,69.53,69.57,69.61,69.52,69.35,69.23,69.15,69.11,69.11,69.15,69.13,69.08,69.05,68.98,68.91,68.89,68.92,68.97,68.94,68.91,68.91,68.91,68.88,68.89,68.91,68.87,68.83,68.83,68.86,68.93,69.07,69.22,69.37,69.51,69.64,69.74,69.93,70.31,70.92,71.41,71.56,71.63,71.71,71.78,71.83,71.96,72.24,72.75,74.17,76.28,77.81,78.25,78.63,78.82,78.61,78.13
72.27,72.28,72.27,72.27,72.28,72.30,72.25,72.14,72.01,71.86,71.61,71.34,71.22,71.23,71.35,71.39,71.49,71.61,71.73,71.79,71.79,71.75,71.71,71.65,71.63,71.61,71.61,71.61,71.60,71.56,71.49,71.38,71.28,71.34,71.36,71.35,71.32,71.38,71.37,71.32,71.26,71.23,71.21,71.18,71.13,71.05,70.96,70.90,70.89,70.91,70.92,70.92,70.92,70.93,70.94,70.97,71.01,71.06,71.10,71.14,71.19,71.23,71.23,71.24,71.25,71.23,71.16,71.02,70.80,70.65,70.59,70.65,70.72,70.76,70.84,70.97,71.12,71.18,71.16,71.08,70.96,70.87,70.84,70.85,70.85,70.79,70.65,70.55,70.49,70.47,70.40,70.47,70.57,70.58,70.55,70.51,70.48,70.48,70.47,70.43,70.42,70.43,70.41,70.35,70.32,70.34,70.39,70.43,70.40,70.39,70.46,70.65,70.81,70.78,70.67,70.60,70.67,70.72,70.76,70.80,70.89,70.93,70.92,70.87,70.74,70.58,70.38,70.17,69.99,70.03,70.16,70.26,70.32,70.35,70.32,70.29,70.29,70.30,70.26,70.28,70.26,70.20,70.16,70.11,70.09,70.10,70.17,70.18,70.17,70.13,70.05,70.01,69.98,69.98,69.98,69.90,69.77,69.71,69.68,69.68,69.73,69.78,69.80,69.78,69.80,69.81,69.83,69.83,69.78,69.87,69.90,69.89,69.88,69.91,69.96,69.98,69.97,69.94,69.84,69.78,69.77,69.77,69.70,69.63,69.55,69.47,69.50,69.50,69.47,69.46,69.50,69.51,69.56,69.60,69.59,69.63,69.60,69.57,69.56,69.53,69.52,69.55,69.56,69.46,69.29,69.21,69.17,69.14,69.17,69.17,69.13,69.06,69.04,68.95,68.90,68.89,68.94,68.95,68.92,68.89,68.88,68.90,68.89,68.91,68.92,68.87,68.82,68.79,68.79,68.80,68.90,69.01,69.11,69.20,69.31,69.41,69.56,69.86,70.35,70.88,71.15,71.33,71.50,71.65,71.70,71.81,72.05,72.50,73.66,75.55,77.00,77.53,77.81,77.92,77.68,77.23
72.22,72.26,72.22,72.21,72.24,72.27,72.26,72.17,72.05,71.89,71.66,71.35,71.20,71.20,71.30,71.33,71.41,71.52,71.65,71.73,71.74,71.71,71.64,71.59,71.60,71.60,71.59,71.59,71.56,71.51,71.45,71.36,71.26,71.31,71.32,71.29,71.28,71.36,71.36,71.31,71.24,71.20,71.20,71.18,71.13,71.05,70.99,70.94,70.91,70.90,70.90,70.90,70.90,70.89,70.88,70.91,70.98,71.05,71.09,71.13,71.17,71.19,71.19,71.14,71.09,71.06,71.01,70.94,70.78,70.63,70.56,70.62,70.68,70.73,70.81,70.93,71.10,71.20,71.17,71.08,70.97,70.87,70.83,70.82,70.81,70.75,70.67,70.62,70.59,70.54,70.46,70.51,70.58,70.55,70.49,70.44,70.44,70.46,70.43,70.41,70.42,70.44,70.41,70.34,70.33,70.36,70.40,70.46,70.40,70.35,70.39,70.55,70.75,70.73,70.59,70.49,70.62,70.67,70.70,70.73,70.80,70.82,70.84,70.83,70.77,70.68,70.49,70.23,69.97,69.98,70.12,70.24,70.32,70.37,70.32,70.28,70.26,70.28,70.22,70.25,70.25,70.18,70.11,70.07,70.06,70.07,70.13,70.14,70.12,70.08,70.01,69.99,69.99,69.99,69.95,69.80,69.69,69.65,69.64,69.65,69.68,69.81,69.87,69.85,69.84,69.81,69.79,69.78,69.75,69.79,69.80,69.81,69.85,69.88,69.91,69.93,69.92,69.89,69.82,69.77,69.75,69.74,69.75,69.66,69.55,69.46,69.50,69.50,69.46,69.43,69.49,69.50,69.50,69.51,69.52,69.54,69.53,69.52,69.53,69.50,69.51,69.52,69.50,69.42,69.28,69.21,69.19,69.18,69.20,69.18,69.11,69.04,69.03,68.93,68.89,68.91,68.95,68.93,68.90,68.88,68.86,68.89,68.90,68.92,68.91,68.88,68.82,68.78,68.75,68.72,68.77,68.83,68.88,68.92,69.00,69.10,69.22,69.42,69.77,70.27,70.71,71.06,71.32,71.52,71.56,71.66,71.87,72.26,73.18,74.83,76.25,76.94,77.12,77.14,76.93,76.59
72.12,72.20,72.19,72.17,72.16,72.16,72.17,72.11,72.02,71.88,71.65,71.34,71.19,71.20,71.29,71.31,71.36,71.47,71.63,71.73,71.70,71.64,71.58,71.55,71.58,71.57,71.55,71.53,71.52,71.47,71.42,71.37,71.32,71.31,71.28,71.25,71.24,71.31,71.32,71.28,71.21,71.16,71.17,71.16,71.12,71.07,71.00,70.97,70.95,70.93,70.90,70.89,70.88,70.86,70.83,70.86,70.92,70.99,71.06,71.10,71.14,71.17,71.16,71.08,71.02,70.99,70.98,70.93,70.78,70.64,70.57,70.62,70.67,70.72,70.78,70.89,71.10,71.22,71.23,71.15,71.02,70.89,70.85,70.84,70.82,70.75,70.67,70.63,70.61,70.57,70.46,70.44,70.47,70.50,70.44,70.40,70.41,70.45,70.43,70.41,70.41,70.41,70.38,70.31,70.34,70.38,70.39,70.45,70.41,70.35,70.33,70.44,70.67,70.64,70.49,70.38,70.53,70.55,70.53,70.53,70.57,70.60,70.62,70.61,70.54,70.51,70.37,70.18,69.99,69.99,70.12,70.22,70.26,70.27,70.24,70.20,70.19,70.21,70.17,70.19,70.18,70.12,70.07,70.03,70.02,70.02,70.02,70.02,70.00,69.99,69.99,69.96,69.95,69.94,69.88,69.73,69.59,69.55,69.56,69.57,69.63,69.79,69.89,69.89,69.95,69.90,69.82,69.75,69.72,69.72,69.73,69.75,69.81,69.74,69.75,69.78,69.81,69.80,69.76,69.74,69.73,69.71,69.77,69.70,69.59,69.49,69.51,69.53,69.48,69.41,69.45,69.53,69.53,69.52,69.56,69.56,69.56,69.54,69.51,69.50,69.50,69.50,69.49,69.44,69.30,69.23,69.22,69.25,69.25,69.20,69.10,69.01,69.01,68.94,68.94,68.96,68.97,68.92,68.90,68.89,68.88,68.89,68.90,68.90,68.90,68.88,68.82,68.78,68.75,68.72,68.77,68.77,68.79,68.83,68.88,68.96,69.05,69.17,69.37,69.78,70.41,70.98,71.35,71.34,71.38,71.49,71.70,72.08,72.79,74.23,75.69,76.68,76.94,76.96,76.83,76.62
72.05,72.13,72.13,72.11,72.08,72.07,72.07,72.05,71.99,71.87,71.62,71.32,71.18,71.18,71.28,71.32,71.35,71.45,71.61,71.69,71.65,71.60,71.55,71.51,71.53,71.53,71.51,71.47,71.45,71.41,71.37,71.35,71.33,71.29,71.24,71.21,71.21,71.28,71.30,71.27,71.20,71.14,71.16,71.16,71.13,71.07,70.99,70.95,70.94,70.92,70.89,70.88,70.86,70.83,70.80,70.83,70.89,70.97,71.05,71.09,71.12,71.12,71.09,70.99,70.94,70.93,70.92,70.90,70.77,70.65,70.58,70.60,70.65,70.69,70.74,70.82,71.03,71.13,71.13,71.06,70.96,70.85,70.82,70.81,70.78,70.72,70.65,70.61,70.60,70.57,70.46,70.41,70.42,70.46,70.39,70.36,70.38,70.42,70.40,70.38,70.36,70.35,70.32,70.25,70.28,70.31,70.31,70.35,70.33,70.28,70.24,70.31,70.48,70.46,70.34,70.26,70.37,70.35,70.32,70.30,70.32,70.34,70.36,70.34,70.29,70.28,70.21,70.11,70.01,70.06,70.14,70.20,70.23,70.22,70.20,70.19,70.19,70.18,70.17,70.17,70.15,70.10,70.09,70.05,70.03,70.02,69.98,70.00,69.98,69.97,69.99,69.94,69.93,69.90,69.82,69.70,69.57,69.52,69.52,69.53,69.57,69.69,69.78,69.82,69.95,69.90,69.79,69.69,69.70,69.70,69.70,69.74,69.83,69.76,69.76,69.77,69.76,69.71,69.69,69.68,69.68,69.67,69.74,69.73,69.62,69.47,69.51,69.55,69.48,69.37,69.39,69.48,69.49,69.50,69.55,69.58,69.58,69.55,69.50,69.50,69.50,69.50,69.48,69.42,69.32,69.26,69.26,69.29,69.27,69.20,69.10,69.00,69.00,68.97,68.99,69.01,68.98,68.94,68.91,68.88,68.88,68.93,68.94,68.94,68.93,68.91,68.84,68.78,68.75,68.76,68.76,68.72,68.75,68.81,68.84,68.88,68.95,69.04,69.17,69.47,70.15,70.84,71.29,71.22,71.25,71.35,71.56,71.89,72.40,73.52,74.83,75.98,76.47,76.65,76.70,76.64
72.00,72.06,72.04,72.02,72.00,71.99,71.97,71.99,71.96,71.85,71.58,71.30,71.17,71.16,71.26,71.34,71.37,71.45,71.60,71.63,71.61,71.58,71.54,71.48,71.47,71.47,71.46,71.41,71.36,71.34,71.32,71.30,71.30,71.27,71.21,71.16,71.18,71.28,71.30,71.27,71.20,71.13,71.15,71.17,71.15,71.06,70.96,70.91,70.90,70.90,70.88,70.86,70.84,70.82,70.80,70.81,70.87,70.95,71.05,71.09,71.09,71.06,70.99,70.88,70.85,70.86,70.86,70.84,70.76,70.66,70.58,70.57,70.61,70.65,70.69,70.75,70.91,70.95,70.93,70.87,70.82,70.76,70.75,70.74,70.70,70.66,70.60,70.57,70.56,70.55,70.45,70.41,70.42,70.42,70.35,70.35,70.36,70.37,70.34,70.33,70.31,70.27,70.24,70.18,70.17,70.17,70.17,70.20,70.20,70.17,70.15,70.17,70.23,70.21,70.17,70.13,70.16,70.12,70.07,70.05,70.05,70.06,70.06,70.05,70.03,70.02,70.02,70.01,70.02,70.16,70.16,70.18,70.22,70.19,70.18,70.22,70.23,70.19,70.18,70.18,70.15,70.10,70.15,70.11,70.09,70.06,69.99,70.04,70.02,69.99,69.99,69.92,69.90,69.86,69.79,69.70,69.61,69.54,69.50,69.50,69.51,69.53,69.58,69.67,69.87,69.84,69.72,69.63,69.70,69.70,69.70,69.76,69.89,69.87,69.87,69.84,69.76,69.62,69.61,69.61,69.61,69.61,69.69,69.74,69.64,69.42,69.50,69.56,69.46,69.31,69.31,69.39,69.41,69.44,69.52,69.59,69.59,69.55,69.50,69.50,69.50,69.50,69.46,69.39,69.32,69.30,69.30,69.30,69.28,69.21,69.10,69.00,69.00,69.02,69.05,69.06,69.00,68.98,68.92,68.86,68.87,68.99,69.00,69.00,68.99,68.97,68.87,68.78,68.76,68.80,68.77,68.69,68.73,68.84,68.87,68.84,68.89,68.99,69.10,69.28,69.91,70.64,71.19,71.12,71.15,71.24,71.42,71.71,72.00,72.74,73.79,74.98,75.80,76.27,76.54,76.66
71.93,71.99,72.01,72.01,71.99,71.96,71.90,71.91,71.89,71.79,71.55,71.29,71.17,71.20,71.32,71.36,71.36,71.40,71.50,71.58,71.59,71.55,71.48,71.40,71.41,71.44,71.44,71.39,71.39,71.34,71.29,71.25,71.24,71.20,71.16,71.14,71.14,71.19,71.23,71.23,71.18,71.08,71.06,71.06,71.05,71.00,70.95,70.92,70.89,70.85,70.84,70.82,70.79,70.76,70.75,70.75,70.78,70.82,70.85,70.85,70.84,70.82,70.79,70.73,70.72,70.72,70.73,70.71,70.68,70.63,70.58,70.56,70.60,70.66,70.68,70.69,70.74,70.77,70.76,70.73,70.69,70.67,70.65,70.63,70.62,70.59,70.55,70.52,70.52,70.52,70.43,70.39,70.38,70.37,70.32,70.32,70.33,70.32,70.32,70.29,70.25,70.23,70.21,70.19,70.16,70.17,70.21,70.21,70.18,70.16,70.16,70.18,70.21,70.18,70.15,70.16,70.18,70.14,70.11,70.13,70.14,70.15,70.15,70.14,70.14,70.13,70.13,70.10,70.03,70.11,70.08,70.09,70.14,70.18,70.23,70.29,70.33,70.32,70.28,70.26,70.23,70.18,70.23,70.23,70.22,70.19,70.13,70.11,70.05,69.99,69.94,69.90,69.85,69.81,69.77,69.69,69.61,69.57,69.54,69.50,69.55,69.53,69.53,69.57,69.69,69.73,69.67,69.60,69.63,69.68,69.69,69.73,69.84,69.88,69.84,69.81,69.78,69.73,69.68,69.67,69.65,69.61,69.59,69.60,69.55,69.47,69.55,69.53,69.47,69.42,69.42,69.42,69.46,69.51,69.58,69.64,69.63,69.57,69.49,69.50,69.51,69.50,69.46,69.40,69.36,69.32,69.30,69.30,69.27,69.19,69.09,69.01,69.02,69.06,69.08,69.06,69.01,68.99,68.92,68.87,68.88,69.01,69.06,69.05,69.00,68.92,68.85,68.81,68.83,68.86,68.83,68.75,68.77,68.84,68.88,68.85,68.88,68.94,68.99,69.14,69.68,70.39,71.00,70.96,70.99,71.06,71.20,71.48,71.67,72.09,72.79,73.75,74.67,75.41,76.02,76.48
71.85,71.91,71.91,71.91,71.91,71.87,71.78,71.76,71.73,71.65,71.46,71.26,71.17,71.20,71.32,71.35,71.32,71.32,71.37,71.46,71.48,71.45,71.38,71.31,71.32,71.34,71.34,71.31,71.33,71.26,71.20,71.17,71.15,71.12,71.10,71.09,71.09,71.11,71.15,71.15,71.10,71.00,70.97,70.97,70.97,70.94,70.92,70.90,70.87,70.81,70.81,70.79,70.76,70.73,70.74,70.74,70.75,70.76,70.75,70.73,70.73,70.73,70.73,70.71,70.68,70.65,70.64,70.63,70.63,70.61,70.59,70.57,70.62,70.69,70.71,70.68,70.65,70.68,70.70,70.71,70.72,70.71,70.69,70.67,70.64,70.58,70.55,70.53,70.53,70.53,70.46,70.44,70.43,70.42,70.41,70.38,70.36,70.37,70.38,70.32,70.28,70.25,70.22,70.20,70.18,70.20,70.26,70.25,70.18,70.16,70.19,70.20,70.20,70.17,70.15,70.18,70.21,70.18,70.17,70.21,70.26,70.23,70.21,70.20,70.20,70.20,70.19,70.13,70.02,70.04,70.02,70.03,70.07,70.13,70.23,70.31,70.36,70.37,70.34,70.33,70.31,70.28,70.31,70.29,70.28,70.26,70.21,70.15,70.08,70.00,69.91,69.88,69.80,69.74,69.70,69.62,69.56,69.54,69.52,69.48,69.54,69.50,69.47,69.50,69.57,69.63,69.62,69.57,69.56,69.64,69.64,69.67,69.79,69.84,69.80,69.77,69.77,69.79,69.73,69.70,69.68,69.63,69.55,69.53,69.51,69.48,69.58,69.51,69.46,69.46,69.48,69.45,69.49,69.56,69.60,69.64,69.61,69.54,69.47,69.50,69.52,69.49,69.43,69.39,69.38,69.33,69.29,69.28,69.25,69.18,69.09,69.02,69.04,69.08,69.09,69.08,69.03,68.99,68.93,68.89,68.90,69.03,69.10,69.08,69.01,68.92,68.85,68.85,68.88,68.90,68.87,68.80,68.79,68.84,68.88,68.87,68.88,68.90,68.92,69.02,69.47,70.17,70.84,70.81,70.85,70.90,71.02,71.27,71.36,71.48,71.85,72.56,73.53,74.45,75.28,76.00
71.76,71.80,71.72,71.71,71.72,71.71,71.58,71.52,71.47,71.41,71.27,71.20,71.16,71.17,71.26,71.29,71.24,71.19,71.20,71.26,71.27,71.26,71.24,71.20,71.16,71.15,71.15,71.15,71.13,71.08,71.04,71.03,71.03,71.03,71.02,71.01,71.01,71.04,71.05,71.01,70.93,70.89,70.87,70.89,70.90,70.87,70.86,70.86,70.84,70.80,70.80,70.77,70.75,70.75,70.79,70.79,70.80,70.80,70.80,70.80,70.82,70.86,70.88,70.88,70.78,70.68,70.61,70.61,70.61,70.61,70.60,70.60,70.68,70.75,70.79,70.77,70.70,70.73,70.79,70.89,70.99,70.96,70.96,70.93,70.81,70.66,70.61,70.60,70.60,70.60,70.59,70.58,70.59,70.63,70.64,70.55,70.50,70.53,70.56,70.48,70.41,70.36,70.27,70.21,70.22,70.28,70.35,70.33,70.22,70.19,70.24,70.23,70.20,70.19,70.20,70.21,70.26,70.24,70.24,70.29,70.40,70.30,70.23,70.20,70.20,70.20,70.16,70.08,69.97,69.94,69.97,70.00,70.01,70.04,70.17,70.26,70.30,70.31,70.35,70.39,70.41,70.40,70.37,70.27,70.23,70.22,70.20,70.17,70.11,70.02,69.91,69.83,69.73,69.64,69.55,69.47,69.43,69.42,69.42,69.44,69.45,69.41,69.41,69.47,69.53,69.56,69.56,69.53,69.48,69.58,69.56,69.59,69.74,69.75,69.72,69.71,69.72,69.76,69.72,69.70,69.70,69.68,69.58,69.57,69.52,69.44,69.57,69.49,69.43,69.42,69.46,69.46,69.51,69.56,69.57,69.56,69.51,69.45,69.43,69.50,69.53,69.47,69.39,69.36,69.35,69.32,69.28,69.25,69.20,69.15,69.09,69.05,69.05,69.06,69.08,69.09,69.07,68.99,68.93,68.91,68.95,69.06,69.11,69.09,69.02,68.97,68.91,68.89,68.90,68.90,68.88,68.82,68.81,68.84,68.90,68.90,68.90,68.90,68.91,68.94,69.31,70.00,70.73,70.69,70.73,70.77,70.87,71.09,71.09,70.95,70.99,71.42,72.38,73.33,74.23,75.10
71.63,71.65,71.60,71.59,71.59,71.58,71.51,71.44,71.37,71.31,71.22,71.19,71.15,71.14,71.22,71.28,71.24,71.21,71.21,71.25,71.26,71.27,71.26,71.25,71.22,71.19,71.17,71.16,71.14,71.09,71.08,71.08,71.09,71.09,71.08,71.09,71.08,71.11,71.10,71.08,71.06,71.07,71.03,71.01,71.00,70.98,70.98,70.99,70.98,70.96,70.96,70.95,70.94,70.94,70.96,70.96,70.96,70.96,70.96,70.96,70.99,71.04,71.08,71.04,70.86,70.71,70.63,70.66,70.65,70.62,70.59,70.59,70.69,70.76,70.80,70.81,70.83,70.90,70.97,71.05,71.13,71.09,71.07,71.01,70.88,70.73,70.67,70.65,70.65,70.67,70.66,70.66,70.66,70.66,70.66,70.60,70.57,70.60,70.61,70.52,70.47,70.43,70.33,70.25,70.23,70.27,70.34,70.32,70.22,70.19,70.22,70.21,70.20,70.20,70.21,70.24,70.28,70.29,70.30,70.33,70.41,70.29,70.21,70.18,70.19,70.20,70.16,70.07,69.97,69.94,69.97,69.99,70.01,70.03,70.10,70.17,70.22,70.23,70.28,70.38,70.45,70.45,70.38,70.27,70.22,70.22,70.21,70.17,70.10,70.01,69.91,69.85,69.76,69.66,69.57,69.53,69.46,69.42,69.40,69.39,69.37,69.35,69.36,69.40,69.41,69.45,69.49,69.50,69.47,69.54,69.52,69.53,69.67,69.69,69.70,69.69,69.67,69.70,69.70,69.68,69.67,69.67,69.58,69.56,69.51,69.43,69.54,69.50,69.44,69.41,69.43,69.46,69.50,69.53,69.53,69.52,69.46,69.42,69.43,69.50,69.51,69.46,69.38,69.35,69.33,69.31,69.28,69.25,69.20,69.15,69.10,69.07,69.06,69.07,69.09,69.09,69.07,68.98,68.94,68.95,68.99,69.09,69.13,69.12,69.07,69.00,68.98,68.95,68.92,68.90,68.89,68.85,68.83,68.84,68.90,68.90,68.90,68.90,68.89,68.88,69.20,69.87,70.60,70.58,70.63,70.66,70.73,70.89,70.87,70.67,70.55,70.71,71.34,72.15,73.06,74.04
71.55,71.55,71.53,71.53,71.52,71.50,71.49,71.41,71.34,71.27,71.22,71.20,71.15,71.13,71.21,71.31,71.31,71.28,71.28,71.30,71.30,71.31,71.31,71.32,71.31,71.28,71.24,71.22,71.19,71.15,71.14,71.16,71.18,71.17,71.17,71.18,71.18,71.20,71.18,71.18,71.22,71.25,71.20,71.15,71.11,71.10,71.11,71.12,71.13,71.13,71.14,71.13,71.13,71.13,71.13,71.13,71.12,71.12,71.12,71.12,71.15,71.20,71.24,71.17,70.92,70.74,70.66,70.69,70.68,70.62,70.57,70.56,70.68,70.77,70.81,70.84,70.95,71.05,71.12,71.18,71.22,71.17,71.12,71.05,70.93,70.78,70.70,70.68,70.69,70.72,70.72,70.71,70.69,70.66,70.65,70.63,70.62,70.63,70.62,70.54,70.51,70.48,70.38,70.29,70.24,70.24,70.30,70.29,70.21,70.18,70.19,70.18,70.17,70.18,70.22,70.27,70.30,70.33,70.34,70.35,70.38,70.27,70.19,70.17,70.19,70.20,70.16,70.08,69.98,69.95,69.97,69.99,70.01,70.03,70.03,70.08,70.12,70.13,70.20,70.35,70.46,70.49,70.39,70.27,70.23,70.23,70.21,70.18,70.10,70.00,69.90,69.88,69.80,69.70,69.62,69.61,69.52,69.45,69.42,69.40,69.35,69.33,69.34,69.35,69.30,69.34,69.41,69.45,69.44,69.50,69.46,69.47,69.58,69.65,69.69,69.68,69.64,69.63,69.68,69.67,69.63,69.62,69.58,69.53,69.48,69.42,69.51,69.51,69.46,69.40,69.39,69.45,69.49,69.50,69.49,69.48,69.42,69.40,69.44,69.50,69.49,69.44,69.38,69.34,69.31,69.31,69.30,69.26,69.21,69.15,69.12,69.09,69.07,69.08,69.08,69.08,69.06,68.97,68.98,69.00,69.04,69.11,69.16,69.15,69.11,69.04,69.06,69.02,68.96,68.93,68.93,68.89,68.85,68.84,68.88,68.89,68.90,68.89,68.87,68.82,69.11,69.76,70.49,70.47,70.53,70.55,70.58,70.70,70.68,70.46,70.24,70.18,70.43,71.01,71.87,72.93
71.70,71.70,71.62,71.61,71.59,71.52,71.51,71.44,71.38,71.35,71.27,71.24,71.18,71.18,71.32,71.46,71.48,71.47,71.45,71.43,71.34,71.31,71.34,71.38,71.38,71.36,71.33,71.27,71.23,71.19,71.18,71.19,71.21,71.21,71.21,71.22,71.25,71.26,71.24,71.23,71.23,71.22,71.20,71.17,71.14,71.10,71.12,71.16,71.19,71.20,71.20,71.18,71.16,71.16,71.19,71.18,71.17,71.16,71.16,71.16,71.19,71.23,71.24,71.16,70.93,70.74,70.64,70.66,70.64,70.58,70.53,70.53,70.67,70.77,70.83,70.86,70.97,71.06,71.11,71.15,71.20,71.17,71.13,71.07,71.00,70.83,70.70,70.66,70.68,70.75,70.74,70.72,70.70,70.69,70.69,70.65,70.62,70.61,70.63,70.57,70.53,70.50,70.41,70.33,70.26,70.24,70.27,70.23,70.16,70.13,70.14,70.09,70.07,70.12,70.20,70.27,70.33,70.36,70.37,70.35,70.38,70.27,70.19,70.17,70.19,70.20,70.16,70.08,69.99,69.93,69.96,69.99,70.00,70.01,69.98,70.00,70.03,70.04,70.08,70.24,70.41,70.51,70.42,70.29,70.22,70.21,70.20,70.24,70.19,70.05,69.88,69.93,69.81,69.71,69.66,69.63,69.57,69.54,69.54,69.56,69.50,69.48,69.47,69.41,69.30,69.31,69.34,69.36,69.37,69.38,69.37,69.39,69.49,69.66,69.70,69.69,69.66,69.61,69.67,69.66,69.59,69.55,69.58,69.50,69.43,69.42,69.50,69.54,69.49,69.38,69.34,69.46,69.49,69.47,69.43,69.42,69.37,69.40,69.49,69.55,69.46,69.41,69.35,69.26,69.30,69.34,69.34,69.29,69.26,69.20,69.14,69.10,69.09,69.08,69.06,69.05,69.07,69.01,69.05,69.11,69.14,69.12,69.16,69.14,69.11,69.10,69.14,69.10,69.07,69.07,69.09,68.98,68.88,68.81,68.82,68.84,68.87,68.89,68.87,68.80,69.05,69.67,70.39,70.36,70.40,70.41,70.44,70.57,70.55,70.35,70.13,69.94,69.84,70.03,70.70,71.76
71.77,71.76,71.69,71.66,71.62,71.54,71.55,71.50,71.47,71.43,71.30,71.24,71.18,71.21,71.40,71.54,71.57,71.53,71.47,71.43,71.33,71.30,71.33,71.38,71.37,71.35,71.33,71.29,71.26,71.23,71.21,71.20,71.22,71.22,71.22,71.23,71.28,71.27,71.25,71.23,71.22,71.19,71.18,71.18,71.16,71.12,71.13,71.16,71.19,71.22,71.22,71.20,71.18,71.18,71.21,71.21,71.20,71.18,71.18,71.18,71.20,71.23,71.22,71.14,70.93,70.74,70.63,70.63,70.62,70.57,70.52,70.51,70.64,70.75,70.83,70.87,70.97,71.03,71.07,71.09,71.15,71.16,71.13,71.10,71.05,70.86,70.72,70.66,70.69,70.76,70.75,70.73,70.72,70.73,70.72,70.68,70.64,70.62,70.65,70.59,70.55,70.52,70.46,70.36,70.29,70.26,70.28,70.24,70.18,70.15,70.14,70.05,70.06,70.13,70.23,70.31,70.36,70.37,70.35,70.34,70.38,70.28,70.20,70.16,70.16,70.16,70.14,70.07,69.97,69.92,69.97,70.02,70.03,70.01,69.95,69.94,69.96,69.99,70.02,70.18,70.38,70.53,70.43,70.27,70.18,70.16,70.16,70.22,70.23,70.10,69.87,69.95,69.82,69.71,69.68,69.63,69.57,69.54,69.56,69.61,69.54,69.55,69.54,69.50,69.42,69.42,69.39,69.35,69.33,69.33,69.31,69.31,69.40,69.52,69.52,69.53,69.56,69.55,69.60,69.60,69.57,69.51,69.54,69.49,69.43,69.41,69.45,69.51,69.46,69.35,69.35,69.46,69.49,69.46,69.40,69.36,69.32,69.36,69.50,69.61,69.51,69.43,69.35,69.26,69.33,69.37,69.35,69.25,69.24,69.17,69.12,69.09,69.09,69.08,69.04,69.02,69.06,69.04,69.07,69.11,69.14,69.11,69.14,69.13,69.11,69.12,69.17,69.13,69.10,69.11,69.12,69.01,68.89,68.81,68.84,68.85,68.87,68.87,68.84,68.78,69.00,69.58,70.27,70.24,70.27,70.28,70.30,70.39,70.36,70.19,69.99,69.80,69.56,69.54,69.92,70.68
71.80,71.78,71.73,71.68,71.63,71.57,71.59,71.58,71.56,71.51,71.32,71.22,71.16,71.23,71.46,71.58,71.59,71.52,71.41,71.35,71.31,71.30,71.31,71.34,71.32,71.30,71.28,71.28,71.29,71.26,71.23,71.20,71.21,71.20,71.20,71.23,71.30,71.27,71.22,71.20,71.18,71.15,71.16,71.17,71.18,71.14,71.12,71.14,71.17,71.21,71.22,71.20,71.19,71.19,71.21,71.22,71.21,71.20,71.20,71.20,71.20,71.21,71.20,71.11,70.92,70.75,70.63,70.60,70.60,70.56,70.52,70.50,70.60,70.72,70.81,70.86,70.95,70.99,71.01,71.02,71.07,71.14,71.14,71.12,71.07,70.89,70.75,70.69,70.70,70.76,70.75,70.75,70.76,70.78,70.74,70.71,70.67,70.64,70.67,70.60,70.57,70.55,70.52,70.40,70.32,70.29,70.30,70.29,70.24,70.20,70.16,70.06,70.10,70.19,70.29,70.36,70.39,70.36,70.32,70.31,70.37,70.29,70.19,70.13,70.11,70.11,70.11,70.05,69.95,69.91,70.00,70.07,70.08,70.02,69.95,69.91,69.92,69.98,70.00,70.15,70.36,70.53,70.43,70.23,70.12,70.10,70.10,70.17,70.24,70.15,69.87,69.96,69.82,69.72,69.68,69.61,69.54,69.50,69.52,69.59,69.53,69.56,69.59,69.60,69.60,69.60,69.52,69.40,69.33,69.33,69.28,69.26,69.31,69.30,69.24,69.28,69.40,69.47,69.48,69.52,69.54,69.49,69.49,69.49,69.46,69.40,69.40,69.44,69.39,69.32,69.39,69.46,69.49,69.46,69.38,69.30,69.25,69.32,69.48,69.66,69.60,69.48,69.37,69.31,69.37,69.40,69.33,69.18,69.17,69.11,69.08,69.08,69.08,69.07,69.02,68.99,69.02,69.08,69.05,69.06,69.10,69.10,69.10,69.11,69.12,69.12,69.17,69.14,69.10,69.10,69.08,69.01,68.91,68.84,68.90,68.90,68.88,68.85,68.80,68.77,68.98,69.50,70.13,70.10,70.14,70.15,70.16,70.18,70.15,70.01,69.85,69.71,69.46,69.34,69.39,69.67
71.80,71.78,71.72,71.67,71.65,71.64,71.63,71.57,71.51,71.44,71.28,71.21,71.15,71.16,71.35,71.48,71.51,71.46,71.36,71.28,71.26,71.25,71.26,71.27,71.30,71.28,71.23,71.20,71.25,71.27,71.26,71.23,71.21,71.21,71.23,71.24,71.27,71.25,71.20,71.17,71.16,71.13,71.16,71.20,71.21,71.15,71.12,71.11,71.14,71.20,71.25,71.26,71.25,71.25,71.26,71.25,71.24,71.23,71.23,71.18,71.19,71.23,71.25,71.15,70.94,70.77,70.67,70.63,70.61,70.55,70.49,70.48,70.62,70.71,70.77,70.81,70.89,70.90,70.89,70.88,70.90,70.98,71.05,71.09,71.08,70.92,70.81,70.75,70.74,70.77,70.78,70.76,70.76,70.77,70.78,70.74,70.70,70.68,70.69,70.61,70.57,70.57,70.58,70.49,70.40,70.33,70.31,70.30,70.28,70.24,70.18,70.09,70.13,70.17,70.22,70.28,70.31,70.31,70.29,70.28,70.30,70.22,70.16,70.14,70.14,70.16,70.15,70.07,69.94,69.90,70.00,70.11,70.15,70.05,70.00,69.96,69.96,70.04,70.06,70.17,70.28,70.35,70.28,70.16,70.07,70.03,70.06,70.10,70.11,70.02,69.85,69.95,69.88,69.78,69.69,69.61,69.50,69.47,69.52,69.59,69.57,69.59,69.59,69.58,69.60,69.59,69.55,69.51,69.48,69.50,69.48,69.45,69.42,69.30,69.27,69.30,69.35,69.36,69.39,69.40,69.40,69.41,69.41,69.42,69.42,69.39,69.36,69.36,69.33,69.31,69.34,69.41,69.47,69.47,69.40,69.30,69.30,69.39,69.52,69.61,69.54,69.43,69.33,69.28,69.29,69.28,69.22,69.13,69.12,69.07,69.04,69.02,69.00,68.99,68.96,68.95,69.00,69.08,69.08,69.09,69.10,69.10,69.10,69.12,69.13,69.12,69.17,69.15,69.12,69.10,69.09,69.04,68.92,68.83,68.87,68.89,68.89,68.87,68.82,68.78,68.96,69.46,70.05,70.00,70.05,70.05,70.04,70.07,70.03,69.93,69.82,69.72,69.53,69.43,69.42,69.50
71.84,71.81,71.74,71.69,71.66,71.68,71.64,71.57,71.51,71.45,71.32,71.22,71.14,71.15,71.34,71.43,71.46,71.42,71.31,71.23,71.23,71.22,71.21,71.21,71.26,71.25,71.22,71.19,71.24,71.25,71.24,71.21,71.18,71.21,71.23,71.24,71.24,71.24,71.19,71.16,71.16,71.13,71.16,71.19,71.19,71.14,71.10,71.08,71.10,71.17,71.24,71.24,71.24,71.24,71.23,71.21,71.21,71.20,71.20,71.15,71.16,71.22,71.27,71.19,70.98,70.79,70.67,70.64,70.61,70.54,70.48,70.45,70.61,70.71,70.76,70.79,70.85,70.83,70.80,70.80,70.82,70.91,71.01,71.06,71.05,70.93,70.85,70.80,70.79,70.79,70.82,70.81,70.80,70.81,70.81,70.77,70.72,70.69,70.68,70.61,70.58,70.58,70.62,70.56,70.44,70.36,70.33,70.33,70.32,70.25,70.16,70.08,70.10,70.11,70.13,70.19,70.24,70.24,70.22,70.20,70.20,70.17,70.19,70.23,70.25,70.26,70.21,70.10,69.94,69.88,70.01,70.15,70.22,70.11,70.07,70.02,70.01,70.09,70.10,70.16,70.20,70.20,70.15,70.08,70.00,69.94,70.00,70.04,70.03,69.95,69.83,69.92,69.89,69.79,69.69,69.63,69.48,69.45,69.52,69.59,69.59,69.58,69.56,69.53,69.57,69.54,69.52,69.52,69.51,69.54,69.55,69.52,69.47,69.29,69.28,69.33,69.38,69.36,69.40,69.37,69.34,69.36,69.35,69.38,69.40,69.39,69.32,69.30,69.30,69.30,69.29,69.37,69.44,69.45,69.38,69.27,69.32,69.43,69.55,69.59,69.50,69.38,69.28,69.26,69.25,69.22,69.16,69.10,69.09,69.06,69.01,68.97,68.96,68.94,68.92,68.92,68.98,69.08,69.10,69.10,69.10,69.09,69.10,69.12,69.13,69.12,69.16,69.14,69.11,69.10,69.10,69.04,68.93,68.82,68.86,68.89,68.90,68.88,68.85,68.80,68.95,69.40,69.95,69.90,69.96,69.94,69.91,69.93,69.90,69.83,69.77,69.73,69.62,69.56,69.51,69.43
71.94,71.87,71.80,71.73,71.69,71.67,71.62,71.60,71.59,71.56,71.46,71.23,71.14,71.22,71.45,71.44,71.44,71.39,71.27,71.23,71.25,71.22,71.17,71.15,71.19,71.22,71.24,71.28,71.26,71.20,71.14,71.11,71.13,71.18,71.19,71.20,71.23,71.24,71.21,71.18,71.17,71.15,71.16,71.14,71.11,71.10,71.06,71.02,71.04,71.12,71.18,71.14,71.11,71.12,71.11,71.11,71.10,71.10,71.10,71.09,71.12,71.18,71.25,71.25,71.03,70.80,70.62,70.61,70.61,70.55,70.47,70.43,70.58,70.72,70.80,70.84,70.85,70.78,70.76,70.79,70.87,70.96,71.02,71.04,71.00,70.89,70.86,70.86,70.86,70.84,70.87,70.89,70.89,70.88,70.84,70.78,70.72,70.67,70.63,70.61,70.59,70.60,70.65,70.58,70.46,70.38,70.38,70.39,70.35,70.23,70.08,70.01,70.01,69.99,70.00,70.07,70.16,70.16,70.11,70.05,70.05,70.14,70.29,70.44,70.49,70.41,70.32,70.16,69.93,69.83,70.01,70.20,70.30,70.21,70.16,70.11,70.09,70.12,70.11,70.11,70.10,70.07,70.04,69.99,69.91,69.85,69.90,69.98,70.00,69.94,69.83,69.89,69.82,69.73,69.66,69.65,69.48,69.45,69.52,69.59,69.56,69.53,69.48,69.43,69.49,69.44,69.42,69.41,69.37,69.44,69.46,69.46,69.43,69.25,69.27,69.38,69.50,69.52,69.53,69.47,69.39,69.35,69.32,69.36,69.40,69.38,69.28,69.29,69.30,69.29,69.26,69.33,69.40,69.40,69.31,69.23,69.31,69.43,69.55,69.59,69.47,69.33,69.23,69.26,69.26,69.22,69.16,69.10,69.10,69.08,69.02,68.95,68.96,68.92,68.90,68.91,68.95,69.07,69.10,69.10,69.09,69.06,69.09,69.10,69.11,69.11,69.12,69.10,69.08,69.10,69.08,69.02,68.91,68.83,68.88,68.89,68.90,68.90,68.88,68.83,68.94,69.33,69.83,69.80,69.86,69.83,69.77,69.79,69.78,69.72,69.70,69.74,69.75,69.74,69.65,69.49
72.01,71.94,71.81,71.73,71.69,71.69,71.65,71.59,71.50,71.41,71.37,71.21,71.13,71.18,71.40,71.43,71.43,71.38,71.27,71.23,71.24,71.22,71.18,71.16,71.19,71.21,71.23,71.25,71.22,71.16,71.11,71.09,71.12,71.14,71.15,71.17,71.19,71.21,71.19,71.18,71.18,71.18,71.17,71.14,71.10,71.07,71.02,70.99,71.00,71.07,71.10,71.09,71.08,71.09,71.07,71.08,71.08,71.07,71.06,71.06,71.10,71.16,71.23,71.24,71.06,70.82,70.64,70.63,70.63,70.56,70.47,70.43,70.57,70.70,70.79,70.82,70.85,70.83,70.83,70.85,70.90,70.94,70.96,70.96,70.94,70.88,70.87,70.87,70.86,70.86,70.91,70.93,70.92,70.91,70.86,70.77,70.69,70.64,70.61,70.60,70.59,70.58,70.62,70.56,70.47,70.41,70.41,70.43,70.39,70.27,70.12,70.04,70.03,70.01,70.01,70.07,70.13,70.14,70.08,69.99,70.01,70.14,70.33,70.53,70.63,70.56,70.45,70.24,69.95,69.85,70.04,70.23,70.32,70.27,70.21,70.15,70.12,70.13,70.09,70.05,70.02,69.99,69.99,69.97,69.91,69.87,69.92,70.00,70.00,69.92,69.83,69.88,69.78,69.64,69.52,69.49,69.38,69.36,69.38,69.40,69.37,69.37,69.35,69.33,69.39,69.36,69.33,69.31,69.31,69.32,69.36,69.38,69.36,69.20,69.27,69.43,69.55,69.54,69.53,69.48,69.41,69.37,69.25,69.30,69.36,69.34,69.25,69.28,69.30,69.28,69.22,69.27,69.30,69.29,69.21,69.21,69.29,69.40,69.51,69.50,69.40,69.28,69.21,69.24,69.27,69.23,69.16,69.10,69.10,69.12,69.08,69.01,69.01,68.92,68.87,68.88,68.93,69.03,69.05,69.05,69.04,69.02,69.05,69.08,69.10,69.09,69.07,69.05,69.06,69.08,69.05,69.01,68.95,68.90,68.90,68.94,68.95,68.95,68.93,68.86,68.96,69.30,69.72,69.68,69.77,69.74,69.68,69.70,69.70,69.64,69.63,69.73,69.82,69.84,69.77,69.64
72.03,71.98,71.81,71.71,71.68,71.69,71.66,71.57,71.41,71.26,71.25,71.19,71.12,71.13,71.29,71.41,71.44,71.39,71.31,71.25,71.25,71.24,71.21,71.18,71.19,71.20,71.21,71.21,71.19,71.14,71.10,71.09,71.13,71.12,71.13,71.15,71.17,71.18,71.17,71.18,71.20,71.20,71.18,71.15,71.12,71.07,70.99,70.96,70.98,71.04,71.05,71.07,71.08,71.08,71.06,71.07,71.08,71.08,71.06,71.05,71.09,71.14,71.20,71.21,71.06,70.83,70.65,70.64,70.63,70.56,70.47,70.43,70.55,70.68,70.76,70.80,70.85,70.88,70.90,70.91,70.93,70.93,70.91,70.89,70.88,70.86,70.86,70.84,70.82,70.84,70.92,70.94,70.93,70.92,70.87,70.76,70.67,70.61,70.60,70.59,70.58,70.56,70.57,70.53,70.47,70.44,70.46,70.48,70.43,70.32,70.18,70.09,70.08,70.06,70.05,70.08,70.12,70.14,70.07,69.94,69.98,70.13,70.35,70.58,70.73,70.68,70.57,70.33,69.99,69.87,70.06,70.24,70.34,70.31,70.24,70.17,70.13,70.12,70.06,70.01,69.97,69.94,69.95,69.97,69.94,69.91,69.96,70.02,69.98,69.90,69.83,69.87,69.75,69.58,69.43,69.35,69.29,69.28,69.27,69.23,69.20,69.21,69.22,69.22,69.28,69.26,69.23,69.22,69.26,69.22,69.25,69.28,69.27,69.15,69.27,69.44,69.56,69.50,69.50,69.46,69.40,69.36,69.17,69.23,69.32,69.31,69.24,69.30,69.32,69.28,69.22,69.22,69.21,69.18,69.13,69.19,69.25,69.34,69.42,69.39,69.31,69.24,69.21,69.23,69.28,69.24,69.17,69.10,69.12,69.16,69.13,69.08,69.06,68.93,68.86,68.86,68.94,68.99,69.01,69.01,69.00,69.00,69.00,69.04,69.07,69.06,69.02,69.01,69.03,69.07,69.02,69.00,68.99,68.96,68.92,68.97,68.99,68.99,68.96,68.89,68.97,69.26,69.62,69.57,69.68,69.66,69.59,69.61,69.62,69.57,69.57,69.70,69.87,69.89,69.85,69.79
71.96,71.95,71.76,71.66,71.64,71.66,71.59,71.51,71.37,71.22,71.22,71.19,71.10,71.05,71.14,71.33,71.45,71.48,71.44,71.33,71.31,71.29,71.25,71.16,71.17,71.19,71.20,71.20,71.20,71.18,71.16,71.15,71.17,71.16,71.17,71.19,71.19,71.19,71.19,71.20,71.21,71.21,71.18,71.16,71.15,71.11,71.01,70.97,70.99,71.06,71.08,71.11,71.12,71.11,71.08,71.09,71.10,71.12,71.14,71.10,71.09,71.11,71.14,71.16,71.02,70.81,70.63,70.60,70.55,70.49,70.42,70.39,70.52,70.65,70.75,70.78,70.82,70.86,70.89,70.91,70.95,70.94,70.90,70.85,70.81,70.81,70.81,70.77,70.73,70.78,70.84,70.88,70.90,70.92,70.86,70.75,70.65,70.60,70.60,70.57,70.55,70.53,70.52,70.51,70.46,70.45,70.51,70.55,70.51,70.39,70.25,70.17,70.16,70.12,70.09,70.09,70.14,70.14,70.05,69.90,69.91,70.10,70.34,70.58,70.75,70.72,70.64,70.41,70.03,69.86,70.03,70.23,70.35,70.32,70.21,70.11,70.07,70.09,70.04,70.00,69.96,69.92,69.92,69.97,69.98,69.97,69.99,70.01,69.93,69.86,69.86,69.84,69.79,69.68,69.53,69.35,69.30,69.29,69.27,69.21,69.15,69.13,69.13,69.13,69.15,69.10,69.10,69.15,69.21,69.15,69.14,69.15,69.14,69.11,69.23,69.36,69.44,69.43,69.43,69.41,69.36,69.23,69.07,69.19,69.31,69.31,69.29,69.40,69.38,69.29,69.27,69.21,69.16,69.12,69.12,69.18,69.17,69.17,69.20,69.24,69.22,69.21,69.22,69.27,69.29,69.26,69.20,69.12,69.17,69.18,69.15,69.09,69.07,68.94,68.89,68.91,68.97,68.99,68.99,68.99,68.99,68.98,68.94,68.93,68.96,68.99,68.98,68.97,69.00,69.06,69.01,69.00,68.99,68.97,68.92,68.98,68.99,68.98,68.96,68.88,68.95,69.22,69.54,69.49,69.59,69.57,69.50,69.52,69.55,69.52,69.54,69.66,69.85,69.87,69.86,69.85
71.79,71.79,71.65,71.58,71.55,71.53,71.45,71.39,71.29,71.17,71.17,71.13,71.06,71.02,71.09,71.31,71.48,71.56,71.53,71.38,71.35,71.33,71.29,71.18,71.16,71.17,71.18,71.17,71.19,71.19,71.19,71.18,71.19,71.19,71.20,71.20,71.19,71.22,71.23,71.22,71.21,71.21,71.19,71.20,71.19,71.14,71.04,70.97,70.96,71.02,71.08,71.12,71.13,71.11,71.11,71.12,71.13,71.15,71.16,71.11,71.09,71.09,71.11,71.13,70.98,70.78,70.61,70.57,70.52,70.47,70.42,70.39,70.50,70.63,70.72,70.77,70.83,70.87,70.90,70.93,70.95,70.93,70.90,70.84,70.78,70.78,70.75,70.70,70.67,70.72,70.78,70.83,70.85,70.87,70.84,70.73,70.63,70.57,70.56,70.54,70.52,70.51,70.51,70.52,70.50,70.48,70.52,70.59,70.56,70.42,70.25,70.18,70.17,70.12,70.07,70.06,70.13,70.14,70.04,69.88,69.86,70.04,70.28,70.52,70.68,70.67,70.60,70.36,69.96,69.83,70.01,70.20,70.31,70.28,70.15,70.06,70.02,70.04,70.01,70.00,69.96,69.92,69.91,69.96,69.99,69.99,69.97,69.97,69.90,69.83,69.82,69.82,69.80,69.74,69.62,69.47,69.44,69.43,69.40,69.32,69.25,69.21,69.19,69.18,69.13,69.10,69.10,69.12,69.16,69.10,69.07,69.06,69.06,69.06,69.19,69.32,69.40,69.37,69.36,69.34,69.27,69.14,69.03,69.17,69.32,69.38,69.37,69.42,69.38,69.28,69.22,69.16,69.12,69.12,69.18,69.20,69.17,69.14,69.13,69.16,69.17,69.16,69.17,69.21,69.22,69.20,69.15,69.11,69.17,69.18,69.14,69.09,69.07,68.94,68.88,68.88,68.91,68.94,68.95,68.95,68.95,68.94,68.91,68.89,68.89,68.92,68.93,68.92,68.95,69.02,68.98,68.96,68.96,68.96,68.92,68.96,68.95,68.93,68.91,68.87,68.94,69.18,69.46,69.40,69.49,69.48,69.41,69.40,69.44,69.45,69.49,69.60,69.76,69.77,69.75,69.76
71.58,71.56,71.51,71.47,71.42,71.36,71.27,71.24,71.19,71.13,71.11,71.06,71.02,71.02,71.09,71.32,71.52,71.63,71.59,71.42,71.39,71.38,71.33,71.22,71.15,71.15,71.16,71.14,71.19,71.20,71.20,71.20,71.20,71.22,71.22,71.21,71.18,71.26,71.26,71.24,71.21,71.20,71.21,71.23,71.23,71.16,71.05,70.96,70.92,70.97,71.07,71.12,71.13,71.11,71.14,71.14,71.15,71.15,71.16,71.11,71.09,71.09,71.10,71.10,70.94,70.75,70.59,70.55,70.51,70.47,70.43,70.40,70.49,70.60,70.70,70.76,70.84,70.88,70.92,70.94,70.93,70.90,70.90,70.86,70.78,70.76,70.70,70.64,70.61,70.66,70.73,70.78,70.80,70.80,70.80,70.72,70.62,70.53,70.51,70.50,70.50,70.50,70.50,70.54,70.54,70.52,70.51,70.61,70.58,70.42,70.22,70.17,70.14,70.08,70.03,70.01,70.11,70.13,70.04,69.88,69.82,69.97,70.21,70.45,70.59,70.59,70.51,70.25,69.86,69.78,69.98,70.16,70.25,70.20,70.08,70.01,69.98,69.98,69.98,69.99,69.96,69.92,69.90,69.95,69.98,69.98,69.93,69.93,69.87,69.80,69.75,69.80,69.80,69.76,69.70,69.65,69.64,69.62,69.57,69.48,69.42,69.35,69.31,69.28,69.17,69.19,69.17,69.12,69.10,69.05,69.02,69.00,69.00,69.00,69.14,69.30,69.41,69.34,69.31,69.25,69.16,69.06,69.01,69.16,69.34,69.46,69.45,69.41,69.35,69.25,69.13,69.08,69.09,69.15,69.27,69.24,69.21,69.18,69.13,69.13,69.13,69.12,69.10,69.10,69.12,69.09,69.08,69.10,69.13,69.15,69.13,69.09,69.06,68.93,68.86,68.82,68.80,68.86,68.89,68.90,68.90,68.90,68.89,68.87,68.84,68.85,68.88,68.88,68.91,68.96,68.95,68.92,68.93,68.94,68.91,68.93,68.90,68.86,68.86,68.84,68.92,69.13,69.38,69.31,69.39,69.37,69.31,69.28,69.33,69.36,69.42,69.53,69.63,69.63,69.59,69.58
71.44,71.40,71.38,71.36,71.34,71.30,71.22,71.17,71.13,71.11,71.08,71.02,70.98,71.01,71.16,71.35,71.44,71.48,71.47,71.42,71.45,71.44,71.38,71.26,71.20,71.18,71.19,71.18,71.18,71.16,71.16,71.17,71.14,71.16,71.19,71.21,71.22,71.27,71.28,71.27,71.24,71.20,71.20,71.20,71.17,71.10,70.99,70.91,70.89,70.95,71.01,71.04,71.06,71.08,71.11,71.12,71.12,71.12,71.12,71.08,71.05,71.04,71.04,71.03,70.93,70.80,70.66,70.59,70.55,70.47,70.39,70.34,70.47,70.62,70.72,70.76,70.81,70.86,70.85,70.82,70.82,70.85,70.85,70.82,70.79,70.73,70.63,70.57,70.57,70.62,70.68,70.72,70.74,70.77,70.75,70.68,70.60,70.54,70.54,70.50,70.46,70.44,70.47,70.49,70.47,70.46,70.48,70.53,70.50,70.38,70.24,70.21,70.19,70.15,70.09,70.03,70.07,70.09,70.04,69.93,69.88,70.03,70.27,70.49,70.57,70.53,70.44,70.23,69.89,69.76,69.90,70.05,70.13,70.09,70.00,69.94,69.91,69.90,69.90,69.91,69.92,69.91,69.90,69.92,69.94,69.97,69.97,69.97,69.89,69.83,69.84,69.85,69.81,69.75,69.70,69.67,69.67,69.62,69.54,69.44,69.39,69.34,69.31,69.29,69.23,69.21,69.18,69.14,69.10,69.08,69.05,69.02,69.00,69.00,69.17,69.35,69.46,69.41,69.33,69.25,69.14,68.99,69.00,69.11,69.26,69.39,69.41,69.38,69.32,69.24,69.14,69.09,69.20,69.33,69.38,69.32,69.26,69.22,69.20,69.18,69.18,69.16,69.12,69.10,69.09,69.09,69.08,69.06,69.05,69.04,69.02,68.98,68.97,68.91,68.84,68.74,68.63,68.83,68.89,68.90,68.90,68.90,68.90,68.89,68.88,68.88,68.86,68.87,68.89,68.92,68.92,68.91,68.91,68.93,68.94,68.91,68.86,68.82,68.82,68.81,68.89,69.09,69.30,69.22,69.28,69.26,69.21,69.20,69.25,69.28,69.32,69.39,69.50,69.51,69.46,69.41
71.38,71.34,71.34,71.34,71.34,71.32,71.23,71.17,71.15,71.16,71.14,71.06,70.98,71.00,71.17,71.36,71.42,71.42,71.41,71.43,71.48,71.47,71.41,71.28,71.21,71.18,71.17,71.18,71.17,71.15,71.15,71.17,71.13,71.14,71.16,71.18,71.20,71.25,71.26,71.25,71.23,71.20,71.19,71.18,71.16,71.10,70.99,70.90,70.86,70.91,70.97,71.00,71.03,71.07,71.09,71.09,71.09,71.10,71.10,71.06,71.03,71.02,71.02,70.98,70.91,70.81,70.70,70.62,70.57,70.48,70.38,70.32,70.44,70.59,70.67,70.68,70.69,70.78,70.79,70.76,70.74,70.80,70.81,70.81,70.79,70.73,70.61,70.53,70.53,70.58,70.63,70.66,70.69,70.71,70.70,70.65,70.59,70.54,70.55,70.49,70.42,70.39,70.42,70.42,70.39,70.38,70.42,70.45,70.41,70.32,70.23,70.21,70.19,70.16,70.10,70.03,70.03,70.03,70.01,69.96,69.91,70.02,70.20,70.37,70.40,70.34,70.28,70.13,69.88,69.74,69.82,69.92,69.98,69.94,69.90,69.87,69.85,69.84,69.85,69.87,69.88,69.90,69.90,69.90,69.92,69.94,69.97,69.98,69.90,69.84,69.87,69.83,69.75,69.68,69.63,69.59,69.58,69.55,69.49,69.40,69.34,69.30,69.29,69.29,69.25,69.21,69.18,69.15,69.12,69.10,69.07,69.03,69.00,69.02,69.20,69.38,69.47,69.47,69.35,69.25,69.13,68.94,69.02,69.11,69.22,69.34,69.34,69.32,69.28,69.21,69.12,69.11,69.28,69.44,69.45,69.36,69.31,69.29,69.28,69.25,69.25,69.23,69.18,69.12,69.08,69.09,69.08,69.03,69.02,68.97,68.93,68.89,68.88,68.87,68.81,68.70,68.57,68.81,68.85,68.86,68.88,68.88,68.89,68.90,68.89,68.86,68.82,68.84,68.87,68.90,68.89,68.88,68.88,68.90,68.94,68.90,68.86,68.83,68.82,68.80,68.86,69.03,69.22,69.12,69.17,69.16,69.12,69.13,69.18,69.19,69.21,69.27,69.40,69.44,69.39,69.31
71.40,71.39,71.39,71.40,71.42,71.43,71.31,71.26,71.27,71.30,71.29,71.17,71.03,70.98,71.13,71.37,71.45,71.45,71.42,71.43,71.48,71.48,71.41,71.28,71.18,71.13,71.12,71.14,71.17,71.16,71.17,71.20,71.19,71.17,71.14,71.12,71.15,71.18,71.19,71.19,71.18,71.17,71.17,71.18,71.19,71.16,71.06,70.92,70.84,70.86,70.95,71.02,71.07,71.08,71.07,71.07,71.08,71.09,71.10,71.06,71.05,71.05,71.03,70.95,70.86,70.78,70.71,70.65,70.57,70.48,70.39,70.32,70.39,70.49,70.53,70.51,70.50,70.63,70.73,70.77,70.71,70.75,70.79,70.81,70.80,70.77,70.64,70.52,70.48,70.55,70.58,70.61,70.63,70.64,70.64,70.63,70.59,70.54,70.53,70.46,70.40,70.35,70.36,70.34,70.29,70.27,70.32,70.35,70.32,70.25,70.19,70.18,70.15,70.12,70.07,69.99,69.99,69.97,69.96,69.95,69.91,69.93,70.00,70.08,70.08,70.02,70.01,69.95,69.81,69.73,69.73,69.77,69.80,69.77,69.76,69.78,69.80,69.81,69.84,69.85,69.86,69.89,69.90,69.90,69.90,69.91,69.93,69.94,69.88,69.83,69.82,69.73,69.64,69.55,69.46,69.41,69.36,69.38,69.41,69.35,69.27,69.24,69.26,69.28,69.22,69.20,69.19,69.17,69.16,69.12,69.07,69.03,69.01,69.06,69.25,69.39,69.45,69.49,69.36,69.25,69.12,68.91,69.09,69.15,69.22,69.29,69.22,69.23,69.22,69.17,69.04,69.15,69.35,69.49,69.47,69.35,69.36,69.37,69.37,69.34,69.35,69.34,69.28,69.16,69.11,69.10,69.08,69.02,69.05,68.95,68.86,68.81,68.81,68.81,68.76,68.68,68.64,68.79,68.78,68.79,68.83,68.83,68.88,68.90,68.87,68.80,68.75,68.79,68.86,68.90,68.88,68.84,68.83,68.85,68.91,68.90,68.89,68.88,68.86,68.79,68.82,68.96,69.12,69.00,69.06,69.06,69.03,69.05,69.10,69.10,69.10,69.14,69.34,69.43,69.41,69.29
71.40,71.40,71.40,71.41,71.43,71.45,71.39,71.37,71.38,71.41,71.38,71.22,71.04,70.95,71.07,71.31,71.39,71.40,71.38,71.37,71.42,71.44,71.40,71.28,71.16,71.11,71.11,71.13,71.18,71.18,71.19,71.20,71.20,71.18,71.16,71.15,71.15,71.15,71.15,71.15,71.15,71.17,71.18,71.19,71.19,71.17,71.07,70.90,70.78,70.80,70.92,70.99,71.02,71.00,70.97,70.98,71.00,71.02,71.02,70.99,70.98,70.97,70.93,70.84,70.78,70.73,70.68,70.64,70.57,70.49,70.41,70.34,70.39,70.47,70.51,70.50,70.47,70.53,70.60,70.62,70.58,70.58,70.61,70.64,70.65,70.64,70.56,70.48,70.43,70.46,70.45,70.47,70.48,70.49,70.50,70.50,70.47,70.42,70.40,70.35,70.31,70.28,70.26,70.23,70.19,70.17,70.17,70.18,70.16,70.13,70.10,70.10,70.05,70.02,69.99,69.95,69.95,69.94,69.93,69.92,69.91,69.91,69.93,69.95,69.93,69.89,69.88,69.84,69.75,69.71,69.71,69.72,69.74,69.75,69.76,69.78,69.80,69.80,69.82,69.82,69.84,69.89,69.90,69.90,69.90,69.90,69.91,69.89,69.84,69.82,69.84,69.76,69.66,69.52,69.38,69.30,69.23,69.23,69.26,69.26,69.23,69.19,69.19,69.23,69.17,69.22,69.24,69.22,69.14,69.11,69.03,68.98,69.01,69.11,69.29,69.35,69.33,69.39,69.33,69.23,69.08,68.91,69.08,69.19,69.26,69.29,69.21,69.21,69.20,69.15,68.97,69.26,69.43,69.48,69.43,69.33,69.36,69.39,69.40,69.43,69.40,69.38,69.35,69.29,69.22,69.18,69.14,69.10,69.04,68.98,68.93,68.90,68.86,68.86,68.83,68.76,68.69,68.74,68.70,68.68,68.70,68.71,68.77,68.81,68.82,68.78,68.74,68.80,68.86,68.88,68.83,68.77,68.75,68.78,68.84,68.85,68.88,68.88,68.85,68.77,68.82,68.94,69.03,68.89,68.94,68.93,68.90,68.93,69.02,69.02,69.01,69.04,69.21,69.33,69.35,69.25
71.40,71.39,71.39,71.39,71.41,71.44,71.44,71.44,71.45,71.46,71.42,71.22,71.02,70.92,70.99,71.22,71.29,71.30,71.29,71.28,71.32,71.35,71.34,71.24,71.12,71.08,71.09,71.11,71.15,71.15,71.15,71.16,71.16,71.15,71.14,71.12,71.11,71.07,71.06,71.06,71.06,71.09,71.11,71.10,71.08,71.07,70.99,70.83,70.71,70.72,70.84,70.89,70.89,70.85,70.82,70.83,70.85,70.87,70.87,70.85,70.85,70.82,70.77,70.70,70.68,70.66,70.63,70.60,70.56,70.50,70.43,70.38,70.41,70.46,70.49,70.49,70.48,70.48,70.49,70.49,70.47,70.44,70.45,70.48,70.51,70.51,70.48,70.44,70.40,70.37,70.36,70.38,70.39,70.38,70.40,70.40,70.37,70.32,70.29,70.27,70.26,70.24,70.21,70.19,70.16,70.15,70.14,70.10,70.06,70.05,70.04,70.04,70.02,70.01,69.99,69.96,69.96,69.96,69.95,69.94,69.94,69.92,69.90,69.87,69.84,69.82,69.80,69.77,69.72,69.70,69.71,69.71,69.73,69.77,69.78,69.79,69.80,69.81,69.81,69.80,69.83,69.88,69.90,69.90,69.90,69.90,69.90,69.84,69.80,69.81,69.85,69.79,69.66,69.51,69.35,69.26,69.17,69.13,69.13,69.17,69.17,69.13,69.12,69.16,69.12,69.21,69.26,69.23,69.11,69.09,69.00,68.94,68.99,69.12,69.27,69.30,69.23,69.30,69.30,69.20,69.05,68.91,69.06,69.21,69.29,69.27,69.21,69.20,69.18,69.10,68.93,69.30,69.43,69.43,69.39,69.32,69.36,69.39,69.40,69.48,69.42,69.40,69.39,69.37,69.29,69.23,69.19,69.17,69.06,69.03,69.02,69.00,68.95,68.93,68.92,68.87,68.77,68.74,68.69,68.65,68.63,68.63,68.68,68.72,68.73,68.72,68.69,68.76,68.82,68.82,68.77,68.70,68.69,68.72,68.77,68.80,68.85,68.87,68.82,68.75,68.82,68.91,68.93,68.80,68.83,68.82,68.80,68.82,68.93,68.93,68.93,68.96,69.09,69.21,69.25,69.19
71.38,71.35,71.35,71.35,71.36,71.39,71.45,71.42,71.40,71.39,71.32,71.13,70.97,70.89,70.90,71.07,71.11,71.12,71.11,71.11,71.14,71.18,71.19,71.10,71.03,71.02,71.04,71.03,71.01,70.99,71.00,71.02,71.02,71.02,71.01,70.98,70.92,70.87,70.85,70.83,70.82,70.84,70.82,70.78,70.75,70.74,70.71,70.64,70.58,70.58,70.63,70.64,70.61,70.57,70.56,70.57,70.58,70.58,70.57,70.57,70.57,70.55,70.52,70.50,70.52,70.54,70.55,70.54,70.52,70.50,70.47,70.46,70.47,70.47,70.47,70.48,70.52,70.52,70.49,70.44,70.42,70.38,70.38,70.40,70.43,70.43,70.42,70.41,70.39,70.35,70.39,70.43,70.45,70.42,70.40,70.39,70.37,70.32,70.29,70.32,70.32,70.31,70.32,70.34,70.31,70.32,70.38,70.24,70.13,70.09,70.09,70.09,70.15,70.23,70.24,70.14,70.12,70.14,70.12,70.08,70.06,69.98,69.92,69.88,69.83,69.85,69.84,69.79,69.73,69.70,69.74,69.77,69.78,69.79,69.80,69.80,69.82,69.85,69.83,69.81,69.83,69.88,69.90,69.89,69.89,69.89,69.89,69.83,69.77,69.75,69.79,69.74,69.62,69.52,69.46,69.39,69.27,69.15,69.08,69.07,69.05,69.03,69.03,69.04,69.08,69.15,69.18,69.16,69.09,69.03,68.98,68.95,68.93,69.00,69.14,69.20,69.22,69.30,69.30,69.18,69.02,68.92,69.06,69.21,69.26,69.22,69.20,69.20,69.12,69.01,68.97,69.10,69.19,69.28,69.39,69.32,69.34,69.34,69.34,69.46,69.42,69.40,69.38,69.33,69.24,69.21,69.20,69.19,69.16,69.12,69.10,69.10,69.08,69.04,69.02,68.99,68.93,68.89,68.83,68.77,68.72,68.68,68.66,68.62,68.58,68.57,68.56,68.60,68.66,68.69,68.70,68.64,68.64,68.69,68.72,68.78,68.82,68.83,68.77,68.74,68.82,68.85,68.81,68.73,68.78,68.78,68.76,68.76,68.84,68.84,68.85,68.91,69.00,69.09,69.11,69.05
71.27,71.24,71.24,71.24,71.23,71.23,71.28,71.24,71.21,71.17,71.10,70.99,70.91,70.87,70.84,70.93,70.95,70.93,70.91,70.91,70.93,70.95,70.96,70.91,70.87,70.88,70.88,70.86,70.82,70.80,70.80,70.82,70.82,70.83,70.83,70.81,70.75,70.72,70.70,70.69,70.67,70.65,70.63,70.60,70.58,70.58,70.57,70.55,70.53,70.52,70.54,70.52,70.49,70.45,70.45,70.45,70.46,70.45,70.45,70.45,70.45,70.44,70.43,70.42,70.44,70.47,70.50,70.52,70.50,70.49,70.48,70.49,70.51,70.52,70.52,70.54,70.59,70.59,70.54,70.48,70.46,70.44,70.43,70.44,70.46,70.45,70.43,70.41,70.40,70.38,70.44,70.49,70.51,70.49,70.48,70.48,70.46,70.40,70.36,70.39,70.40,70.40,70.41,70.43,70.39,70.38,70.44,70.28,70.16,70.13,70.18,70.19,70.28,70.38,70.39,70.24,70.19,70.17,70.15,70.11,70.07,69.97,69.92,69.89,69.86,69.87,69.84,69.78,69.71,69.66,69.70,69.77,69.83,69.84,69.84,69.82,69.82,69.84,69.82,69.81,69.82,69.84,69.87,69.85,69.84,69.84,69.84,69.78,69.71,69.70,69.76,69.72,69.63,69.57,69.53,69.46,69.37,69.27,69.21,69.18,69.11,69.06,69.03,69.04,69.09,69.09,69.08,69.05,69.00,68.95,68.92,68.90,68.89,68.92,69.02,69.10,69.16,69.23,69.22,69.08,68.95,68.96,69.09,69.19,69.23,69.20,69.20,69.19,69.08,68.95,68.96,69.01,69.06,69.13,69.22,69.18,69.22,69.23,69.24,69.37,69.35,69.34,69.32,69.29,69.20,69.19,69.20,69.20,69.19,69.16,69.15,69.16,69.15,69.13,69.11,69.07,68.99,68.96,68.91,68.86,68.81,68.78,68.74,68.65,68.58,68.58,68.54,68.55,68.58,68.61,68.62,68.58,68.58,68.63,68.66,68.70,68.74,68.74,68.69,68.70,68.75,68.75,68.71,68.66,68.72,68.72,68.68,68.68,68.74,68.75,68.77,68.86,68.95,69.01,68.99,68.90
71.13,71.11,71.11,71.11,71.08,71.03,71.04,71.02,70.97,70.90,70.84,70.84,70.87,70.87,70.81,70.82,70.80,70.77,70.72,70.72,70.72,70.72,70.72,70.72,70.71,70.71,70.71,70.68,70.63,70.62,70.62,70.62,70.63,70.65,70.67,70.67,70.62,70.61,70.61,70.59,70.56,70.52,70.51,70.51,70.51,70.51,70.51,70.51,70.51,70.51,70.51,70.48,70.45,70.43,70.43,70.43,70.42,70.42,70.42,70.42,70.42,70.41,70.40,70.40,70.41,70.44,70.48,70.53,70.50,70.48,70.49,70.51,70.54,70.58,70.60,70.62,70.66,70.65,70.60,70.55,70.55,70.55,70.54,70.54,70.54,70.54,70.48,70.44,70.42,70.43,70.50,70.55,70.56,70.56,70.57,70.60,70.57,70.49,70.45,70.47,70.48,70.48,70.49,70.50,70.44,70.40,70.42,70.27,70.16,70.18,70.28,70.31,70.39,70.49,70.49,70.31,70.22,70.16,70.12,70.09,70.02,69.93,69.90,69.89,69.90,69.88,69.82,69.74,69.67,69.61,69.64,69.73,69.85,69.89,69.87,69.84,69.81,69.80,69.82,69.82,69.80,69.79,69.82,69.79,69.77,69.77,69.77,69.72,69.66,69.66,69.73,69.71,69.66,69.62,69.58,69.52,69.47,69.42,69.39,69.37,69.23,69.14,69.09,69.09,69.12,69.06,68.99,68.93,68.90,68.87,68.86,68.85,68.87,68.86,68.92,69.00,69.08,69.13,69.10,68.95,68.86,69.00,69.11,69.17,69.20,69.20,69.20,69.16,69.04,68.91,68.95,68.99,69.01,69.01,69.01,69.01,69.07,69.11,69.13,69.24,69.25,69.25,69.24,69.23,69.17,69.18,69.20,69.20,69.20,69.17,69.17,69.20,69.20,69.20,69.19,69.12,69.00,68.99,68.96,68.92,68.90,68.89,68.84,68.74,68.66,68.65,68.58,68.57,68.57,68.57,68.55,68.53,68.53,68.56,68.58,68.60,68.63,68.63,68.59,68.63,68.65,68.64,68.61,68.59,68.66,68.64,68.58,68.60,68.65,68.66,68.70,68.79,68.90,68.94,68.87,68.74
71.08,71.03,71.00,71.01,71.00,70.96,70.97,70.95,70.90,70.85,70.85,70.89,70.93,70.93,70.87,70.86,70.83,70.78,70.73,70.73,70.73,70.74,70.74,70.73,70.74,70.75,70.76,70.74,70.74,70.76,70.77,70.77,70.81,70.82,70.82,70.83,70.85,70.75,70.69,70.66,70.65,70.64,70.62,70.62,70.63,70.64,70.63,70.64,70.65,70.63,70.57,70.55,70.55,70.59,70.61,70.59,70.56,70.53,70.51,70.50,70.51,70.49,70.45,70.44,70.48,70.53,70.59,70.65,70.65,70.62,70.57,70.53,70.52,70.56,70.61,70.66,70.68,70.67,70.61,70.55,70.54,70.60,70.65,70.68,70.69,70.67,70.58,70.49,70.46,70.50,70.54,70.51,70.47,70.48,70.52,70.53,70.51,70.47,70.43,70.44,70.45,70.46,70.50,70.51,70.47,70.45,70.45,70.29,70.19,70.23,70.34,70.44,70.53,70.57,70.51,70.31,70.22,70.16,70.11,70.07,70.02,69.93,69.89,69.89,69.90,69.84,69.73,69.64,69.59,69.55,69.57,69.63,69.71,69.77,69.77,69.75,69.75,69.79,69.83,69.84,69.81,69.77,69.75,69.73,69.74,69.74,69.73,69.71,69.66,69.64,69.67,69.66,69.65,69.63,69.60,69.55,69.53,69.47,69.42,69.45,69.35,69.26,69.21,69.21,69.24,69.16,69.06,68.97,68.91,68.90,68.91,68.93,68.94,68.91,68.94,68.97,69.01,69.10,69.02,68.92,68.90,69.04,69.11,69.17,69.20,69.20,69.20,69.05,68.94,68.94,69.08,69.11,69.10,69.10,69.10,69.10,69.09,69.08,69.09,69.10,69.10,69.10,69.10,69.10,69.08,69.12,69.17,69.19,69.16,69.16,69.18,69.20,69.20,69.19,69.16,69.09,69.00,68.99,68.94,68.91,68.90,68.90,68.87,68.81,68.75,68.77,68.67,68.64,68.64,68.63,68.59,68.57,68.56,68.55,68.53,68.53,68.54,68.53,68.48,68.50,68.50,68.50,68.51,68.55,68.60,68.58,68.53,68.53,68.56,68.57,68.62,68.70,68.80,68.82,68.75,68.60
71.12,71.12,71.09,71.06,71.04,71.04,71.04,71.01,70.96,70.91,70.93,70.97,70.99,70.96,70.91,70.90,70.88,70.85,70.82,70.83,70.82,70.83,70.83,70.81,70.84,70.91,70.96,70.96,71.02,71.08,71.10,71.08,71.13,71.11,71.09,71.10,71.17,71.02,70.89,70.82,70.79,70.79,70.76,70.75,70.76,70.74,70.73,70.74,70.74,70.70,70.62,70.60,70.63,70.68,70.69,70.66,70.62,70.58,70.57,70.55,70.56,70.53,70.48,70.47,70.50,70.55,70.62,70.70,70.72,70.68,70.61,70.53,70.51,70.56,70.63,70.68,70.70,70.69,70.63,70.58,70.58,70.67,70.75,70.79,70.80,70.78,70.64,70.52,70.46,70.51,70.53,70.49,70.45,70.46,70.51,70.52,70.51,70.48,70.45,70.45,70.45,70.47,70.51,70.51,70.49,70.48,70.47,70.31,70.22,70.24,70.35,70.47,70.55,70.58,70.50,70.29,70.21,70.16,70.11,70.07,70.04,69.95,69.90,69.89,69.90,69.79,69.66,69.56,69.53,69.51,69.52,69.54,69.58,69.63,69.63,69.62,69.64,69.71,69.76,69.81,69.81,69.77,69.72,69.72,69.74,69.75,69.71,69.69,69.64,69.61,69.60,69.60,69.60,69.58,69.56,69.54,69.51,69.45,69.40,69.44,69.41,69.35,69.30,69.28,69.30,69.18,69.06,68.97,68.91,68.91,68.96,69.02,69.06,69.02,69.00,69.00,69.02,69.12,69.05,68.98,68.97,69.07,69.11,69.15,69.18,69.19,69.15,68.96,68.90,68.97,69.10,69.16,69.17,69.16,69.16,69.16,69.13,69.11,69.11,69.11,69.09,69.08,69.07,69.05,69.03,69.04,69.07,69.09,69.04,69.13,69.18,69.18,69.20,69.17,69.13,69.07,69.00,68.99,68.93,68.90,68.90,68.90,68.86,68.81,68.79,68.84,68.74,68.71,68.70,68.67,68.61,68.61,68.61,68.58,68.53,68.53,68.53,68.50,68.44,68.43,68.42,68.41,68.41,68.46,68.51,68.50,68.47,68.48,68.50,68.52,68.55,68.61,68.67,68.70,68.63,68.50
71.24,71.39,71.35,71.24,71.19,71.26,71.27,71.20,71.13,71.08,71.10,71.10,71.05,70.98,70.94,70.94,70.97,70.98,70.98,71.00,70.99,70.99,71.00,70.97,71.04,71.18,71.30,71.34,71.48,71.58,71.60,71.56,71.56,71.52,71.47,71.47,71.57,71.42,71.21,71.05,70.98,70.96,70.92,70.90,70.88,70.82,70.81,70.82,70.80,70.73,70.66,70.66,70.68,70.70,70.68,70.63,70.59,70.57,70.58,70.57,70.56,70.54,70.50,70.50,70.50,70.52,70.58,70.69,70.71,70.67,70.60,70.53,70.50,70.57,70.65,70.70,70.70,70.70,70.66,70.63,70.66,70.78,70.86,70.88,70.86,70.84,70.67,70.51,70.42,70.44,70.47,70.48,70.49,70.52,70.55,70.57,70.56,70.53,70.52,70.51,70.50,70.50,70.52,70.51,70.50,70.50,70.48,70.33,70.24,70.23,70.30,70.39,70.48,70.53,70.48,70.27,70.20,70.15,70.11,70.08,70.09,70.00,69.93,69.90,69.90,69.75,69.61,69.52,69.50,69.50,69.49,69.48,69.48,69.47,69.47,69.46,69.49,69.57,69.63,69.73,69.80,69.79,69.73,69.74,69.77,69.78,69.72,69.66,69.62,69.58,69.54,69.53,69.53,69.50,69.47,69.51,69.42,69.36,69.33,69.34,69.43,69.41,69.36,69.31,69.30,69.13,69.00,68.93,68.90,68.91,68.99,69.12,69.24,69.18,69.11,69.08,69.10,69.18,69.17,69.12,69.08,69.10,69.10,69.11,69.15,69.18,69.05,68.88,68.89,68.99,69.03,69.16,69.20,69.20,69.20,69.20,69.19,69.19,69.21,69.26,69.21,69.18,69.15,69.08,69.01,68.95,68.92,68.91,68.86,69.08,69.16,69.13,69.19,69.13,69.10,69.06,69.00,68.99,68.93,68.90,68.90,68.89,68.82,68.77,68.77,68.88,68.81,68.78,68.75,68.68,68.63,68.67,68.68,68.66,68.60,68.59,68.58,68.55,68.47,68.41,68.39,68.35,68.31,68.33,68.39,68.40,68.40,68.43,68.48,68.50,68.50,68.50,68.53,68.56,68.52,68.42
71.55,71.71,71.65,71.51,71.42,71.46,71.44,71.38,71.32,71.29,71.26,71.24,71.13,71.01,70.97,70.98,71.01,71.04,71.06,71.07,71.09,71.10,71.12,71.13,71.22,71.37,71.49,71.54,71.61,71.65,71.64,71.60,71.60,71.58,71.57,71.58,71.63,71.47,71.26,71.10,71.04,71.02,70.97,70.93,70.91,70.87,70.85,70.83,70.80,70.74,70.69,70.71,70.73,70.74,70.71,70.64,70.57,70.54,70.55,70.55,70.54,70.52,70.50,70.50,70.51,70.54,70.59,70.66,70.69,70.65,70.58,70.49,70.48,70.56,70.64,70.70,70.70,70.70,70.67,70.65,70.69,70.81,70.87,70.89,70.85,70.80,70.64,70.48,70.38,70.39,70.45,70.48,70.51,70.57,70.60,70.58,70.56,70.55,70.56,70.54,70.51,70.50,70.51,70.51,70.48,70.47,70.47,70.36,70.26,70.27,70.35,70.44,70.49,70.52,70.46,70.28,70.21,70.18,70.14,70.11,70.13,70.02,69.94,69.89,69.86,69.72,69.60,69.52,69.50,69.50,69.49,69.47,69.44,69.43,69.42,69.40,69.40,69.45,69.49,69.57,69.64,69.67,69.65,69.69,69.73,69.75,69.75,69.67,69.59,69.53,69.46,69.41,69.37,69.33,69.30,69.29,69.20,69.15,69.14,69.15,69.15,69.13,69.10,69.07,69.03,68.95,68.89,68.85,68.80,68.80,68.83,68.91,69.03,69.01,69.02,69.04,69.08,69.16,69.13,69.12,69.11,69.09,69.09,69.10,69.19,69.30,68.99,68.85,68.91,69.06,69.12,69.18,69.20,69.20,69.20,69.15,69.18,69.20,69.21,69.23,69.21,69.19,69.16,69.08,69.05,68.97,68.91,68.91,68.90,68.99,68.99,68.96,69.02,69.02,69.01,68.99,68.93,68.94,68.91,68.90,68.91,68.89,68.83,68.80,68.81,68.87,68.81,68.80,68.78,68.75,68.73,68.75,68.75,68.71,68.63,68.57,68.57,68.57,68.52,68.46,68.41,68.37,68.34,68.31,68.36,68.36,68.34,68.36,68.44,68.48,68.49,68.46,68.48,68.49,68.47,68.42
71.77,71.91,71.84,71.70,71.60,71.60,71.56,71.51,71.47,71.44,71.40,71.35,71.20,71.04,71.00,71.02,71.06,71.09,71.12,71.14,71.17,71.19,71.22,71.28,71.37,71.49,71.60,71.64,71.65,71.64,71.62,71.58,71.59,71.60,71.61,71.63,71.64,71.48,71.28,71.15,71.10,71.07,70.99,70.93,70.91,70.89,70.87,70.85,70.82,70.77,70.73,70.76,70.79,70.78,70.75,70.65,70.57,70.52,70.54,70.54,70.53,70.51,70.50,70.50,70.52,70.56,70.60,70.65,70.68,70.65,70.57,70.47,70.46,70.54,70.64,70.71,70.72,70.72,70.69,70.67,70.70,70.82,70.88,70.89,70.86,70.78,70.62,70.46,70.36,70.37,70.44,70.49,70.54,70.60,70.62,70.58,70.55,70.56,70.59,70.56,70.54,70.52,70.51,70.50,70.47,70.46,70.47,70.41,70.32,70.33,70.42,70.49,70.50,70.51,70.45,70.29,70.22,70.20,70.17,70.14,70.16,70.07,69.98,69.91,69.82,69.67,69.57,69.51,69.50,69.50,69.50,69.47,69.42,69.40,69.40,69.36,69.34,69.38,69.40,69.44,69.50,69.56,69.59,69.64,69.67,69.70,69.76,69.65,69.56,69.49,69.42,69.35,69.29,69.24,69.20,69.13,69.04,68.99,68.99,69.02,68.96,68.93,68.91,68.89,68.84,68.83,68.82,68.81,68.76,68.73,68.71,68.75,68.85,68.85,68.90,68.95,69.01,69.08,69.03,69.05,69.07,69.04,69.04,69.06,69.19,69.34,68.94,68.83,68.92,69.08,69.18,69.18,69.18,69.18,69.18,69.11,69.16,69.20,69.20,69.21,69.21,69.19,69.14,69.06,69.08,69.00,68.94,68.94,68.96,68.93,68.88,68.85,68.89,68.92,68.93,68.90,68.87,68.88,68.89,68.90,68.91,68.89,68.84,68.83,68.84,68.85,68.81,68.80,68.80,68.80,68.80,68.80,68.79,68.74,68.63,68.55,68.55,68.57,68.53,68.48,68.43,68.38,68.35,68.29,68.34,68.33,68.30,68.32,68.41,68.48,68.49,68.45,68.45,68.43,68.43,68.42
71.80,71.84,71.80,71.73,71.67,71.65,71.60,71.57,71.53,71.48,71.46,71.41,71.23,71.06,71.02,71.06,71.10,71.13,71.18,71.19,71.24,71.28,71.31,71.38,71.45,71.50,71.54,71.55,71.55,71.55,71.54,71.53,71.55,71.59,71.60,71.60,71.59,71.45,71.29,71.19,71.16,71.10,70.97,70.91,70.90,70.90,70.89,70.89,70.87,70.84,70.79,70.81,70.83,70.84,70.79,70.70,70.60,70.55,70.59,70.59,70.57,70.53,70.50,70.50,70.53,70.56,70.61,70.65,70.69,70.67,70.60,70.49,70.46,70.54,70.65,70.75,70.78,70.78,70.74,70.69,70.70,70.82,70.90,70.93,70.91,70.84,70.67,70.50,70.39,70.39,70.44,70.51,70.55,70.55,70.56,70.55,70.55,70.56,70.59,70.59,70.58,70.56,70.52,70.51,70.49,70.49,70.49,70.48,70.46,70.46,70.48,70.50,70.51,70.50,70.45,70.29,70.22,70.20,70.19,70.17,70.18,70.16,70.09,69.98,69.81,69.60,69.51,69.49,69.49,69.48,69.48,69.46,69.42,69.40,69.40,69.36,69.34,69.38,69.40,69.43,69.46,69.50,69.54,69.60,69.62,69.63,69.70,69.59,69.53,69.49,69.46,69.40,69.38,69.33,69.25,69.17,69.02,68.94,68.96,69.07,69.02,68.97,68.92,68.88,68.89,68.89,68.87,68.85,68.87,68.79,68.74,68.73,68.78,68.78,68.78,68.79,68.82,68.86,68.85,68.85,68.87,68.90,68.90,68.96,69.07,69.14,68.88,68.84,68.89,68.99,69.11,69.11,69.11,69.12,69.13,69.11,69.16,69.20,69.21,69.23,69.23,69.19,69.11,69.02,69.06,69.02,68.99,68.99,69.03,68.97,68.93,68.90,68.88,68.87,68.84,68.82,68.81,68.82,68.85,68.88,68.91,68.89,68.86,68.85,68.85,68.84,68.81,68.80,68.80,68.80,68.80,68.79,68.77,68.70,68.59,68.54,68.55,68.54,68.47,68.45,68.41,68.36,68.31,68.25,68.30,68.30,68.28,68.32,68.41,68.49,68.51,68.46,68.41,68.39,68.40,68.41
71.80,71.81,71.80,71.78,71.74,71.67,71.61,71.58,71.54,71.50,71.48,71.41,71.25,71.09,71.02,71.09,71.14,71.19,71.24,71.25,71.29,71.33,71.38,71.45,71.48,71.50,71.51,71.51,71.51,71.52,71.53,71.54,71.54,71.58,71.59,71.58,71.56,71.47,71.30,71.17,71.10,71.06,70.97,70.92,70.92,70.94,70.92,70.89,70.86,70.85,70.82,70.86,70.88,70.87,70.79,70.70,70.62,70.58,70.60,70.60,70.58,70.55,70.52,70.54,70.55,70.56,70.58,70.62,70.64,70.63,70.57,70.47,70.45,70.54,70.65,70.73,70.77,70.79,70.75,70.69,70.67,70.78,70.85,70.90,70.90,70.86,70.70,70.53,70.42,70.42,70.46,70.50,70.53,70.52,70.50,70.50,70.50,70.52,70.55,70.57,70.55,70.51,70.46,70.45,70.45,70.45,70.45,70.48,70.49,70.47,70.45,70.45,70.47,70.48,70.42,70.27,70.21,70.19,70.17,70.13,70.13,70.13,70.09,70.00,69.85,69.62,69.51,69.47,69.46,69.45,69.44,69.43,69.41,69.40,69.39,69.35,69.33,69.38,69.39,69.38,69.40,69.44,69.47,69.51,69.53,69.55,69.63,69.55,69.51,69.49,69.47,69.43,69.42,69.40,69.36,69.31,69.08,68.95,68.94,69.04,68.99,68.93,68.88,68.87,68.86,68.85,68.84,68.82,68.81,68.76,68.72,68.73,68.77,68.77,68.76,68.75,68.75,68.75,68.73,68.73,68.77,68.83,68.83,68.87,68.94,68.98,68.88,68.87,68.87,68.90,69.00,68.96,68.95,68.96,68.98,68.99,69.05,69.09,69.10,69.18,69.22,69.18,69.10,69.00,69.03,69.01,69.00,69.00,69.02,68.98,68.97,68.97,68.94,68.90,68.87,68.84,68.79,68.77,68.79,68.81,68.82,68.81,68.80,68.83,68.84,68.80,68.80,68.82,68.82,68.80,68.80,68.81,68.75,68.66,68.59,68.55,68.55,68.52,68.45,68.42,68.37,68.31,68.25,68.20,68.27,68.27,68.26,68.32,68.39,68.47,68.50,68.45,68.35,68.31,68.34,68.39
71.80,71.80,71.80,71.83,71.80,71.67,71.61,71.58,71.54,71.49,71.47,71.39,71.25,71.11,71.02,71.10,71.19,71.26,71.30,71.31,71.33,71.38,71.45,71.50,71.49,71.49,71.50,71.51,71.52,71.54,71.56,71.57,71.55,71.59,71.59,71.57,71.54,71.51,71.32,71.13,71.02,71.02,70.98,70.95,70.94,70.98,70.94,70.87,70.83,70.85,70.84,70.89,70.92,70.88,70.77,70.69,70.63,70.60,70.60,70.60,70.58,70.56,70.55,70.59,70.57,70.55,70.54,70.57,70.58,70.57,70.53,70.45,70.43,70.53,70.63,70.70,70.73,70.77,70.74,70.68,70.64,70.72,70.80,70.85,70.87,70.85,70.71,70.56,70.45,70.44,70.47,70.49,70.49,70.49,70.44,70.43,70.44,70.47,70.48,70.51,70.49,70.42,70.36,70.36,70.37,70.38,70.38,70.44,70.46,70.44,70.39,70.37,70.41,70.43,70.38,70.24,70.20,70.18,70.14,70.08,70.08,70.07,70.06,70.02,69.90,69.66,69.52,69.45,69.42,69.41,69.40,69.40,69.40,69.40,69.38,69.34,69.33,69.37,69.37,69.33,69.34,69.38,69.40,69.43,69.45,69.48,69.56,69.52,69.50,69.48,69.46,69.46,69.46,69.48,69.50,69.47,69.15,68.97,68.94,68.99,68.94,68.86,68.83,68.85,68.83,68.78,68.79,68.79,68.72,68.71,68.71,68.73,68.78,68.78,68.76,68.73,68.72,68.69,68.65,68.65,68.70,68.78,68.79,68.79,68.81,68.85,68.88,68.89,68.85,68.81,68.89,68.81,68.78,68.80,68.82,68.84,68.90,68.93,68.96,69.07,69.15,69.14,69.06,68.99,68.99,68.99,69.00,69.01,69.01,68.98,69.00,69.02,69.00,68.97,68.94,68.88,68.78,68.72,68.72,68.73,68.72,68.69,68.72,68.79,68.82,68.75,68.79,68.83,68.83,68.79,68.80,68.82,68.73,68.61,68.59,68.58,68.54,68.50,68.45,68.39,68.33,68.26,68.20,68.16,68.24,68.25,68.23,68.31,68.36,68.45,68.49,68.43,68.31,68.25,68.30,68.37
71.78,71.82,71.77,71.76,71.73,71.66,71.63,71.56,71.50,71.46,71.42,71.37,71.23,71.07,70.98,71.12,71.23,71.29,71.32,71.35,71.38,71.42,71.46,71.50,71.45,71.46,71.50,71.55,71.59,71.61,71.61,71.61,71.59,71.61,71.61,71.59,71.58,71.50,71.30,71.14,71.07,71.06,70.99,70.93,70.91,70.93,70.90,70.85,70.81,70.82,70.84,70.89,70.89,70.84,70.77,70.68,70.62,70.60,70.62,70.60,70.59,70.57,70.57,70.60,70.58,70.56,70.53,70.52,70.55,70.58,70.55,70.45,70.40,70.48,70.58,70.64,70.67,70.72,70.71,70.66,70.61,70.71,70.82,70.89,70.90,70.87,70.73,70.57,70.45,70.43,70.43,70.43,70.45,70.48,70.38,70.35,70.38,70.41,70.39,70.40,70.36,70.27,70.17,70.20,70.25,70.27,70.26,70.33,70.38,70.36,70.30,70.26,70.28,70.31,70.30,70.22,70.17,70.16,70.14,70.11,70.10,70.08,70.07,70.03,69.87,69.62,69.48,69.42,69.41,69.43,69.42,69.41,69.41,69.43,69.37,69.33,69.31,69.34,69.33,69.31,69.33,69.39,69.43,69.46,69.47,69.48,69.51,69.47,69.46,69.46,69.48,69.48,69.51,69.56,69.60,69.57,69.17,68.98,68.96,69.01,68.98,68.91,68.89,68.93,68.93,68.84,68.85,68.88,68.77,68.80,68.81,68.81,68.78,68.74,68.69,68.68,68.68,68.64,68.65,68.64,68.64,68.68,68.69,68.69,68.70,68.71,68.72,68.80,68.79,68.76,68.84,68.79,68.81,68.85,68.85,68.81,68.79,68.78,68.79,68.84,68.84,68.82,68.82,68.87,68.88,68.95,69.02,69.06,69.06,69.01,69.00,69.01,68.99,68.94,68.91,68.87,68.79,68.76,68.73,68.71,68.69,68.63,68.64,68.67,68.68,68.66,68.72,68.75,68.74,68.72,68.69,68.75,68.70,68.58,68.54,68.57,68.53,68.47,68.41,68.39,68.33,68.28,68.23,68.15,68.23,68.21,68.18,68.27,68.39,68.50,68.53,68.45,68.38,68.35,68.36,68.36
71.81,71.88,71.78,71.71,71.65,71.61,71.60,71.53,71.48,71.44,71.41,71.37,71.23,71.06,70.97,71.16,71.27,71.32,71.34,71.37,71.40,71.44,71.48,71.50,71.42,71.41,71.45,71.50,71.59,71.61,71.60,71.57,71.54,71.57,71.56,71.53,71.52,71.44,71.27,71.15,71.11,71.08,71.00,70.95,70.94,70.93,70.88,70.83,70.79,70.79,70.83,70.87,70.85,70.79,70.74,70.65,70.60,70.60,70.64,70.61,70.59,70.58,70.58,70.60,70.59,70.57,70.53,70.49,70.51,70.53,70.52,70.43,70.36,70.42,70.49,70.54,70.59,70.66,70.68,70.64,70.59,70.68,70.80,70.88,70.89,70.86,70.73,70.58,70.46,70.45,70.46,70.45,70.46,70.48,70.38,70.35,70.38,70.42,70.39,70.35,70.27,70.16,70.07,70.11,70.17,70.19,70.17,70.22,70.26,70.27,70.24,70.21,70.24,70.27,70.26,70.21,70.17,70.17,70.15,70.12,70.10,70.09,70.09,70.04,69.86,69.61,69.47,69.41,69.41,69.45,69.45,69.44,69.44,69.47,69.38,69.32,69.31,69.34,69.32,69.31,69.33,69.39,69.43,69.47,69.49,69.49,69.49,69.45,69.43,69.43,69.46,69.47,69.51,69.56,69.57,69.49,69.11,68.95,68.96,69.01,69.00,68.94,68.92,68.97,68.99,68.89,68.90,68.94,68.84,68.88,68.90,68.88,68.82,68.76,68.73,68.72,68.71,68.65,68.69,68.67,68.64,68.63,68.68,68.64,68.61,68.64,68.66,68.72,68.73,68.73,68.77,68.76,68.80,68.87,68.92,68.87,68.82,68.79,68.78,68.77,68.72,68.68,68.68,68.75,68.76,68.84,68.93,68.99,69.03,69.01,68.99,68.99,68.96,68.92,68.88,68.86,68.83,68.80,68.77,68.75,68.71,68.65,68.67,68.67,68.66,68.65,68.68,68.69,68.68,68.67,68.64,68.66,68.62,68.54,68.51,68.54,68.51,68.45,68.40,68.37,68.32,68.27,68.24,68.15,68.23,68.20,68.17,68.25,68.41,68.51,68.52,68.44,68.41,68.40,68.38,68.34
71.89,71.97,71.84,71.67,71.55,71.54,71.51,71.50,71.47,71.44,71.41,71.40,71.27,71.10,70.99,71.22,71.32,71.36,71.36,71.37,71.40,71.46,71.50,71.49,71.38,71.34,71.35,71.39,71.52,71.56,71.54,71.47,71.42,71.47,71.45,71.40,71.37,71.33,71.24,71.17,71.13,71.09,71.01,71.00,71.01,70.97,70.87,70.81,70.77,70.77,70.82,70.83,70.79,70.73,70.70,70.61,70.58,70.60,70.66,70.61,70.60,70.60,70.60,70.60,70.60,70.58,70.54,70.47,70.45,70.45,70.44,70.38,70.32,70.33,70.37,70.41,70.49,70.59,70.64,70.63,70.56,70.64,70.76,70.84,70.84,70.82,70.74,70.60,70.48,70.50,70.55,70.53,70.50,70.49,70.43,70.42,70.45,70.48,70.47,70.37,70.22,70.09,70.06,70.09,70.12,70.13,70.11,70.12,70.13,70.16,70.19,70.20,70.28,70.29,70.25,70.21,70.19,70.19,70.17,70.13,70.10,70.10,70.10,70.05,69.88,69.64,69.50,69.42,69.41,69.46,69.48,69.49,69.49,69.50,69.39,69.32,69.32,69.37,69.33,69.31,69.33,69.38,69.41,69.46,69.49,69.50,69.50,69.44,69.41,69.40,69.40,69.40,69.46,69.47,69.41,69.27,68.98,68.88,68.92,68.98,69.00,68.95,68.94,68.99,69.00,68.94,68.94,68.97,68.91,68.97,68.99,68.97,68.90,68.82,68.85,68.85,68.79,68.71,68.76,68.75,68.68,68.62,68.75,68.64,68.56,68.61,68.69,68.64,68.65,68.70,68.70,68.70,68.75,68.87,69.02,69.02,68.97,68.93,68.91,68.83,68.76,68.68,68.63,68.63,68.62,68.67,68.73,68.80,68.93,68.97,68.98,68.97,68.91,68.90,68.84,68.83,68.88,68.82,68.85,68.84,68.78,68.73,68.78,68.77,68.72,68.71,68.66,68.65,68.65,68.64,68.62,68.55,68.51,68.50,68.50,68.49,68.47,68.44,68.40,68.36,68.30,68.25,68.22,68.15,68.23,68.23,68.20,68.25,68.40,68.48,68.47,68.39,68.41,68.40,68.37,68.32
