55.33,55.38,55.40,55.42,55.43,55.45,55.53,55.59,55.64,55.67,55.73,55.70,55.65,55.54,55.34,55.13,55.07,55.07,55.06,55.12,55.17,55.17,55.14,55.07,54.98,54.93,54.91,54.90,55.00,55.09,55.08,55.01,54.98,55.00,55.02,55.02,55.01,55.04,55.06,55.05,55.02,55.00,55.00,55.02,55.06,55.12,55.17,55.17,55.16,55.13,55.12,55.07,54.96,54.83,54.77,54.75,54.74,54.71,54.65,54.59,54.62,54.67,54.70,54.70,54.68,54.65,54.63,54.67,54.71,54.59,54.45,54.39,54.40,54.37,54.33,54.29,54.25,54.19,54.13,54.11,54.15,54.21,54.23,54.23,54.24,54.28,54.27,54.23,54.21,54.20,54.18,54.20,54.24,54.28,54.22,54.22,54.26,54.31,54.34,54.31,54.26,54.21,54.20,54.19,54.19,54.20,54.21,54.28,54.24,54.24,54.27,54.28,54.25,54.26,54.28,54.29,54.24,54.21,54.18,54.14,54.14,54.18,54.20,54.20,54.20,54.20,54.13,54.09,54.12,54.12,54.15,54.15,54.12,54.10,54.16,54.15,54.14,54.17,54.11,54.09,54.11,54.18,54.18,54.21,54.24,54.23,54.16,54.08,54.08,54.10,54.06,53.83,53.50,53.28,53.20,53.18,53.19,53.20,53.16,53.06,53.03,53.01,53.02,53.05,53.04,52.97,52.89,52.84,52.84,53.01,53.74,55.10,57.06,59.08,60.45,61.31,61.86,62.47,62.56,62.59,62.60,62.62,62.65,62.60,62.57,62.58,62.58,62.58,62.52,62.42,62.33,62.35,62.37,62.37,62.37,62.37,62.36,62.34,62.31,62.30,62.30,62.30,62.30,62.29,62.27,62.26,62.23,62.18,62.14,62.13,62.13,62.13,62.08,62.02,61.99,61.97,61.94,61.88,61.78,61.69,61.64,61.63,61.58,60.98,59.74,57.85,56.31,55.44,56.06,58.36,61.33,61.85,61.86,61.80,61.74,61.70,61.70,61.71,61.71,61.67,61.63,61.60,61.57,61.57,61.61,61.64,61.67,61.69,61.69,61.67,61.65,61.62,61.60,61.53,61.47,61.43
55.31,55.34,55.40,55.44,55.45,55.46,55.53,55.60,55.62,55.62,55.70,55.72,55.71,55.68,55.66,55.58,55.47,55.37,55.29,55.27,55.20,55.16,55.14,55.14,55.06,55.00,54.98,54.99,55.11,55.15,55.07,54.92,54.90,55.00,55.05,55.05,55.02,55.03,55.03,55.02,55.00,55.00,55.00,55.01,55.05,55.11,55.18,55.20,55.18,55.15,55.12,55.14,55.08,54.96,54.88,54.86,54.82,54.75,54.65,54.61,54.64,54.68,54.70,54.70,54.70,54.69,54.69,54.70,54.72,54.61,54.47,54.40,54.40,54.38,54.33,54.26,54.19,54.15,54.11,54.12,54.25,54.29,54.28,54.25,54.22,54.27,54.24,54.21,54.20,54.20,54.18,54.18,54.22,54.27,54.19,54.20,54.23,54.25,54.29,54.26,54.23,54.21,54.20,54.16,54.17,54.19,54.21,54.28,54.24,54.22,54.24,54.24,54.21,54.22,54.25,54.29,54.27,54.23,54.17,54.11,54.10,54.16,54.20,54.20,54.20,54.20,54.14,54.12,54.17,54.17,54.19,54.19,54.16,54.10,54.12,54.09,54.08,54.13,54.10,54.06,54.06,54.13,54.13,54.14,54.15,54.14,54.11,54.08,54.09,54.09,54.05,53.74,53.39,53.21,53.20,53.18,53.19,53.20,53.16,53.09,53.08,53.03,52.98,52.96,53.00,52.97,52.85,52.71,52.65,52.68,52.82,53.35,54.64,57.87,60.00,61.11,61.62,62.46,62.58,62.60,62.60,62.60,62.61,62.60,62.59,62.60,62.61,62.63,62.56,62.42,62.32,62.36,62.34,62.32,62.32,62.31,62.31,62.30,62.30,62.30,62.30,62.30,62.29,62.27,62.22,62.21,62.20,62.19,62.17,62.14,62.16,62.19,62.16,62.13,62.14,62.11,62.01,61.86,61.75,61.67,61.61,61.53,61.54,61.52,61.30,60.67,58.50,56.31,55.96,58.11,61.21,61.82,61.84,61.75,61.71,61.70,61.72,61.74,61.74,61.70,61.67,61.63,61.60,61.61,61.63,61.67,61.70,61.70,61.70,61.70,61.69,61.68,61.61,61.54,61.51,61.50
55.31,55.34,55.38,55.40,55.40,55.42,55.48,55.54,55.56,55.58,55.66,55.71,55.73,55.73,55.72,55.67,55.62,55.56,55.50,55.48,55.46,55.43,55.41,55.41,55.38,55.37,55.35,55.34,55.41,55.33,55.13,54.88,54.87,54.99,54.98,54.88,54.79,54.86,54.94,54.98,55.00,55.00,54.94,54.93,54.96,55.03,55.11,55.14,55.11,55.00,54.98,55.01,55.00,54.95,54.96,54.94,54.87,54.78,54.68,54.63,54.64,54.67,54.67,54.66,54.67,54.69,54.70,54.70,54.69,54.58,54.46,54.40,54.37,54.33,54.26,54.19,54.14,54.12,54.12,54.15,54.28,54.33,54.32,54.27,54.22,54.24,54.22,54.21,54.20,54.20,54.19,54.19,54.21,54.24,54.16,54.18,54.20,54.22,54.24,54.23,54.19,54.16,54.15,54.13,54.16,54.19,54.21,54.28,54.27,54.24,54.22,54.21,54.20,54.21,54.22,54.24,54.27,54.24,54.17,54.10,54.06,54.15,54.17,54.15,54.15,54.11,54.10,54.11,54.13,54.14,54.14,54.14,54.13,54.10,54.11,54.09,54.09,54.11,54.06,54.03,54.05,54.11,54.11,54.12,54.12,54.11,54.10,54.10,54.10,54.08,54.03,53.89,53.82,53.80,53.79,53.78,53.68,53.63,53.58,53.45,53.42,53.24,53.05,52.93,52.95,52.97,52.91,52.79,52.61,52.56,52.63,52.89,53.54,55.53,57.80,59.76,61.22,62.08,62.44,62.56,62.58,62.60,62.60,62.60,62.60,62.60,62.60,62.60,62.53,62.42,62.33,62.31,62.30,62.29,62.29,62.29,62.29,62.29,62.29,62.29,62.28,62.26,62.24,62.23,62.22,62.22,62.21,62.18,62.14,62.13,62.16,62.20,62.19,62.18,62.19,62.19,62.15,61.97,61.76,61.66,61.66,61.63,61.62,61.60,61.52,61.31,60.23,58.50,57.67,58.54,61.18,61.70,61.77,61.76,61.72,61.71,61.72,61.73,61.72,61.70,61.68,61.65,61.64,61.65,61.66,61.67,61.68,61.68,61.68,61.69,61.70,61.70,61.65,61.60,61.58,61.57
55.30,55.34,55.38,55.37,55.36,55.39,55.44,55.47,55.50,55.54,55.60,55.67,55.72,55.75,55.73,55.71,55.71,55.70,55.66,55.65,55.67,55.66,55.65,55.63,55.65,55.67,55.67,55.64,55.66,55.49,55.18,54.87,54.85,54.95,54.89,54.75,54.63,54.74,54.82,54.87,54.89,54.92,54.86,54.86,54.92,54.99,55.05,55.09,55.05,54.90,54.89,54.91,54.91,54.91,54.96,54.94,54.87,54.79,54.71,54.65,54.64,54.65,54.65,54.64,54.65,54.68,54.69,54.69,54.64,54.53,54.43,54.37,54.32,54.26,54.20,54.14,54.13,54.13,54.15,54.20,54.30,54.35,54.34,54.29,54.23,54.21,54.20,54.21,54.21,54.22,54.20,54.20,54.21,54.20,54.14,54.15,54.17,54.18,54.19,54.19,54.15,54.11,54.11,54.10,54.14,54.18,54.20,54.26,54.28,54.25,54.20,54.19,54.18,54.18,54.18,54.19,54.24,54.23,54.18,54.11,54.05,54.14,54.15,54.10,54.09,54.04,54.07,54.10,54.10,54.10,54.10,54.10,54.10,54.10,54.10,54.11,54.11,54.10,54.05,54.05,54.08,54.14,54.14,54.13,54.12,54.12,54.12,54.13,54.12,54.08,54.03,54.06,54.21,54.30,54.29,54.26,54.10,54.03,53.97,53.82,53.78,53.52,53.21,52.99,52.93,52.96,52.97,52.88,52.64,52.53,52.58,52.68,52.83,53.56,55.54,57.98,60.23,61.36,62.10,62.40,62.49,62.60,62.61,62.60,62.60,62.59,62.56,62.55,62.48,62.38,62.28,62.22,62.22,62.23,62.25,62.26,62.26,62.26,62.27,62.27,62.25,62.23,62.20,62.20,62.21,62.23,62.21,62.16,62.11,62.12,62.16,62.20,62.20,62.20,62.22,62.25,62.27,62.06,61.77,61.65,61.72,61.73,61.70,61.62,61.55,61.52,61.42,60.44,59.49,59.34,61.19,61.58,61.69,61.75,61.74,61.72,61.72,61.72,61.70,61.70,61.68,61.67,61.67,61.67,61.67,61.66,61.66,61.66,61.66,61.67,61.69,61.72,61.69,61.66,61.64,61.62
55.28,55.36,55.42,55.40,55.38,55.39,55.39,55.41,55.45,55.48,55.47,55.55,55.65,55.72,55.72,55.73,55.76,55.75,55.71,55.66,55.65,55.67,55.69,55.68,55.69,55.69,55.69,55.69,55.75,55.56,55.22,54.88,54.82,54.84,54.84,54.81,54.77,54.78,54.67,54.55,54.49,54.61,54.76,54.91,55.03,55.07,55.09,55.07,55.03,54.98,54.97,54.95,54.90,54.84,54.76,54.76,54.79,54.79,54.73,54.66,54.62,54.63,54.66,54.68,54.65,54.65,54.66,54.64,54.57,54.46,54.35,54.26,54.23,54.18,54.14,54.13,54.20,54.25,54.24,54.24,54.33,54.33,54.32,54.30,54.28,54.23,54.21,54.23,54.27,54.28,54.19,54.19,54.23,54.20,54.14,54.12,54.12,54.12,54.12,54.12,54.11,54.10,54.10,54.10,54.11,54.14,54.18,54.21,54.25,54.24,54.19,54.13,54.12,54.12,54.12,54.12,54.13,54.17,54.18,54.16,54.15,54.15,54.13,54.09,54.06,54.09,54.11,54.11,54.11,54.10,54.11,54.12,54.12,54.12,54.10,54.13,54.14,54.10,54.15,54.19,54.23,54.26,54.26,54.22,54.19,54.18,54.18,54.22,54.16,54.09,54.09,54.16,54.25,54.30,54.28,54.22,54.16,54.15,54.14,54.11,54.08,53.88,53.58,53.24,52.98,52.93,52.94,52.93,52.82,52.69,52.59,52.56,52.65,53.01,53.85,55.50,57.76,59.87,61.29,61.92,62.21,62.61,62.63,62.62,62.59,62.54,62.50,62.47,62.37,62.22,62.10,62.04,62.05,62.10,62.14,62.18,62.19,62.20,62.22,62.22,62.21,62.21,62.20,62.20,62.20,62.19,62.17,62.14,62.11,62.14,62.17,62.20,62.20,62.20,62.22,62.25,62.26,62.03,61.75,61.66,61.76,61.75,61.71,61.66,61.59,61.50,61.42,61.17,60.92,60.84,61.27,61.48,61.62,61.70,61.72,61.74,61.73,61.72,61.70,61.70,61.70,61.69,61.69,61.66,61.64,61.64,61.64,61.64,61.64,61.65,61.68,61.72,61.71,61.70,61.67,61.64
55.28,55.33,55.35,55.37,55.38,55.39,55.35,55.38,55.45,55.50,55.45,55.48,55.58,55.69,55.76,55.80,55.81,55.80,55.76,55.70,55.67,55.66,55.69,55.72,55.74,55.76,55.77,55.78,55.74,55.47,55.13,54.85,54.81,54.81,54.81,54.82,54.81,54.81,54.72,54.61,54.54,54.59,54.74,54.89,55.02,55.06,55.06,55.04,55.01,54.99,54.99,54.94,54.87,54.78,54.70,54.71,54.75,54.78,54.75,54.65,54.60,54.60,54.64,54.67,54.62,54.58,54.55,54.49,54.42,54.34,54.26,54.18,54.16,54.14,54.13,54.13,54.22,54.26,54.26,54.26,54.30,54.29,54.28,54.27,54.27,54.21,54.19,54.22,54.28,54.28,54.17,54.16,54.18,54.16,54.12,54.10,54.10,54.10,54.10,54.11,54.11,54.11,54.11,54.12,54.11,54.12,54.16,54.18,54.21,54.19,54.14,54.12,54.12,54.12,54.11,54.10,54.10,54.14,54.16,54.15,54.16,54.21,54.18,54.11,54.11,54.14,54.15,54.15,54.15,54.11,54.13,54.15,54.15,54.15,54.13,54.13,54.13,54.10,54.18,54.22,54.25,54.28,54.30,54.27,54.23,54.20,54.20,54.23,54.16,54.09,54.10,54.21,54.27,54.30,54.27,54.20,54.16,54.17,54.20,54.20,54.18,54.07,53.87,53.60,53.27,53.07,52.96,52.92,52.93,52.86,52.74,52.63,52.61,52.75,53.10,54.05,55.66,57.78,59.75,60.98,61.71,62.31,62.53,62.62,62.62,62.55,62.46,62.39,62.25,62.09,62.02,61.96,61.96,61.99,62.03,62.07,62.09,62.13,62.16,62.15,62.17,62.19,62.20,62.20,62.19,62.15,62.13,62.12,62.10,62.13,62.17,62.20,62.20,62.20,62.21,62.23,62.21,61.97,61.70,61.65,61.78,61.80,61.75,61.72,61.67,61.56,61.47,61.41,61.34,61.26,61.26,61.36,61.50,61.64,61.76,61.76,61.74,61.72,61.70,61.69,61.70,61.72,61.71,61.67,61.66,61.66,61.66,61.65,61.63,61.62,61.64,61.70,61.71,61.69,61.67,61.64
55.29,55.27,55.25,55.31,55.38,55.39,55.32,55.38,55.48,55.54,55.46,55.43,55.51,55.66,55.82,55.88,55.87,55.83,55.80,55.76,55.70,55.66,55.68,55.75,55.80,55.84,55.87,55.88,55.69,55.31,54.99,54.80,54.80,54.80,54.80,54.80,54.80,54.84,54.85,54.83,54.78,54.70,54.76,54.85,54.94,55.00,55.01,54.99,54.98,54.97,54.97,54.92,54.83,54.75,54.72,54.72,54.75,54.77,54.76,54.62,54.56,54.56,54.59,54.63,54.57,54.49,54.41,54.32,54.24,54.21,54.18,54.13,54.10,54.13,54.14,54.13,54.21,54.24,54.25,54.25,54.24,54.23,54.23,54.23,54.23,54.18,54.17,54.21,54.26,54.24,54.16,54.12,54.10,54.10,54.10,54.10,54.10,54.10,54.10,54.12,54.12,54.12,54.13,54.14,54.13,54.12,54.13,54.15,54.16,54.12,54.08,54.13,54.14,54.14,54.13,54.10,54.10,54.13,54.13,54.11,54.14,54.30,54.26,54.14,54.19,54.20,54.20,54.20,54.19,54.11,54.16,54.20,54.20,54.20,54.17,54.13,54.10,54.10,54.18,54.20,54.22,54.25,54.29,54.30,54.25,54.20,54.20,54.20,54.15,54.09,54.08,54.23,54.28,54.30,54.27,54.20,54.13,54.15,54.20,54.20,54.19,54.16,54.11,54.00,53.67,53.29,53.01,52.89,52.99,53.02,52.93,52.78,52.63,52.63,52.81,53.14,53.85,55.48,57.83,59.70,61.00,61.78,62.31,62.57,62.63,62.56,62.43,62.29,62.13,61.99,61.98,61.91,61.90,61.90,61.92,61.96,61.99,62.05,62.10,62.09,62.13,62.18,62.20,62.20,62.18,62.13,62.10,62.09,62.09,62.10,62.14,62.19,62.19,62.19,62.20,62.19,62.15,61.89,61.64,61.62,61.78,61.84,61.80,61.78,61.76,61.68,61.56,61.43,61.30,61.19,61.20,61.23,61.36,61.56,61.78,61.75,61.74,61.72,61.71,61.67,61.71,61.73,61.73,61.69,61.69,61.69,61.69,61.69,61.63,61.59,61.60,61.66,61.69,61.67,61.65,61.65
55.31,55.29,55.28,55.28,55.30,55.32,55.33,55.40,55.49,55.54,55.43,55.36,55.40,55.53,55.72,55.82,55.83,55.81,55.80,55.77,55.73,55.71,55.73,55.79,55.85,55.88,55.89,55.86,55.64,55.27,54.96,54.80,54.80,54.80,54.80,54.80,54.80,54.84,54.85,54.82,54.75,54.70,54.72,54.76,54.81,54.89,54.95,54.96,54.94,54.90,54.90,54.89,54.85,54.81,54.79,54.79,54.78,54.76,54.71,54.58,54.51,54.49,54.51,54.51,54.44,54.36,54.28,54.24,54.20,54.18,54.15,54.10,54.09,54.10,54.11,54.12,54.18,54.17,54.18,54.19,54.17,54.15,54.14,54.14,54.14,54.13,54.12,54.14,54.15,54.15,54.14,54.14,54.13,54.11,54.13,54.12,54.12,54.14,54.14,54.16,54.16,54.16,54.17,54.18,54.16,54.15,54.14,54.13,54.12,54.10,54.10,54.20,54.19,54.16,54.13,54.10,54.10,54.11,54.11,54.11,54.17,54.33,54.29,54.17,54.20,54.20,54.20,54.20,54.19,54.12,54.17,54.20,54.20,54.20,54.19,54.14,54.10,54.10,54.18,54.20,54.21,54.22,54.25,54.25,54.25,54.24,54.20,54.20,54.15,54.09,54.09,54.26,54.29,54.30,54.27,54.20,54.16,54.15,54.17,54.20,54.19,54.15,54.13,54.12,54.00,53.75,53.29,52.89,52.94,53.04,52.99,52.83,52.64,52.64,52.67,52.83,53.21,54.00,55.41,57.25,59.06,60.41,61.55,62.14,62.38,62.40,62.29,62.15,62.04,61.97,61.92,61.87,61.87,61.88,61.88,61.96,61.95,61.96,61.99,62.01,62.13,62.19,62.20,62.20,62.18,62.12,62.07,62.04,62.04,62.05,62.09,62.13,62.12,62.10,62.12,62.12,62.04,61.76,61.52,61.47,61.60,61.72,61.80,61.84,61.85,61.82,61.76,61.65,61.48,61.27,61.18,61.18,61.19,61.20,61.28,61.49,61.65,61.73,61.70,61.69,61.68,61.67,61.65,61.66,61.68,61.70,61.71,61.73,61.71,61.66,61.63,61.62,61.61,61.60,61.62,61.65
55.37,55.34,55.31,55.29,55.28,55.31,55.37,55.44,55.50,55.52,55.41,55.31,55.32,55.43,55.59,55.65,55.65,55.66,55.70,55.73,55.74,55.73,55.74,55.81,55.87,55.89,55.88,55.82,55.53,55.16,54.90,54.80,54.80,54.80,54.80,54.80,54.80,54.83,54.83,54.80,54.74,54.70,54.69,54.71,54.76,54.86,54.94,54.96,54.94,54.89,54.87,54.86,54.85,54.82,54.81,54.82,54.79,54.74,54.69,54.56,54.47,54.42,54.41,54.39,54.33,54.26,54.20,54.18,54.16,54.14,54.12,54.08,54.08,54.09,54.11,54.12,54.16,54.13,54.15,54.18,54.15,54.13,54.12,54.13,54.14,54.15,54.13,54.12,54.12,54.12,54.15,54.17,54.16,54.14,54.16,54.15,54.15,54.17,54.17,54.19,54.19,54.18,54.19,54.20,54.19,54.16,54.13,54.11,54.10,54.10,54.13,54.23,54.21,54.17,54.12,54.10,54.10,54.10,54.10,54.11,54.18,54.33,54.31,54.20,54.20,54.20,54.20,54.20,54.19,54.12,54.17,54.20,54.20,54.20,54.20,54.15,54.10,54.10,54.18,54.20,54.20,54.20,54.22,54.22,54.23,54.24,54.20,54.20,54.13,54.08,54.10,54.25,54.29,54.30,54.27,54.20,54.18,54.15,54.13,54.17,54.17,54.15,54.17,54.22,54.20,54.06,53.58,53.04,52.89,52.98,52.97,52.88,52.75,52.76,52.72,52.74,52.86,53.17,53.84,55.18,56.94,58.78,60.46,61.49,62.00,62.12,62.11,62.04,62.00,61.96,61.89,61.86,61.87,61.88,61.87,61.94,61.92,61.91,61.92,61.96,62.08,62.15,62.16,62.17,62.16,62.11,62.06,62.02,62.01,62.01,62.02,62.04,62.01,61.98,62.01,62.00,61.90,61.61,61.39,61.33,61.44,61.58,61.71,61.81,61.88,61.90,61.88,61.80,61.66,61.48,61.33,61.23,61.12,61.01,61.00,61.24,61.46,61.60,61.62,61.65,61.64,61.62,61.59,61.60,61.64,61.67,61.69,61.74,61.75,61.71,61.67,61.65,61.62,61.61,61.62,61.63
55.49,55.41,55.35,55.33,55.34,55.39,55.45,55.48,55.50,55.48,55.41,55.29,55.28,55.34,55.42,55.37,55.34,55.38,55.51,55.66,55.71,55.70,55.71,55.81,55.86,55.87,55.84,55.74,55.34,55.00,54.82,54.80,54.80,54.80,54.80,54.80,54.80,54.82,54.80,54.76,54.72,54.70,54.68,54.70,54.79,54.91,54.98,55.00,54.98,54.94,54.87,54.84,54.81,54.79,54.80,54.81,54.78,54.73,54.70,54.55,54.43,54.34,54.29,54.28,54.25,54.20,54.15,54.13,54.12,54.11,54.10,54.08,54.09,54.10,54.12,54.15,54.14,54.12,54.17,54.22,54.20,54.18,54.18,54.19,54.23,54.25,54.18,54.15,54.16,54.17,54.19,54.20,54.19,54.19,54.19,54.19,54.19,54.20,54.20,54.20,54.20,54.20,54.20,54.20,54.20,54.17,54.12,54.10,54.10,54.13,54.17,54.21,54.20,54.16,54.11,54.10,54.10,54.10,54.10,54.11,54.18,54.32,54.31,54.21,54.20,54.20,54.20,54.20,54.19,54.12,54.16,54.19,54.20,54.20,54.20,54.15,54.10,54.10,54.18,54.20,54.20,54.20,54.20,54.20,54.20,54.20,54.20,54.20,54.10,54.04,54.11,54.20,54.27,54.30,54.27,54.20,54.19,54.15,54.10,54.11,54.11,54.17,54.24,54.29,54.29,54.24,53.88,53.33,52.82,52.82,52.87,52.93,52.98,52.98,52.95,52.87,52.81,53.01,53.14,53.51,54.62,56.87,59.03,60.60,61.46,61.71,61.89,61.97,61.98,61.96,61.90,61.90,61.90,61.91,61.91,61.90,61.90,61.90,61.90,61.91,61.99,62.05,62.09,62.11,62.14,62.12,62.08,62.05,62.00,61.98,61.94,61.90,61.87,61.85,61.87,61.85,61.72,61.43,61.26,61.21,61.28,61.41,61.55,61.70,61.83,61.91,61.91,61.89,61.87,61.81,61.66,61.40,61.16,61.00,60.94,61.00,61.15,61.33,61.47,61.54,61.58,61.58,61.55,61.52,61.55,61.60,61.66,61.72,61.74,61.74,61.73,61.73,61.74,61.73,61.67,61.58
55.54,55.47,55.42,55.38,55.37,55.39,55.39,55.42,55.46,55.48,55.43,55.31,55.25,55.26,55.32,55.23,55.12,55.09,55.17,55.27,55.30,55.29,55.27,55.28,55.36,55.44,55.47,55.37,55.08,54.89,54.81,54.80,54.80,54.80,54.80,54.80,54.80,54.78,54.76,54.73,54.70,54.68,54.64,54.67,54.78,54.92,54.96,54.97,54.97,54.94,54.87,54.83,54.79,54.76,54.74,54.75,54.72,54.66,54.58,54.45,54.37,54.31,54.30,54.35,54.44,54.38,54.23,54.12,54.13,54.13,54.10,54.05,54.07,54.14,54.18,54.19,54.14,54.14,54.18,54.21,54.20,54.19,54.21,54.25,54.27,54.25,54.20,54.18,54.18,54.19,54.20,54.20,54.20,54.20,54.20,54.20,54.20,54.20,54.20,54.20,54.20,54.20,54.20,54.20,54.20,54.19,54.16,54.12,54.10,54.14,54.21,54.20,54.17,54.13,54.12,54.15,54.16,54.16,54.16,54.15,54.15,54.30,54.30,54.22,54.20,54.20,54.20,54.20,54.20,54.17,54.18,54.20,54.20,54.20,54.20,54.15,54.10,54.10,54.18,54.20,54.20,54.20,54.20,54.20,54.20,54.20,54.20,54.20,54.13,54.08,54.12,54.23,54.28,54.28,54.24,54.20,54.20,54.15,54.11,54.12,54.18,54.22,54.25,54.27,54.26,54.22,53.92,53.45,53.04,52.87,52.84,52.92,53.03,53.00,52.98,52.94,52.87,52.87,52.99,53.15,53.67,54.90,57.00,58.92,60.36,61.20,61.66,61.86,61.93,61.93,61.88,61.90,61.93,61.95,61.95,61.91,61.91,61.89,61.86,61.88,61.92,61.95,61.97,62.00,62.03,62.03,62.01,61.99,61.96,61.96,61.92,61.86,61.84,61.82,61.80,61.74,61.60,61.34,61.16,61.14,61.26,61.45,61.60,61.73,61.86,61.95,61.97,61.95,61.92,61.88,61.79,61.59,61.34,61.09,60.93,60.91,60.95,61.03,61.12,61.28,61.44,61.54,61.56,61.57,61.60,61.63,61.65,61.68,61.70,61.71,61.72,61.72,61.75,61.75,61.72,61.65
55.56,55.51,55.47,55.43,55.40,55.39,55.35,55.37,55.42,55.47,55.43,55.32,55.21,55.18,55.23,55.13,54.97,54.88,54.91,54.95,54.96,54.95,54.91,54.87,54.93,55.04,55.09,55.02,54.87,54.81,54.80,54.80,54.80,54.80,54.80,54.80,54.80,54.76,54.72,54.70,54.69,54.66,54.63,54.66,54.75,54.87,54.90,54.92,54.93,54.92,54.85,54.81,54.78,54.73,54.68,54.67,54.63,54.56,54.45,54.38,54.35,54.37,54.42,54.51,54.65,54.56,54.30,54.11,54.14,54.14,54.10,54.05,54.09,54.17,54.21,54.20,54.15,54.17,54.19,54.20,54.20,54.20,54.23,54.26,54.27,54.23,54.21,54.20,54.20,54.20,54.20,54.20,54.20,54.20,54.20,54.20,54.20,54.20,54.20,54.20,54.20,54.20,54.20,54.20,54.20,54.20,54.19,54.13,54.09,54.13,54.21,54.19,54.15,54.13,54.15,54.19,54.20,54.20,54.20,54.19,54.12,54.29,54.30,54.22,54.21,54.20,54.20,54.21,54.22,54.21,54.20,54.20,54.20,54.20,54.20,54.15,54.11,54.10,54.18,54.20,54.20,54.20,54.20,54.20,54.20,54.20,54.20,54.21,54.17,54.13,54.12,54.24,54.28,54.26,54.22,54.20,54.20,54.17,54.14,54.15,54.21,54.21,54.19,54.19,54.16,54.14,53.88,53.50,53.23,52.94,52.84,52.89,53.02,52.98,52.99,52.98,52.90,52.69,52.87,52.97,53.10,53.45,55.20,57.14,58.90,60.29,61.19,61.64,61.86,61.91,61.87,61.91,61.94,61.97,61.97,61.92,61.91,61.90,61.86,61.87,61.89,61.89,61.89,61.92,61.95,61.96,61.95,61.94,61.93,61.95,61.91,61.85,61.84,61.80,61.75,61.67,61.52,61.28,61.09,61.08,61.24,61.50,61.66,61.79,61.91,62.01,62.04,62.02,61.98,61.93,61.88,61.76,61.53,61.24,61.01,60.90,60.84,60.81,60.84,61.01,61.26,61.45,61.57,61.63,61.66,61.67,61.67,61.67,61.67,61.69,61.71,61.72,61.75,61.76,61.74,61.70
55.51,55.50,55.47,55.44,55.44,55.44,55.37,55.35,55.38,55.41,55.38,55.27,55.17,55.13,55.16,55.10,54.98,54.89,54.87,54.87,54.89,54.89,54.86,54.82,54.81,54.80,54.79,54.77,54.76,54.78,54.80,54.80,54.80,54.80,54.80,54.79,54.79,54.75,54.71,54.69,54.69,54.68,54.68,54.68,54.70,54.73,54.77,54.82,54.85,54.84,54.81,54.80,54.77,54.71,54.60,54.54,54.47,54.40,54.35,54.37,54.46,54.59,54.75,54.86,54.86,54.65,54.33,54.12,54.11,54.11,54.10,54.10,54.18,54.18,54.16,54.15,54.18,54.20,54.20,54.20,54.20,54.20,54.21,54.21,54.22,54.21,54.20,54.20,54.20,54.20,54.20,54.20,54.20,54.20,54.20,54.20,54.20,54.20,54.20,54.20,54.20,54.20,54.20,54.20,54.20,54.20,54.19,54.11,54.05,54.06,54.12,54.14,54.17,54.18,54.19,54.20,54.20,54.20,54.20,54.19,54.12,54.29,54.31,54.24,54.23,54.21,54.20,54.22,54.27,54.22,54.20,54.20,54.20,54.20,54.20,54.17,54.12,54.10,54.18,54.20,54.20,54.20,54.20,54.20,54.20,54.20,54.20,54.23,54.21,54.16,54.11,54.17,54.23,54.25,54.24,54.20,54.20,54.19,54.18,54.18,54.11,54.04,54.01,53.99,53.93,53.92,53.72,53.43,53.29,53.03,52.88,52.84,52.89,52.92,52.99,52.98,52.81,52.41,52.64,52.87,53.05,53.22,54.09,55.32,56.80,58.46,60.20,61.20,61.73,61.92,61.88,61.93,61.95,61.95,61.94,61.91,61.93,61.94,61.94,61.94,61.94,61.93,61.92,61.94,61.93,61.95,61.95,61.94,61.93,61.95,61.92,61.87,61.86,61.80,61.72,61.63,61.50,61.27,61.08,61.04,61.20,61.52,61.69,61.84,61.99,62.12,62.14,62.12,62.08,62.03,61.97,61.85,61.69,61.49,61.26,61.05,60.91,60.81,60.73,60.78,60.99,61.26,61.52,61.66,61.71,61.72,61.72,61.72,61.69,61.71,61.74,61.76,61.75,61.73,61.70,61.67
55.52,55.53,55.48,55.43,55.40,55.40,55.36,55.33,55.34,55.37,55.37,55.29,55.20,55.13,55.12,55.09,55.00,54.92,54.87,54.84,54.85,54.84,54.82,54.80,54.78,54.76,54.74,54.72,54.72,54.74,54.77,54.79,54.81,54.81,54.80,54.78,54.75,54.71,54.68,54.67,54.67,54.66,54.65,54.66,54.67,54.68,54.70,54.73,54.76,54.77,54.77,54.78,54.75,54.67,54.52,54.43,54.39,54.39,54.44,54.54,54.67,54.80,54.91,54.96,54.95,54.73,54.40,54.15,54.12,54.12,54.12,54.15,54.20,54.18,54.16,54.17,54.21,54.22,54.21,54.20,54.20,54.21,54.21,54.20,54.20,54.20,54.20,54.20,54.20,54.20,54.20,54.20,54.20,54.20,54.19,54.19,54.20,54.20,54.20,54.20,54.20,54.20,54.20,54.20,54.20,54.19,54.17,54.08,54.03,54.04,54.09,54.15,54.18,54.20,54.20,54.20,54.20,54.20,54.20,54.19,54.12,54.27,54.31,54.27,54.27,54.24,54.23,54.25,54.29,54.22,54.22,54.22,54.20,54.20,54.20,54.18,54.15,54.10,54.18,54.20,54.20,54.20,54.20,54.20,54.20,54.20,54.20,54.25,54.23,54.17,54.10,54.13,54.21,54.26,54.25,54.23,54.23,54.23,54.23,54.21,54.04,53.90,53.81,53.77,53.70,53.69,53.55,53.37,53.30,53.11,52.91,52.80,52.81,52.93,53.01,52.94,52.67,52.19,52.46,52.74,52.95,53.08,53.45,54.09,55.03,56.34,58.30,59.87,61.03,61.72,61.87,61.95,61.97,61.95,61.92,61.91,61.92,61.95,61.98,61.98,61.97,61.97,61.96,61.95,61.93,61.95,61.95,61.93,61.92,61.93,61.91,61.86,61.84,61.80,61.74,61.65,61.51,61.31,61.08,60.99,61.12,61.46,61.70,61.90,62.06,62.23,62.20,62.20,62.19,62.17,62.12,61.99,61.84,61.68,61.49,61.36,61.19,60.96,60.70,60.69,60.79,60.97,61.21,61.52,61.70,61.75,61.74,61.74,61.74,61.75,61.77,61.78,61.79,61.78,61.74,61.69
55.53,55.55,55.50,55.42,55.35,55.33,55.34,55.32,55.32,55.35,55.38,55.33,55.24,55.15,55.11,55.07,55.02,54.96,54.88,54.84,54.81,54.80,54.80,54.80,54.80,54.80,54.78,54.74,54.71,54.72,54.75,54.80,54.83,54.84,54.81,54.76,54.70,54.66,54.64,54.64,54.65,54.63,54.61,54.62,54.65,54.67,54.65,54.66,54.68,54.70,54.73,54.74,54.71,54.61,54.45,54.36,54.36,54.44,54.59,54.77,54.90,54.98,55.00,54.97,54.97,54.79,54.48,54.18,54.14,54.14,54.16,54.18,54.20,54.18,54.18,54.22,54.24,54.23,54.21,54.20,54.20,54.22,54.22,54.21,54.20,54.20,54.20,54.20,54.20,54.20,54.20,54.20,54.20,54.20,54.16,54.17,54.19,54.20,54.20,54.20,54.20,54.20,54.20,54.20,54.20,54.19,54.15,54.05,54.01,54.04,54.11,54.18,54.20,54.20,54.20,54.20,54.20,54.20,54.20,54.19,54.12,54.25,54.31,54.30,54.30,54.27,54.26,54.27,54.29,54.22,54.24,54.24,54.20,54.20,54.20,54.20,54.17,54.10,54.18,54.20,54.20,54.20,54.20,54.20,54.20,54.20,54.21,54.27,54.24,54.17,54.10,54.11,54.21,54.27,54.27,54.27,54.27,54.27,54.26,54.23,53.99,53.76,53.62,53.56,53.48,53.47,53.39,53.30,53.28,53.17,52.95,52.77,52.76,52.95,53.02,52.89,52.55,52.04,52.28,52.58,52.83,52.98,53.05,53.21,53.55,54.27,56.10,58.15,60.00,61.33,61.81,61.95,61.98,61.96,61.90,61.91,61.92,61.95,62.00,62.00,61.99,61.99,61.99,61.96,61.94,61.96,61.95,61.91,61.90,61.90,61.89,61.86,61.81,61.80,61.77,61.69,61.56,61.37,61.08,60.93,61.01,61.35,61.65,61.89,62.09,62.29,62.25,62.27,62.31,62.32,62.28,62.14,61.99,61.85,61.70,61.70,61.53,61.19,60.75,60.68,60.64,60.67,60.82,61.26,61.60,61.74,61.74,61.75,61.79,61.80,61.80,61.80,61.84,61.84,61.80,61.72
55.50,55.51,55.50,55.42,55.34,55.31,55.31,55.31,55.33,55.35,55.35,55.30,55.23,55.15,55.08,55.04,55.02,54.96,54.86,54.82,54.80,54.80,54.80,54.80,54.79,54.76,54.73,54.72,54.72,54.76,54.81,54.86,54.88,54.88,54.86,54.80,54.70,54.64,54.63,54.64,54.65,54.63,54.61,54.61,54.63,54.65,54.63,54.63,54.64,54.66,54.67,54.66,54.61,54.52,54.39,54.42,54.51,54.63,54.76,54.87,54.95,54.99,54.99,54.95,54.94,54.78,54.49,54.20,54.16,54.17,54.19,54.19,54.20,54.21,54.23,54.23,54.22,54.21,54.20,54.20,54.20,54.22,54.22,54.21,54.20,54.20,54.20,54.20,54.20,54.20,54.20,54.20,54.20,54.20,54.14,54.14,54.16,54.19,54.20,54.20,54.20,54.20,54.20,54.20,54.20,54.19,54.16,54.05,54.04,54.09,54.16,54.23,54.21,54.20,54.20,54.20,54.20,54.20,54.20,54.19,54.12,54.23,54.32,54.34,54.31,54.29,54.29,54.29,54.29,54.22,54.26,54.25,54.21,54.20,54.20,54.20,54.17,54.10,54.18,54.20,54.20,54.20,54.20,54.24,54.23,54.21,54.26,54.24,54.22,54.17,54.11,54.15,54.24,54.29,54.29,54.29,54.29,54.29,54.27,54.19,53.90,53.67,53.53,53.50,53.43,53.41,53.30,53.19,53.23,53.17,52.96,52.79,52.80,52.91,52.94,52.89,52.71,52.35,52.07,52.20,52.54,52.82,52.99,53.11,53.24,53.49,54.28,56.18,58.26,60.13,61.41,61.77,61.93,61.96,61.92,61.95,61.94,61.96,62.00,61.98,61.95,61.94,61.93,61.93,61.93,61.95,61.94,61.88,61.85,61.89,61.89,61.86,61.81,61.81,61.79,61.76,61.69,61.46,61.07,60.84,60.83,61.00,61.19,61.43,61.72,62.06,62.23,62.32,62.36,62.37,62.34,62.24,62.13,62.00,61.83,61.75,61.63,61.43,61.14,60.91,60.71,60.61,60.63,60.72,61.03,61.39,61.68,61.76,61.76,61.77,61.77,61.77,61.77,61.79,61.77,61.71
55.46,55.46,55.45,55.38,55.32,55.30,55.30,55.31,55.33,55.34,55.34,55.28,55.22,55.14,55.06,55.00,54.99,54.95,54.86,54.81,54.80,54.80,54.80,54.80,54.79,54.76,54.73,54.71,54.73,54.79,54.84,54.89,54.90,54.90,54.88,54.81,54.70,54.63,54.62,54.63,54.65,54.64,54.61,54.61,54.62,54.63,54.62,54.61,54.62,54.63,54.63,54.59,54.53,54.46,54.42,54.53,54.66,54.77,54.85,54.93,54.96,54.97,54.97,54.95,54.93,54.77,54.48,54.20,54.17,54.18,54.20,54.20,54.22,54.26,54.27,54.24,54.21,54.20,54.20,54.20,54.20,54.21,54.21,54.20,54.20,54.20,54.20,54.20,54.20,54.20,54.20,54.20,54.20,54.20,54.16,54.13,54.13,54.16,54.17,54.19,54.20,54.20,54.20,54.20,54.20,54.20,54.18,54.10,54.09,54.12,54.19,54.29,54.28,54.24,54.21,54.20,54.20,54.20,54.20,54.19,54.12,54.22,54.31,54.34,54.31,54.30,54.30,54.30,54.29,54.25,54.27,54.26,54.21,54.20,54.20,54.20,54.18,54.14,54.19,54.20,54.20,54.20,54.20,54.24,54.25,54.24,54.28,54.20,54.19,54.17,54.11,54.15,54.25,54.30,54.29,54.29,54.29,54.27,54.24,54.16,53.88,53.63,53.50,53.48,53.41,53.38,53.28,53.17,53.20,53.17,52.99,52.81,52.78,52.84,52.88,52.88,52.79,52.56,52.10,52.07,52.31,52.56,52.84,52.99,53.05,53.09,53.30,54.63,56.43,58.38,60.17,61.06,61.57,61.80,61.88,61.96,61.96,61.97,61.99,61.97,61.96,61.95,61.94,61.94,61.94,61.95,61.93,61.88,61.84,61.88,61.88,61.85,61.84,61.83,61.82,61.80,61.76,61.52,61.07,60.78,60.76,60.94,61.10,61.31,61.59,61.92,62.15,62.28,62.35,62.37,62.35,62.29,62.20,62.09,61.94,61.84,61.75,61.64,61.46,61.24,60.97,60.74,60.59,60.52,60.66,60.98,61.36,61.62,61.72,61.75,61.75,61.74,61.73,61.74,61.73,61.68
55.42,55.39,55.35,55.30,55.28,55.30,55.30,55.31,55.32,55.34,55.35,55.29,55.21,55.13,55.05,54.97,54.95,54.93,54.89,54.81,54.80,54.80,54.80,54.80,54.79,54.78,54.76,54.73,54.75,54.81,54.87,54.90,54.90,54.90,54.88,54.81,54.70,54.62,54.60,54.62,54.65,54.65,54.62,54.60,54.60,54.60,54.60,54.60,54.60,54.60,54.60,54.54,54.47,54.43,54.52,54.70,54.82,54.88,54.89,54.94,54.95,54.94,54.92,54.95,54.94,54.76,54.46,54.19,54.17,54.18,54.20,54.20,54.25,54.32,54.32,54.25,54.20,54.20,54.20,54.20,54.20,54.20,54.20,54.20,54.20,54.20,54.20,54.20,54.20,54.20,54.20,54.20,54.20,54.20,54.20,54.15,54.11,54.10,54.10,54.16,54.19,54.20,54.20,54.20,54.20,54.20,54.20,54.19,54.14,54.14,54.21,54.36,54.39,54.31,54.23,54.20,54.20,54.20,54.20,54.19,54.12,54.22,54.29,54.30,54.30,54.30,54.30,54.30,54.30,54.30,54.30,54.26,54.21,54.20,54.20,54.20,54.20,54.20,54.20,54.20,54.20,54.20,54.21,54.21,54.25,54.29,54.27,54.15,54.17,54.17,54.10,54.10,54.23,54.29,54.28,54.28,54.26,54.22,54.18,54.14,53.91,53.65,53.50,53.48,53.41,53.39,53.33,53.24,53.20,53.18,53.02,52.83,52.70,52.76,52.85,52.86,52.79,52.69,52.36,52.17,52.14,52.21,52.61,52.85,52.97,53.01,53.07,53.46,54.51,56.14,58.15,59.89,60.94,61.50,61.78,61.94,61.98,61.98,61.99,61.97,62.01,62.02,62.01,61.99,61.96,61.94,61.92,61.89,61.86,61.88,61.86,61.85,61.90,61.87,61.84,61.81,61.80,61.57,61.08,60.77,60.79,61.14,61.34,61.50,61.67,61.86,62.03,62.18,62.28,62.32,62.31,62.28,62.21,62.11,62.02,61.97,61.91,61.83,61.73,61.66,61.39,61.04,60.71,60.62,60.46,60.51,60.81,61.34,61.65,61.75,61.75,61.73,61.71,61.70,61.68,61.64
55.45,55.41,55.32,55.26,55.23,55.25,55.25,55.25,55.26,55.27,55.28,55.27,55.21,55.13,55.05,54.99,54.98,54.97,54.95,54.92,54.90,54.87,54.83,54.80,54.78,54.78,54.79,54.80,54.78,54.82,54.87,54.90,54.90,54.88,54.83,54.76,54.67,54.61,54.60,54.61,54.62,54.62,54.63,54.63,54.62,54.60,54.60,54.60,54.60,54.60,54.60,54.53,54.47,54.48,54.64,54.79,54.86,54.86,54.87,54.91,54.94,54.94,54.92,54.92,54.92,54.78,54.52,54.23,54.18,54.18,54.22,54.25,54.33,54.33,54.28,54.22,54.20,54.20,54.20,54.20,54.20,54.20,54.20,54.20,54.20,54.20,54.20,54.20,54.20,54.20,54.20,54.20,54.20,54.20,54.20,54.15,54.11,54.10,54.10,54.12,54.14,54.15,54.18,54.19,54.20,54.20,54.20,54.17,54.13,54.12,54.17,54.33,54.38,54.36,54.32,54.28,54.26,54.24,54.22,54.20,54.12,54.19,54.26,54.30,54.30,54.30,54.30,54.30,54.30,54.30,54.30,54.26,54.21,54.20,54.20,54.20,54.20,54.20,54.20,54.20,54.21,54.22,54.24,54.23,54.24,54.24,54.17,54.15,54.19,54.20,54.10,54.10,54.20,54.24,54.20,54.16,54.05,54.01,54.00,53.93,53.75,53.57,53.48,53.48,53.41,53.37,53.29,53.20,53.20,53.19,53.06,52.87,52.66,52.65,52.63,52.70,52.78,52.64,52.48,52.38,52.30,52.19,52.29,52.54,52.82,53.01,53.07,53.31,53.90,54.82,55.97,57.45,58.89,60.14,61.07,61.52,61.82,61.97,62.00,62.02,62.04,62.05,62.03,61.96,61.89,61.89,61.91,61.94,61.91,61.92,61.90,61.86,61.90,61.88,61.84,61.81,61.80,61.56,61.03,60.73,60.85,61.41,61.64,61.80,61.94,62.03,62.13,62.23,62.29,62.29,62.27,62.26,62.23,62.17,62.13,62.07,62.01,61.95,61.86,61.75,61.56,61.34,61.15,60.97,60.61,60.46,60.54,60.84,61.09,61.33,61.56,61.75,61.73,61.71,61.67,61.61
55.49,55.45,55.35,55.28,55.24,55.23,55.21,55.20,55.19,55.19,55.22,55.24,55.20,55.14,55.07,55.01,54.99,54.98,54.98,54.95,54.92,54.88,54.84,54.82,54.80,54.81,54.83,54.86,54.82,54.82,54.84,54.87,54.88,54.87,54.81,54.74,54.66,54.62,54.61,54.61,54.61,54.60,54.63,54.64,54.62,54.60,54.60,54.60,54.60,54.60,54.59,54.52,54.49,54.55,54.76,54.87,54.88,54.85,54.86,54.87,54.91,54.93,54.92,54.91,54.90,54.79,54.57,54.26,54.18,54.19,54.25,54.31,54.37,54.31,54.24,54.20,54.20,54.20,54.20,54.20,54.20,54.20,54.20,54.20,54.20,54.20,54.20,54.20,54.20,54.20,54.20,54.20,54.20,54.20,54.20,54.16,54.12,54.10,54.10,54.10,54.10,54.11,54.15,54.18,54.19,54.19,54.19,54.15,54.12,54.10,54.14,54.28,54.35,54.38,54.38,54.35,54.32,54.28,54.25,54.23,54.13,54.17,54.24,54.29,54.30,54.30,54.30,54.30,54.30,54.30,54.30,54.26,54.21,54.20,54.20,54.20,54.20,54.19,54.19,54.19,54.21,54.23,54.25,54.23,54.21,54.16,54.07,54.13,54.19,54.19,54.10,54.10,54.15,54.16,54.10,54.02,53.85,53.80,53.79,53.69,53.56,53.47,53.45,53.45,53.39,53.36,53.27,53.19,53.21,53.20,53.10,52.92,52.68,52.58,52.41,52.52,52.78,52.63,52.57,52.54,52.46,52.25,52.07,52.23,52.57,52.92,53.06,53.23,53.50,53.87,54.32,55.36,56.82,58.37,59.73,60.65,61.31,61.74,61.97,62.03,62.05,62.07,62.05,61.95,61.85,61.86,61.91,61.97,61.94,61.95,61.92,61.88,61.90,61.88,61.84,61.81,61.80,61.54,60.96,60.66,60.88,61.62,61.85,62.01,62.12,62.15,62.20,62.29,62.32,62.29,62.26,62.26,62.25,62.24,62.24,62.18,62.12,62.06,61.98,61.84,61.70,61.60,61.51,61.29,60.88,60.59,60.45,60.45,60.61,60.88,61.25,61.62,61.73,61.71,61.65,61.56
55.54,55.50,55.46,55.42,55.36,55.27,55.21,55.15,55.13,55.13,55.16,55.18,55.17,55.14,55.11,55.00,54.96,54.94,54.92,54.81,54.76,54.77,54.82,54.86,54.89,54.91,54.90,54.88,54.84,54.81,54.79,54.78,54.83,54.87,54.85,54.77,54.67,54.64,54.64,54.65,54.64,54.60,54.61,54.61,54.61,54.60,54.60,54.60,54.60,54.60,54.56,54.50,54.53,54.67,54.88,54.91,54.90,54.88,54.86,54.84,54.86,54.90,54.92,54.91,54.90,54.79,54.57,54.26,54.17,54.20,54.29,54.36,54.30,54.24,54.21,54.20,54.20,54.20,54.20,54.20,54.20,54.20,54.20,54.20,54.20,54.20,54.20,54.20,54.20,54.20,54.20,54.20,54.20,54.20,54.20,54.17,54.14,54.11,54.10,54.10,54.10,54.10,54.11,54.14,54.15,54.17,54.19,54.16,54.13,54.10,54.13,54.23,54.31,54.35,54.36,54.38,54.36,54.32,54.30,54.27,54.14,54.17,54.24,54.29,54.30,54.30,54.30,54.30,54.30,54.30,54.30,54.26,54.21,54.20,54.20,54.20,54.19,54.16,54.15,54.18,54.21,54.23,54.21,54.20,54.14,54.05,54.00,54.08,54.14,54.14,54.10,54.10,54.08,54.04,53.98,53.87,53.70,53.61,53.55,53.43,53.36,53.35,53.37,53.38,53.35,53.35,53.33,53.29,53.25,53.21,53.15,53.03,52.81,52.57,52.21,52.33,52.78,52.70,52.59,52.59,52.58,52.43,52.05,51.93,52.14,52.61,52.98,53.14,53.32,53.53,53.71,54.10,54.87,55.94,57.26,58.99,60.17,61.12,61.84,62.00,62.02,62.05,62.05,61.97,61.91,61.89,61.92,61.99,61.97,61.97,61.94,61.90,61.90,61.88,61.83,61.80,61.78,61.50,60.86,60.56,60.83,61.68,61.90,62.04,62.11,62.10,62.18,62.31,62.38,62.32,62.30,62.26,62.28,62.34,62.37,62.28,62.23,62.18,62.10,61.98,61.84,61.74,61.67,61.52,61.30,61.03,60.69,60.29,60.33,60.41,60.70,61.21,61.68,61.72,61.61,61.46
55.54,55.51,55.46,55.44,55.40,55.34,55.28,55.20,55.15,55.13,55.16,55.18,55.18,55.17,55.15,55.04,54.97,54.93,54.92,54.85,54.78,54.74,54.75,54.78,54.80,54.81,54.79,54.78,54.77,54.78,54.77,54.76,54.80,54.81,54.80,54.76,54.73,54.70,54.71,54.70,54.67,54.63,54.62,54.62,54.62,54.61,54.60,54.60,54.60,54.60,54.56,54.52,54.59,54.76,54.94,54.95,54.92,54.90,54.88,54.85,54.86,54.90,54.94,54.94,54.93,54.82,54.59,54.27,54.17,54.23,54.32,54.34,54.26,54.22,54.20,54.20,54.20,54.20,54.20,54.20,54.20,54.20,54.20,54.20,54.20,54.20,54.20,54.20,54.20,54.20,54.20,54.20,54.20,54.20,54.20,54.19,54.15,54.11,54.10,54.10,54.10,54.10,54.10,54.12,54.12,54.14,54.16,54.14,54.10,54.08,54.12,54.21,54.33,54.34,54.32,54.35,54.37,54.36,54.33,54.28,54.14,54.17,54.24,54.28,54.27,54.24,54.25,54.26,54.26,54.26,54.24,54.20,54.17,54.16,54.16,54.16,54.14,54.09,54.09,54.11,54.14,54.17,54.13,54.14,54.12,54.09,54.06,54.09,54.13,54.13,54.06,54.06,54.06,54.04,54.00,53.90,53.74,53.62,53.51,53.37,53.31,53.31,53.34,53.38,53.36,53.37,53.37,53.34,53.28,53.25,53.20,53.10,52.91,52.57,52.30,52.31,52.55,52.69,52.61,52.60,52.59,52.49,52.26,52.04,51.99,52.21,52.82,53.03,53.16,53.28,53.40,53.56,53.90,54.43,55.15,56.45,57.87,59.29,60.58,61.49,61.86,62.04,62.08,62.03,62.00,61.96,61.96,62.01,62.02,61.99,61.94,61.90,61.91,61.92,61.87,61.82,61.77,61.43,60.69,60.35,60.62,61.38,61.75,61.98,62.09,62.11,62.20,62.33,62.39,62.36,62.34,62.28,62.27,62.31,62.36,62.34,62.32,62.29,62.21,62.07,61.91,61.82,61.78,61.74,61.66,61.49,61.21,60.79,60.52,60.35,60.37,60.61,61.05,61.27,61.32,61.25
55.51,55.51,55.44,55.42,55.43,55.41,55.38,55.30,55.21,55.16,55.17,55.19,55.21,55.20,55.19,55.10,55.00,54.93,54.93,54.94,54.84,54.74,54.68,54.67,54.67,54.66,54.64,54.65,54.68,54.72,54.74,54.74,54.76,54.73,54.70,54.71,54.76,54.76,54.76,54.74,54.68,54.65,54.64,54.64,54.64,54.62,54.60,54.59,54.59,54.59,54.55,54.56,54.67,54.84,54.97,54.97,54.94,54.91,54.90,54.89,54.90,54.92,54.97,54.97,54.97,54.86,54.63,54.29,54.17,54.24,54.33,54.30,54.22,54.20,54.20,54.20,54.20,54.20,54.20,54.20,54.20,54.20,54.20,54.20,54.20,54.20,54.20,54.20,54.20,54.20,54.20,54.20,54.20,54.20,54.20,54.20,54.17,54.12,54.10,54.10,54.10,54.10,54.10,54.10,54.10,54.11,54.12,54.11,54.07,54.06,54.11,54.19,54.34,54.32,54.26,54.30,54.36,54.36,54.33,54.27,54.14,54.16,54.22,54.26,54.22,54.16,54.18,54.20,54.21,54.21,54.18,54.15,54.14,54.14,54.14,54.13,54.11,54.05,54.04,54.04,54.07,54.11,54.06,54.09,54.13,54.16,54.15,54.12,54.15,54.13,54.03,54.03,54.06,54.08,54.06,53.98,53.83,53.68,53.53,53.38,53.31,53.30,53.33,53.38,53.38,53.39,53.40,53.37,53.31,53.29,53.23,53.14,52.99,52.59,52.47,52.36,52.32,52.67,52.61,52.58,52.56,52.51,52.52,52.28,52.00,51.91,52.61,52.91,53.04,53.09,53.21,53.29,53.35,53.39,53.45,53.97,55.38,57.08,58.83,60.54,61.40,61.83,62.01,62.07,62.06,62.02,62.00,62.02,62.05,62.00,61.94,61.91,61.93,61.95,61.91,61.84,61.74,61.31,60.49,60.11,60.37,61.01,61.56,61.89,62.05,62.13,62.24,62.33,62.38,62.38,62.36,62.29,62.24,62.24,62.30,62.36,62.39,62.37,62.31,62.13,61.96,61.87,61.86,61.93,61.93,61.88,61.74,61.44,60.91,60.51,60.22,60.09,60.33,60.70,60.91,60.98
55.44,55.49,55.45,55.45,55.47,55.49,55.47,55.41,55.31,55.21,55.15,55.20,55.24,55.26,55.25,55.15,55.03,54.94,54.89,54.92,54.85,54.76,54.69,54.67,54.64,54.61,54.59,54.59,54.62,54.64,54.64,54.64,54.66,54.60,54.56,54.57,54.64,54.66,54.67,54.66,54.63,54.61,54.59,54.58,54.57,54.54,54.52,54.53,54.54,54.54,54.52,54.60,54.75,54.91,54.96,54.94,54.90,54.87,54.88,54.96,55.03,55.04,54.99,54.97,54.98,54.92,54.72,54.35,54.17,54.20,54.27,54.26,54.21,54.20,54.20,54.20,54.20,54.20,54.20,54.20,54.20,54.20,54.20,54.20,54.20,54.20,54.20,54.20,54.20,54.20,54.20,54.20,54.20,54.20,54.20,54.20,54.17,54.12,54.10,54.10,54.10,54.10,54.10,54.10,54.10,54.10,54.11,54.10,54.09,54.09,54.10,54.13,54.22,54.20,54.18,54.22,54.25,54.22,54.18,54.15,54.11,54.12,54.14,54.15,54.14,54.12,54.12,54.13,54.13,54.13,54.20,54.25,54.25,54.25,54.25,54.22,54.18,54.15,54.15,54.11,54.12,54.17,54.16,54.17,54.18,54.19,54.19,54.18,54.18,54.16,54.08,54.08,54.09,54.13,54.14,54.01,53.85,53.70,53.54,53.39,53.27,53.28,53.32,53.33,53.33,53.37,53.39,53.39,53.37,53.31,53.24,53.16,53.03,52.71,52.57,52.48,52.47,52.72,52.57,52.51,52.52,52.51,52.55,52.44,52.32,52.28,52.29,52.81,53.09,53.13,53.09,53.15,53.22,53.27,53.31,53.45,54.04,55.12,56.58,58.08,59.48,60.59,61.39,61.91,61.94,61.94,61.93,61.95,61.99,61.94,61.91,61.90,61.91,61.90,61.86,61.79,61.63,61.02,60.25,59.97,60.29,60.90,61.42,61.79,62.01,62.11,62.20,62.27,62.31,62.31,62.30,62.26,62.22,62.19,62.20,62.28,62.35,62.36,62.31,62.17,62.01,61.90,61.87,61.87,61.83,61.79,61.75,61.69,61.43,61.07,60.65,60.26,60.15,60.26,60.43,60.61
55.42,55.49,55.47,55.47,55.50,55.53,55.52,55.45,55.34,55.22,55.12,55.16,55.22,55.26,55.25,55.18,55.08,54.97,54.88,54.92,54.87,54.77,54.68,54.65,54.63,54.61,54.59,54.58,54.60,54.60,54.60,54.60,54.59,54.54,54.50,54.50,54.55,54.59,54.60,54.59,54.56,54.56,54.53,54.51,54.49,54.45,54.44,54.46,54.48,54.50,54.52,54.64,54.80,54.95,54.95,54.92,54.89,54.87,54.89,55.01,55.10,55.10,55.02,54.99,54.99,54.94,54.77,54.40,54.18,54.19,54.26,54.25,54.20,54.20,54.20,54.20,54.20,54.20,54.20,54.20,54.20,54.20,54.20,54.20,54.20,54.20,54.20,54.20,54.20,54.20,54.20,54.20,54.20,54.20,54.20,54.20,54.18,54.14,54.11,54.10,54.10,54.10,54.10,54.10,54.10,54.10,54.11,54.12,54.10,54.09,54.10,54.11,54.16,54.15,54.15,54.20,54.18,54.18,54.17,54.17,54.17,54.17,54.16,54.14,54.16,54.19,54.18,54.17,54.17,54.17,54.25,54.28,54.27,54.27,54.29,54.25,54.21,54.20,54.20,54.15,54.13,54.16,54.19,54.21,54.21,54.20,54.21,54.20,54.20,54.18,54.14,54.11,54.13,54.18,54.21,54.05,53.90,53.74,53.59,53.45,53.34,53.33,53.34,53.34,53.32,53.36,53.38,53.40,53.40,53.32,53.26,53.19,53.09,52.85,52.64,52.49,52.47,52.67,52.52,52.46,52.47,52.51,52.55,52.47,52.44,52.47,52.31,52.75,53.06,53.13,53.07,53.11,53.14,53.18,53.24,53.23,53.47,54.15,55.20,56.24,57.58,58.90,60.11,61.14,61.63,61.83,61.89,61.91,61.92,61.91,61.89,61.89,61.90,61.88,61.85,61.74,61.47,60.63,59.98,59.85,60.24,60.85,61.38,61.78,62.03,62.13,62.18,62.23,62.27,62.29,62.30,62.28,62.24,62.18,62.13,62.20,62.27,62.31,62.28,62.16,62.01,61.90,61.84,61.80,61.74,61.71,61.72,61.76,61.66,61.41,61.04,60.58,60.20,60.07,60.11,60.27
55.44,55.50,55.50,55.50,55.51,55.54,55.54,55.44,55.32,55.21,55.08,55.09,55.15,55.21,55.21,55.20,55.13,55.01,54.90,54.93,54.90,54.78,54.65,54.60,54.63,54.64,54.63,54.60,54.60,54.60,54.60,54.59,54.56,54.52,54.50,54.50,54.50,54.54,54.55,54.53,54.50,54.50,54.47,54.43,54.39,54.35,54.35,54.38,54.42,54.46,54.53,54.68,54.84,54.96,54.94,54.91,54.90,54.90,54.91,55.04,55.11,55.11,55.03,55.00,55.00,54.95,54.79,54.44,54.21,54.21,54.28,54.26,54.21,54.20,54.20,54.20,54.20,54.20,54.20,54.20,54.20,54.20,54.20,54.20,54.20,54.20,54.20,54.20,54.20,54.20,54.20,54.20,54.20,54.20,54.20,54.20,54.20,54.19,54.13,54.11,54.10,54.10,54.10,54.10,54.10,54.10,54.12,54.17,54.10,54.06,54.09,54.12,54.14,54.14,54.16,54.21,54.15,54.22,54.28,54.30,54.30,54.30,54.26,54.22,54.27,54.35,54.34,54.30,54.30,54.30,54.30,54.26,54.21,54.20,54.27,54.25,54.21,54.20,54.20,54.15,54.11,54.11,54.16,54.22,54.22,54.21,54.23,54.21,54.20,54.20,54.19,54.11,54.16,54.24,54.26,54.11,53.95,53.81,53.68,53.55,53.48,53.43,53.40,53.39,53.34,53.34,53.37,53.41,53.43,53.33,53.28,53.23,53.16,53.00,52.66,52.41,52.36,52.55,52.45,52.41,52.44,52.51,52.52,52.41,52.40,52.52,52.57,52.73,52.94,53.12,53.14,53.13,53.10,53.12,53.21,53.25,53.50,53.95,54.50,54.91,55.67,56.84,58.30,59.90,61.18,61.71,61.87,61.89,61.87,61.88,61.88,61.87,61.90,61.89,61.87,61.70,61.26,60.16,59.69,59.76,60.23,60.85,61.42,61.84,62.10,62.18,62.19,62.22,62.26,62.30,62.34,62.34,62.29,62.20,62.10,62.13,62.18,62.22,62.22,62.12,61.97,61.86,61.79,61.72,61.64,61.64,61.67,61.68,61.64,61.58,61.40,61.03,60.43,60.08,59.94,59.95
55.45,55.51,55.47,55.43,55.46,55.55,55.56,55.41,55.26,55.14,55.08,55.06,55.11,55.18,55.23,55.23,55.17,55.07,54.96,54.93,54.88,54.77,54.65,54.60,54.61,54.60,54.59,54.57,54.59,54.58,54.56,54.54,54.52,54.51,54.50,54.50,54.50,54.54,54.57,54.56,54.53,54.50,54.47,54.44,54.42,54.40,54.39,54.39,54.42,54.47,54.60,54.79,54.94,55.00,54.95,54.92,54.91,54.93,55.01,55.12,55.16,55.13,55.05,55.01,55.00,54.95,54.79,54.40,54.16,54.16,54.24,54.25,54.21,54.20,54.20,54.20,54.20,54.20,54.20,54.20,54.20,54.20,54.20,54.20,54.20,54.20,54.20,54.20,54.20,54.20,54.20,54.20,54.20,54.20,54.20,54.20,54.20,54.19,54.14,54.12,54.10,54.10,54.10,54.10,54.11,54.13,54.16,54.19,54.13,54.09,54.11,54.17,54.22,54.23,54.24,54.26,54.22,54.25,54.29,54.30,54.30,54.30,54.26,54.21,54.23,54.34,54.35,54.33,54.31,54.30,54.30,54.27,54.23,54.20,54.27,54.25,54.21,54.20,54.20,54.16,54.12,54.10,54.13,54.15,54.18,54.21,54.24,54.23,54.23,54.22,54.19,54.11,54.16,54.24,54.26,54.11,53.98,53.85,53.74,53.64,53.57,53.48,53.41,53.37,53.38,53.38,53.40,53.44,53.47,53.33,53.26,53.21,53.17,53.06,52.72,52.47,52.42,52.49,52.42,52.36,52.35,52.39,52.40,52.41,52.45,52.51,52.53,52.60,52.75,52.94,53.10,53.12,53.10,53.10,53.16,53.20,53.42,53.83,54.33,54.62,54.94,55.55,56.52,57.84,59.30,60.46,61.29,61.76,61.82,61.84,61.85,61.85,61.90,61.90,61.87,61.61,60.97,59.72,59.56,59.93,60.53,61.08,61.60,61.98,62.20,62.25,62.28,62.31,62.34,62.37,62.41,62.38,62.34,62.27,62.18,62.12,62.11,62.13,62.18,62.08,61.93,61.81,61.72,61.64,61.56,61.52,61.52,61.51,61.45,61.39,61.29,61.08,60.65,60.26,60.02,59.94
55.46,55.50,55.43,55.38,55.41,55.53,55.54,55.38,55.22,55.12,55.11,55.06,55.08,55.15,55.25,55.26,55.20,55.12,55.02,54.93,54.88,54.79,54.67,54.60,54.60,54.58,54.55,54.53,54.57,54.57,54.55,54.51,54.51,54.50,54.50,54.50,54.51,54.54,54.57,54.58,54.54,54.51,54.47,54.44,54.43,54.43,54.40,54.41,54.43,54.48,54.65,54.86,55.00,55.02,54.95,54.92,54.92,54.95,55.06,55.15,55.16,55.11,55.04,55.00,54.99,54.93,54.75,54.36,54.13,54.14,54.21,54.24,54.21,54.20,54.20,54.20,54.20,54.20,54.20,54.20,54.20,54.20,54.20,54.20,54.20,54.20,54.20,54.20,54.20,54.20,54.20,54.20,54.20,54.20,54.20,54.20,54.20,54.19,54.16,54.13,54.11,54.10,54.10,54.11,54.13,54.16,54.19,54.20,54.15,54.11,54.12,54.19,54.26,54.30,54.31,54.30,54.27,54.28,54.30,54.30,54.30,54.30,54.26,54.21,54.20,54.33,54.37,54.35,54.31,54.30,54.30,54.28,54.25,54.20,54.27,54.25,54.21,54.20,54.20,54.18,54.14,54.10,54.10,54.10,54.14,54.19,54.24,54.24,54.25,54.24,54.18,54.11,54.15,54.23,54.27,54.13,54.00,53.89,53.79,53.71,53.62,53.52,53.42,53.35,53.38,53.41,53.44,53.47,53.47,53.35,53.26,53.21,53.18,53.10,52.80,52.57,52.47,52.46,52.48,52.39,52.30,52.31,52.32,52.38,52.43,52.44,52.44,52.47,52.57,52.73,52.96,53.02,53.06,53.09,53.14,53.15,53.30,53.65,54.10,54.37,54.40,54.63,55.18,56.17,57.52,58.85,60.11,61.16,61.67,61.79,61.81,61.82,61.88,61.89,61.80,61.38,60.48,59.39,59.62,60.24,60.88,61.34,61.76,62.09,62.30,62.34,62.36,62.37,62.38,62.40,62.44,62.42,62.38,62.31,62.23,62.13,62.05,62.04,62.10,62.03,61.89,61.76,61.67,61.59,61.51,61.44,61.39,61.34,61.25,61.19,61.13,61.01,60.68,60.30,60.04,59.92
55.47,55.49,55.39,55.35,55.38,55.45,55.44,55.33,55.23,55.18,55.17,55.10,55.08,55.13,55.26,55.26,55.21,55.13,55.04,54.96,54.94,54.86,54.72,54.59,54.58,54.57,54.54,54.51,54.54,54.57,54.56,54.53,54.52,54.52,54.51,54.50,54.52,54.54,54.56,54.55,54.53,54.52,54.48,54.44,54.41,54.41,54.39,54.41,54.45,54.51,54.69,54.89,55.00,54.99,54.93,54.93,54.94,54.97,55.04,55.10,55.08,55.03,54.98,54.98,54.98,54.88,54.67,54.32,54.15,54.16,54.22,54.24,54.21,54.20,54.20,54.20,54.20,54.20,54.20,54.20,54.20,54.20,54.20,54.20,54.20,54.20,54.20,54.20,54.20,54.20,54.20,54.20,54.20,54.20,54.20,54.20,54.20,54.20,54.19,54.15,54.11,54.10,54.10,54.13,54.16,54.19,54.20,54.20,54.15,54.11,54.11,54.16,54.24,54.31,54.33,54.31,54.30,54.30,54.30,54.30,54.30,54.30,54.26,54.21,54.20,54.33,54.38,54.37,54.31,54.30,54.30,54.30,54.28,54.21,54.27,54.25,54.21,54.20,54.20,54.20,54.16,54.11,54.10,54.10,54.11,54.15,54.21,54.22,54.26,54.24,54.14,54.11,54.12,54.20,54.28,54.18,54.04,53.93,53.84,53.76,53.63,53.54,53.45,53.37,53.34,53.43,53.48,53.48,53.43,53.38,53.31,53.24,53.18,53.10,52.94,52.70,52.48,52.46,52.65,52.54,52.33,52.29,52.29,52.27,52.27,52.28,52.28,52.34,52.41,52.51,52.65,52.79,52.95,53.08,53.16,53.10,53.13,53.35,53.73,54.09,54.16,54.27,54.58,55.22,55.99,56.70,57.93,59.77,61.34,61.71,61.77,61.76,61.81,61.85,61.65,60.91,59.63,59.25,59.98,60.77,61.28,61.61,61.89,62.17,62.37,62.45,62.40,62.38,62.36,62.35,62.42,62.44,62.40,62.31,62.21,62.14,62.03,61.95,61.95,61.97,61.85,61.72,61.65,61.59,61.54,61.43,61.30,61.19,61.07,60.99,60.90,60.75,60.38,60.10,59.95,59.89
55.26,55.31,55.30,55.29,55.31,55.35,55.34,55.28,55.22,55.18,55.18,55.13,55.11,55.14,55.24,55.27,55.24,55.18,55.09,54.98,54.96,54.91,54.80,54.64,54.59,54.58,54.56,54.53,54.54,54.55,54.54,54.52,54.52,54.51,54.49,54.49,54.52,54.54,54.55,54.54,54.52,54.52,54.49,54.44,54.40,54.39,54.37,54.41,54.48,54.58,54.76,54.92,55.00,54.98,54.95,54.95,54.96,54.98,55.00,55.03,55.02,55.00,54.97,54.98,54.98,54.92,54.74,54.40,54.19,54.16,54.21,54.22,54.20,54.20,54.20,54.20,54.20,54.20,54.20,54.20,54.20,54.20,54.20,54.20,54.20,54.20,54.20,54.20,54.20,54.20,54.20,54.20,54.20,54.20,54.20,54.20,54.20,54.20,54.20,54.15,54.12,54.10,54.10,54.15,54.18,54.20,54.20,54.20,54.13,54.09,54.10,54.12,54.25,54.32,54.34,54.34,54.34,54.32,54.31,54.30,54.30,54.30,54.26,54.21,54.20,54.33,54.39,54.37,54.31,54.30,54.30,54.30,54.28,54.21,54.27,54.25,54.21,54.20,54.20,54.20,54.17,54.11,54.10,54.10,54.10,54.13,54.20,54.21,54.23,54.22,54.16,54.11,54.11,54.19,54.28,54.20,54.05,53.95,53.86,53.78,53.64,53.54,53.46,53.37,53.28,53.35,53.40,53.41,53.41,53.39,53.36,53.29,53.19,53.10,52.96,52.73,52.50,52.49,52.67,52.61,52.38,52.12,52.38,52.40,52.35,52.32,52.33,52.40,52.47,52.54,52.60,52.72,52.85,52.98,53.10,53.12,53.15,53.28,53.50,53.74,53.87,53.99,54.22,54.65,55.09,55.53,56.34,57.65,59.16,60.38,61.10,61.37,61.41,61.14,60.54,59.72,58.90,58.97,59.63,60.24,60.65,61.01,61.40,61.82,62.20,62.43,62.42,62.41,62.38,62.35,62.39,62.41,62.36,62.28,62.20,62.15,62.04,61.91,61.82,61.81,61.70,61.55,61.43,61.38,61.37,61.28,61.16,61.05,60.88,60.71,60.58,60.47,60.17,59.96,59.85,59.78
54.99,55.08,55.16,55.19,55.19,55.21,55.22,55.20,55.18,55.16,55.16,55.14,55.14,55.15,55.21,55.25,55.25,55.21,55.13,55.01,54.97,54.95,54.89,54.73,54.64,54.61,54.60,54.57,54.56,54.54,54.53,54.52,54.53,54.50,54.47,54.47,54.52,54.54,54.54,54.53,54.50,54.51,54.48,54.43,54.39,54.37,54.36,54.42,54.53,54.67,54.85,54.97,55.01,54.99,54.99,54.98,54.98,54.98,54.96,54.97,54.98,54.99,54.97,54.98,54.98,54.96,54.85,54.52,54.25,54.17,54.19,54.21,54.20,54.20,54.20,54.20,54.20,54.20,54.20,54.20,54.20,54.20,54.20,54.20,54.20,54.20,54.20,54.20,54.20,54.20,54.20,54.20,54.20,54.20,54.20,54.20,54.20,54.20,54.20,54.16,54.12,54.10,54.11,54.17,54.19,54.20,54.20,54.19,54.10,54.07,54.08,54.10,54.27,54.33,54.35,54.38,54.39,54.35,54.32,54.30,54.30,54.30,54.26,54.22,54.20,54.32,54.38,54.37,54.31,54.30,54.30,54.30,54.28,54.22,54.27,54.25,54.21,54.20,54.20,54.20,54.16,54.10,54.10,54.10,54.10,54.12,54.20,54.20,54.20,54.20,54.19,54.11,54.09,54.18,54.29,54.21,54.06,53.96,53.88,53.79,53.64,53.54,53.45,53.36,53.22,53.27,53.31,53.34,53.40,53.40,53.40,53.34,53.21,53.10,52.96,52.75,52.54,52.52,52.64,52.66,52.45,52.00,52.51,52.58,52.50,52.42,52.41,52.48,52.56,52.62,52.64,52.69,52.76,52.87,53.02,53.14,53.19,53.26,53.35,53.44,53.61,53.77,53.96,54.25,54.50,54.80,55.17,55.71,56.80,58.67,59.96,60.54,60.63,60.07,59.21,58.51,58.32,58.68,59.10,59.45,59.76,60.16,60.67,61.29,61.90,62.35,62.43,62.44,62.42,62.37,62.36,62.37,62.32,62.25,62.20,62.16,62.05,61.89,61.73,61.66,61.54,61.35,61.16,61.08,61.08,61.01,60.90,60.79,60.59,60.38,60.24,60.18,59.97,59.82,59.72,59.63
54.78,54.81,54.86,54.90,54.91,54.92,54.93,54.97,55.03,55.09,55.12,55.13,55.12,55.12,55.12,55.13,55.15,55.15,55.11,55.04,55.00,54.98,54.95,54.88,54.79,54.74,54.71,54.66,54.59,54.59,54.61,54.62,54.58,54.50,54.46,54.46,54.51,54.54,54.55,54.53,54.50,54.48,54.42,54.38,54.37,54.39,54.41,54.48,54.60,54.78,54.99,55.08,55.09,55.06,55.07,55.04,55.01,55.00,54.99,54.99,55.00,55.00,54.98,54.92,54.93,54.96,54.92,54.70,54.37,54.21,54.18,54.20,54.20,54.20,54.20,54.20,54.20,54.20,54.20,54.20,54.20,54.20,54.20,54.20,54.20,54.20,54.20,54.20,54.20,54.20,54.20,54.20,54.20,54.20,54.20,54.20,54.20,54.20,54.20,54.19,54.15,54.13,54.16,54.19,54.20,54.20,54.19,54.15,54.11,54.09,54.09,54.11,54.27,54.36,54.39,54.40,54.40,54.39,54.36,54.31,54.30,54.30,54.26,54.22,54.20,54.29,54.36,54.37,54.31,54.30,54.30,54.30,54.29,54.23,54.27,54.25,54.21,54.20,54.20,54.20,54.15,54.06,54.09,54.10,54.10,54.12,54.18,54.19,54.20,54.20,54.19,54.11,54.07,54.17,54.32,54.21,54.09,54.00,53.91,53.77,53.63,53.53,53.42,53.31,53.21,53.28,53.36,53.40,53.40,53.40,53.40,53.37,53.30,53.12,53.00,52.85,52.67,52.52,52.62,52.68,52.58,52.29,52.68,52.72,52.62,52.48,52.42,52.48,52.58,52.66,52.68,52.70,52.73,52.80,52.93,53.03,53.14,53.26,53.36,53.44,53.52,53.65,53.86,54.16,54.42,54.72,55.06,55.46,56.00,56.79,57.56,58.19,58.60,58.31,58.12,58.09,58.24,58.48,58.68,58.85,59.02,59.22,59.66,60.43,61.34,62.13,62.44,62.52,62.48,62.41,62.39,62.38,62.33,62.25,62.19,62.13,62.03,61.92,61.80,61.67,61.45,61.18,60.88,60.65,60.50,60.32,60.12,59.95,59.86,59.85,59.90,59.94,59.75,59.60,59.49,59.37
54.70,54.69,54.69,54.71,54.73,54.73,54.76,54.83,54.89,54.90,54.86,54.86,54.84,54.80,54.79,54.83,54.94,55.04,55.09,55.06,55.03,55.02,55.01,54.97,54.91,54.88,54.85,54.81,54.74,54.73,54.74,54.75,54.70,54.61,54.55,54.54,54.55,54.59,54.63,54.62,54.56,54.50,54.44,54.40,54.39,54.40,54.42,54.49,54.62,54.84,55.05,55.11,55.10,55.08,55.06,55.05,55.03,55.01,55.00,55.00,54.99,54.98,54.96,54.91,54.93,54.97,54.96,54.80,54.44,54.24,54.17,54.20,54.21,54.21,54.20,54.20,54.20,54.20,54.20,54.20,54.20,54.20,54.20,54.20,54.20,54.20,54.20,54.20,54.20,54.20,54.20,54.20,54.20,54.20,54.20,54.20,54.20,54.20,54.20,54.20,54.18,54.16,54.19,54.20,54.19,54.18,54.16,54.14,54.11,54.08,54.07,54.13,54.26,54.35,54.39,54.40,54.40,54.40,54.37,54.33,54.31,54.30,54.26,54.22,54.20,54.27,54.34,54.35,54.31,54.31,54.31,54.30,54.29,54.26,54.28,54.26,54.22,54.20,54.20,54.20,54.15,54.06,54.09,54.10,54.10,54.11,54.14,54.19,54.20,54.20,54.19,54.13,54.07,54.16,54.32,54.21,54.09,53.99,53.88,53.74,53.61,53.49,53.37,53.27,53.21,53.31,53.40,53.44,53.40,53.40,53.40,53.37,53.31,53.12,53.03,52.92,52.77,52.54,52.58,52.67,52.68,52.55,52.78,52.78,52.67,52.53,52.46,52.49,52.57,52.65,52.68,52.68,52.72,52.78,52.87,52.95,53.06,53.19,53.30,53.39,53.43,53.53,53.69,53.92,54.14,54.41,54.72,55.06,55.43,55.79,56.29,56.86,57.32,57.39,57.59,57.84,58.06,58.24,58.36,58.46,58.54,58.57,58.89,59.67,60.73,61.82,62.40,62.56,62.52,62.45,62.43,62.40,62.33,62.24,62.16,62.11,62.04,61.95,61.85,61.69,61.36,60.92,60.46,60.19,59.98,59.76,59.50,59.19,59.14,59.14,59.17,59.20,59.14,59.17,59.16,59.09
54.69,54.67,54.62,54.60,54.60,54.60,54.65,54.74,54.74,54.63,54.44,54.43,54.37,54.30,54.30,54.40,54.64,54.89,55.06,55.07,55.06,55.06,55.06,55.01,55.02,55.02,55.02,55.01,54.97,54.93,54.91,54.90,54.87,54.80,54.73,54.67,54.63,54.69,54.76,54.76,54.66,54.56,54.51,54.47,54.44,54.40,54.42,54.47,54.62,54.89,55.06,55.08,55.07,55.05,55.00,55.03,55.04,55.03,55.00,55.00,54.98,54.95,54.92,54.92,54.95,54.99,54.98,54.85,54.48,54.25,54.17,54.21,54.22,54.21,54.21,54.20,54.20,54.20,54.20,54.20,54.20,54.20,54.20,54.20,54.20,54.20,54.20,54.20,54.20,54.20,54.20,54.20,54.20,54.20,54.20,54.20,54.20,54.20,54.20,54.20,54.20,54.20,54.20,54.20,54.18,54.15,54.12,54.15,54.11,54.06,54.04,54.15,54.25,54.33,54.39,54.40,54.40,54.40,54.38,54.34,54.31,54.30,54.26,54.22,54.20,54.27,54.32,54.34,54.31,54.34,54.32,54.31,54.30,54.30,54.30,54.27,54.24,54.20,54.20,54.20,54.17,54.11,54.10,54.10,54.10,54.10,54.10,54.18,54.20,54.20,54.20,54.16,54.09,54.15,54.28,54.20,54.06,53.93,53.81,53.69,53.58,53.43,53.31,53.24,53.21,53.34,53.44,53.48,53.40,53.40,53.39,53.36,53.27,53.12,53.03,52.96,52.85,52.57,52.53,52.64,52.77,52.80,52.82,52.78,52.69,52.58,52.52,52.51,52.55,52.62,52.64,52.66,52.72,52.79,52.83,52.90,52.97,53.07,53.20,53.31,53.34,53.39,53.47,53.59,53.73,53.94,54.21,54.55,55.04,55.40,55.81,56.24,56.55,57.04,57.44,57.70,57.81,57.98,58.12,58.22,58.24,58.12,58.29,58.98,60.09,61.44,62.32,62.56,62.54,62.49,62.47,62.43,62.34,62.22,62.12,62.10,62.06,62.00,61.88,61.72,61.26,60.60,59.93,59.70,59.50,59.30,58.99,58.49,58.42,58.30,58.17,58.10,58.27,58.59,58.77,58.79
54.68,54.66,54.62,54.61,54.61,54.61,54.63,54.67,54.68,54.61,54.42,54.40,54.34,54.28,54.25,54.29,54.40,54.55,54.74,54.99,55.09,55.11,55.08,55.07,55.11,55.14,55.12,55.06,55.02,55.01,55.01,54.99,54.96,54.91,54.88,54.85,54.82,54.81,54.83,54.83,54.78,54.71,54.66,54.62,54.60,54.57,54.54,54.59,54.73,54.94,55.06,55.11,55.11,55.07,54.99,54.99,55.00,55.00,55.01,55.01,55.00,55.00,55.00,55.00,55.01,55.03,55.03,54.92,54.52,54.27,54.18,54.24,54.25,54.24,54.23,54.21,54.20,54.20,54.20,54.20,54.20,54.20,54.20,54.20,54.20,54.20,54.20,54.20,54.20,54.20,54.20,54.20,54.20,54.20,54.20,54.20,54.20,54.20,54.20,54.20,54.20,54.20,54.20,54.20,54.17,54.13,54.11,54.12,54.09,54.06,54.06,54.13,54.26,54.33,54.37,54.39,54.40,54.40,54.39,54.37,54.32,54.31,54.26,54.22,54.20,54.27,54.30,54.31,54.31,54.36,54.33,54.31,54.30,54.30,54.27,54.27,54.26,54.21,54.20,54.22,54.19,54.10,54.07,54.09,54.10,54.10,54.10,54.17,54.20,54.20,54.19,54.15,54.09,54.14,54.24,54.20,54.06,53.91,53.77,53.65,53.51,53.38,53.28,53.22,53.25,53.35,53.42,53.44,53.40,53.40,53.39,53.34,53.22,53.07,53.01,52.95,52.82,52.55,52.52,52.63,52.76,52.80,52.81,52.79,52.73,52.64,52.61,52.57,52.55,52.57,52.61,52.63,52.69,52.77,52.83,52.89,52.93,53.00,53.09,53.15,53.19,53.20,53.22,53.29,53.45,53.56,53.68,53.84,54.12,54.39,54.72,55.09,55.42,55.93,56.50,57.02,57.40,57.60,57.77,57.85,57.83,57.72,57.87,58.44,59.51,61.04,62.13,62.50,62.55,62.52,62.53,62.47,62.38,62.27,62.17,62.13,62.04,61.92,61.75,61.31,60.44,59.63,59.09,58.99,58.92,58.64,58.17,57.60,57.67,57.63,57.55,57.50,57.45,57.47,57.58,57.76
54.66,54.65,54.62,54.62,54.62,54.62,54.63,54.64,54.62,54.57,54.41,54.38,54.33,54.27,54.23,54.23,54.24,54.31,54.49,54.86,55.08,55.14,55.10,55.09,55.15,55.20,55.19,55.11,55.09,55.09,55.09,55.07,55.04,55.02,55.02,55.01,54.98,54.93,54.91,54.90,54.88,54.83,54.77,54.73,54.70,54.67,54.62,54.68,54.82,55.00,55.05,55.10,55.11,55.08,55.00,54.98,54.98,55.00,55.05,55.04,55.04,55.04,55.06,55.06,55.06,55.07,55.06,54.98,54.57,54.29,54.19,54.25,54.25,54.25,54.24,54.22,54.21,54.20,54.20,54.20,54.20,54.20,54.20,54.20,54.20,54.20,54.20,54.20,54.20,54.20,54.20,54.20,54.20,54.20,54.20,54.20,54.20,54.20,54.20,54.20,54.20,54.20,54.20,54.19,54.15,54.11,54.10,54.11,54.09,54.07,54.07,54.11,54.25,54.32,54.36,54.38,54.39,54.40,54.40,54.39,54.34,54.31,54.26,54.22,54.20,54.26,54.29,54.30,54.31,54.38,54.34,54.31,54.30,54.30,54.25,54.26,54.27,54.21,54.22,54.25,54.22,54.12,54.04,54.08,54.10,54.11,54.12,54.18,54.20,54.20,54.19,54.13,54.09,54.14,54.23,54.18,54.05,53.91,53.76,53.59,53.43,53.33,53.26,53.23,53.28,53.35,53.38,53.39,53.40,53.40,53.38,53.32,53.20,53.08,53.00,52.88,52.72,52.51,52.51,52.59,52.69,52.75,52.79,52.81,52.76,52.68,52.66,52.60,52.56,52.55,52.58,52.60,52.66,52.73,52.80,52.86,52.89,52.93,52.98,52.99,53.04,53.04,53.04,53.08,53.18,53.19,53.14,53.10,53.18,53.30,53.57,53.92,54.25,54.77,55.40,56.03,56.56,56.90,57.21,57.37,57.37,57.31,57.45,57.95,58.93,60.44,61.48,62.03,62.21,62.16,62.21,62.26,62.26,62.21,62.14,62.09,61.98,61.84,61.64,60.91,59.75,58.89,58.56,58.53,58.51,58.19,57.64,57.05,57.13,57.14,57.11,57.08,56.92,56.75,56.71,56.83
54.65,54.64,54.62,54.62,54.63,54.63,54.67,54.64,54.58,54.50,54.41,54.38,54.33,54.29,54.27,54.24,54.22,54.23,54.33,54.65,55.02,55.15,55.10,55.07,55.14,55.20,55.21,55.17,55.16,55.17,55.17,55.14,55.11,55.13,55.14,55.13,55.10,55.05,55.02,55.00,54.96,54.91,54.83,54.77,54.71,54.67,54.63,54.73,54.90,55.05,55.03,55.05,55.07,55.07,55.04,55.01,55.00,55.04,55.11,55.10,55.09,55.09,55.09,55.09,55.09,55.09,55.09,55.05,54.62,54.31,54.18,54.22,54.22,54.22,54.23,54.24,54.23,54.21,54.20,54.20,54.20,54.20,54.20,54.20,54.20,54.20,54.20,54.20,54.20,54.20,54.20,54.20,54.20,54.20,54.20,54.20,54.20,54.20,54.20,54.20,54.20,54.20,54.20,54.16,54.13,54.11,54.11,54.15,54.13,54.08,54.05,54.08,54.22,54.32,54.36,54.34,54.37,54.39,54.40,54.40,54.38,54.33,54.27,54.22,54.20,54.26,54.29,54.30,54.31,54.38,54.34,54.31,54.30,54.30,54.24,54.25,54.27,54.21,54.26,54.29,54.26,54.17,54.04,54.07,54.10,54.12,54.18,54.19,54.20,54.20,54.19,54.12,54.10,54.17,54.25,54.13,54.03,53.94,53.79,53.52,53.35,53.25,53.24,53.29,53.30,53.31,53.31,53.33,53.40,53.40,53.35,53.28,53.20,53.17,52.99,52.74,52.52,52.43,52.48,52.52,52.56,52.64,52.77,52.84,52.80,52.67,52.62,52.60,52.59,52.56,52.52,52.58,52.61,52.65,52.73,52.79,52.82,52.85,52.88,52.83,52.89,52.93,52.95,52.98,52.94,52.83,52.62,52.33,52.21,52.13,52.34,52.74,53.03,53.53,54.07,54.59,55.09,55.73,56.36,56.73,56.84,56.87,57.03,57.52,58.36,59.51,60.15,60.93,61.34,61.25,61.36,61.66,61.88,61.98,61.97,61.93,61.88,61.78,61.54,60.56,59.24,58.52,58.49,58.47,58.38,58.05,57.55,56.98,56.92,56.91,56.93,56.93,56.83,56.61,56.32,56.06
54.65,54.65,54.59,54.60,54.62,54.63,54.68,54.68,54.60,54.46,54.37,54.35,54.32,54.30,54.29,54.26,54.22,54.21,54.27,54.54,54.95,55.14,55.13,55.10,55.16,55.20,55.23,55.21,55.20,55.23,55.23,55.19,55.16,55.17,55.18,55.17,55.15,55.13,55.09,55.03,54.96,54.92,54.86,54.79,54.72,54.64,54.63,54.78,54.97,55.08,55.02,55.03,55.06,55.08,55.08,55.05,55.05,55.07,55.11,55.11,55.10,55.10,55.10,55.08,55.06,55.08,55.11,55.13,54.68,54.32,54.15,54.19,54.20,54.21,54.22,54.23,54.24,54.23,54.21,54.20,54.20,54.20,54.20,54.20,54.20,54.20,54.20,54.20,54.20,54.20,54.20,54.20,54.20,54.20,54.20,54.20,54.20,54.20,54.20,54.20,54.20,54.19,54.16,54.13,54.11,54.12,54.14,54.14,54.10,54.05,54.03,54.04,54.14,54.24,54.32,54.35,54.38,54.39,54.40,54.40,54.40,54.34,54.29,54.25,54.21,54.23,54.27,54.29,54.31,54.38,54.34,54.31,54.30,54.30,54.27,54.28,54.28,54.26,54.28,54.30,54.27,54.18,54.04,54.05,54.10,54.17,54.24,54.20,54.19,54.19,54.19,54.11,54.10,54.13,54.16,54.06,53.97,53.89,53.78,53.62,53.44,53.29,53.25,53.31,53.30,53.27,53.24,53.24,53.30,53.30,53.24,53.18,53.14,53.09,52.90,52.67,52.48,52.42,52.42,52.45,52.48,52.49,52.67,52.75,52.73,52.63,52.60,52.60,52.57,52.54,52.49,52.55,52.59,52.62,52.67,52.73,52.77,52.80,52.79,52.72,52.80,52.86,52.90,52.93,52.89,52.80,52.64,52.45,52.39,52.28,52.27,52.30,52.28,52.63,53.12,53.57,53.90,54.51,55.11,55.54,55.81,56.02,56.23,56.52,56.78,56.91,57.04,57.49,57.77,57.78,58.24,59.59,60.69,61.31,61.44,61.49,61.54,61.49,61.21,60.16,59.00,58.41,58.42,58.41,58.30,58.00,57.54,57.03,56.84,56.77,56.77,56.79,56.75,56.58,56.29,55.92
54.64,54.64,54.57,54.57,54.59,54.61,54.67,54.71,54.62,54.43,54.34,54.32,54.31,54.30,54.29,54.27,54.23,54.20,54.24,54.45,54.82,55.02,55.07,55.09,55.16,55.21,55.23,55.25,55.24,55.26,55.26,55.23,55.19,55.20,55.20,55.20,55.19,55.19,55.14,55.06,54.95,54.91,54.86,54.80,54.71,54.61,54.65,54.84,55.02,55.09,55.03,55.03,55.05,55.08,55.10,55.10,55.10,55.10,55.11,55.09,55.09,55.09,55.09,55.05,55.02,55.06,55.13,55.17,54.71,54.32,54.12,54.16,54.19,54.20,54.20,54.21,54.25,54.24,54.22,54.20,54.20,54.20,54.20,54.20,54.20,54.20,54.20,54.20,54.20,54.20,54.20,54.20,54.20,54.20,54.20,54.20,54.20,54.20,54.20,54.20,54.20,54.18,54.13,54.11,54.11,54.14,54.18,54.15,54.09,54.04,54.02,54.01,54.07,54.18,54.29,54.36,54.37,54.39,54.39,54.40,54.40,54.35,54.32,54.28,54.22,54.20,54.24,54.29,54.31,54.38,54.34,54.31,54.30,54.30,54.30,54.30,54.30,54.30,54.29,54.29,54.27,54.20,54.05,54.06,54.13,54.22,54.26,54.19,54.17,54.17,54.18,54.11,54.10,54.09,54.06,54.00,53.90,53.82,53.75,53.70,53.52,53.35,53.29,53.33,53.31,53.26,53.21,53.18,53.21,53.21,53.16,53.11,53.09,53.01,52.85,52.65,52.48,52.43,52.37,52.39,52.42,52.37,52.56,52.65,52.65,52.60,52.59,52.58,52.55,52.51,52.48,52.53,52.57,52.60,52.61,52.66,52.73,52.75,52.71,52.63,52.72,52.80,52.85,52.89,52.89,52.85,52.78,52.71,52.73,52.64,52.43,52.13,51.83,52.02,52.40,52.72,52.87,53.37,53.84,54.30,54.73,55.08,55.32,55.41,55.18,54.46,54.21,54.28,54.37,54.48,55.24,57.40,59.24,60.36,60.65,60.85,61.00,60.98,60.68,59.75,58.85,58.35,58.27,58.26,58.14,57.85,57.45,57.02,56.74,56.61,56.60,56.65,56.65,56.52,56.23,55.82
54.61,54.61,54.58,54.54,54.53,54.56,54.63,54.66,54.58,54.45,54.37,54.32,54.30,54.29,54.28,54.23,54.21,54.20,54.21,54.29,54.43,54.55,54.69,54.94,55.11,55.18,55.22,55.28,55.26,55.26,55.25,55.22,55.19,55.19,55.20,55.20,55.19,55.22,55.18,55.08,54.94,54.87,54.83,54.77,54.69,54.60,54.74,54.92,55.06,55.10,55.09,55.04,55.02,55.02,55.08,55.14,55.14,55.11,55.09,55.06,55.06,55.06,55.05,55.01,55.03,55.08,55.13,55.10,54.65,54.29,54.12,54.16,54.19,54.19,54.20,54.20,54.21,54.24,54.24,54.22,54.21,54.20,54.20,54.20,54.20,54.20,54.20,54.20,54.20,54.20,54.20,54.20,54.20,54.20,54.20,54.20,54.20,54.20,54.20,54.20,54.19,54.17,54.12,54.12,54.15,54.19,54.20,54.20,54.18,54.14,54.08,54.04,54.11,54.20,54.27,54.31,54.32,54.34,54.35,54.37,54.39,54.38,54.35,54.29,54.22,54.20,54.24,54.29,54.31,54.38,54.34,54.31,54.30,54.30,54.30,54.30,54.29,54.28,54.27,54.27,54.26,54.23,54.09,54.16,54.22,54.23,54.20,54.12,54.09,54.11,54.16,54.11,54.10,54.08,54.04,53.97,53.86,53.77,53.68,53.55,53.47,53.42,53.40,53.41,53.37,53.33,53.30,53.29,53.27,53.27,53.21,53.16,53.12,53.04,52.93,52.72,52.49,52.47,52.41,52.36,52.36,52.39,52.48,52.59,52.63,52.58,52.53,52.52,52.51,52.51,52.53,52.54,52.56,52.56,52.57,52.59,52.67,52.69,52.64,52.58,52.65,52.72,52.78,52.86,52.89,52.88,52.84,52.79,52.72,52.66,52.52,52.31,52.09,52.15,52.18,52.17,52.19,52.56,52.88,53.34,53.87,54.15,54.33,54.41,54.30,53.93,53.83,53.85,53.89,53.96,54.51,56.02,57.56,58.72,59.21,59.70,59.94,59.90,59.63,59.31,58.78,58.26,57.88,57.83,57.65,57.34,56.99,56.71,56.47,56.36,56.38,56.49,56.54,56.29,55.84,55.34
54.62,54.60,54.58,54.54,54.51,54.53,54.61,54.66,54.58,54.43,54.35,54.31,54.30,54.28,54.25,54.21,54.21,54.21,54.23,54.27,54.41,54.59,54.79,55.02,55.12,55.18,55.20,55.20,55.08,55.03,55.01,54.98,54.96,55.00,55.02,55.03,55.02,55.07,55.06,55.00,54.90,54.86,54.81,54.74,54.64,54.56,54.77,54.97,55.08,55.09,55.12,55.07,55.01,54.98,55.02,55.07,55.07,55.04,55.02,55.01,55.02,55.02,55.02,54.98,55.00,55.05,55.08,55.02,54.60,54.27,54.12,54.17,54.20,54.19,54.19,54.19,54.19,54.22,54.23,54.24,54.23,54.21,54.20,54.20,54.20,54.20,54.20,54.20,54.20,54.20,54.20,54.20,54.20,54.20,54.20,54.20,54.20,54.20,54.20,54.19,54.17,54.15,54.14,54.16,54.20,54.23,54.23,54.23,54.22,54.17,54.11,54.07,54.15,54.22,54.26,54.28,54.29,54.31,54.32,54.33,54.36,54.39,54.36,54.30,54.22,54.22,54.25,54.28,54.29,54.34,54.31,54.27,54.26,54.25,54.25,54.25,54.24,54.22,54.20,54.20,54.21,54.20,54.12,54.18,54.22,54.22,54.17,54.09,54.06,54.08,54.13,54.10,54.10,54.09,54.05,54.02,53.92,53.83,53.73,53.60,53.58,53.55,53.54,53.53,53.49,53.46,53.42,53.38,53.36,53.40,53.38,53.32,53.25,53.09,52.99,52.80,52.56,52.47,52.41,52.34,52.32,52.37,52.42,52.54,52.60,52.55,52.47,52.44,52.42,52.41,52.44,52.44,52.46,52.48,52.51,52.54,52.62,52.64,52.59,52.52,52.60,52.68,52.74,52.81,52.88,52.90,52.88,52.82,52.71,52.65,52.55,52.40,52.21,52.29,52.24,52.14,52.12,52.38,52.62,52.99,53.45,53.74,53.86,53.90,53.83,53.63,53.62,53.64,53.64,53.66,53.95,54.83,55.79,56.62,57.06,57.71,58.07,58.07,57.72,57.56,57.30,56.98,56.66,56.53,56.24,55.95,55.74,55.67,55.61,55.61,55.69,55.83,55.93,55.73,55.30,54.89
54.65,54.61,54.59,54.55,54.52,54.52,54.60,54.68,54.60,54.39,54.31,54.30,54.29,54.26,54.22,54.20,54.22,54.24,54.26,54.32,54.60,54.91,55.15,55.22,55.17,55.19,55.19,55.07,54.79,54.69,54.65,54.62,54.61,54.70,54.75,54.75,54.73,54.80,54.84,54.85,54.85,54.84,54.80,54.71,54.59,54.51,54.76,54.98,55.10,55.08,55.14,55.10,55.02,54.95,54.93,54.95,54.94,54.93,54.93,54.95,54.97,54.99,54.99,54.96,54.96,54.99,55.00,54.93,54.55,54.26,54.12,54.18,54.22,54.20,54.17,54.16,54.18,54.19,54.22,54.24,54.25,54.23,54.21,54.20,54.20,54.20,54.20,54.20,54.20,54.20,54.20,54.20,54.20,54.20,54.20,54.20,54.20,54.20,54.20,54.18,54.14,54.13,54.17,54.23,54.27,54.28,54.26,54.25,54.22,54.17,54.12,54.10,54.19,54.23,54.25,54.25,54.28,54.30,54.29,54.27,54.32,54.37,54.35,54.29,54.22,54.24,54.27,54.27,54.25,54.27,54.26,54.22,54.19,54.18,54.18,54.18,54.17,54.15,54.10,54.12,54.14,54.14,54.14,54.14,54.16,54.19,54.17,54.09,54.07,54.07,54.10,54.10,54.10,54.10,54.10,54.10,54.03,53.95,53.87,53.77,53.77,53.73,53.70,53.69,53.65,53.61,53.54,53.47,53.47,53.58,53.59,53.54,53.43,53.16,53.03,52.87,52.65,52.44,52.40,52.34,52.29,52.33,52.36,52.49,52.56,52.50,52.40,52.34,52.29,52.25,52.27,52.27,52.32,52.38,52.43,52.50,52.58,52.60,52.55,52.46,52.57,52.66,52.71,52.75,52.87,52.90,52.88,52.84,52.70,52.63,52.55,52.43,52.23,52.42,52.46,52.42,52.40,52.58,52.75,52.99,53.30,53.64,53.70,53.68,53.60,53.45,53.52,53.56,53.54,53.49,53.52,53.76,54.03,54.30,54.54,55.24,55.74,55.81,55.34,55.06,55.01,55.01,54.96,54.75,54.31,54.06,54.04,54.21,54.42,54.58,54.72,54.85,55.03,54.97,54.69,54.47
54.81,54.76,54.70,54.67,54.68,54.70,54.66,54.60,54.48,54.33,54.30,54.30,54.29,54.27,54.23,54.21,54.21,54.21,54.23,54.32,54.64,54.96,55.18,55.21,55.18,55.18,55.19,55.17,55.08,55.05,54.97,54.80,54.53,54.47,54.45,54.44,54.42,54.48,54.59,54.70,54.77,54.68,54.59,54.57,54.59,54.60,54.83,54.98,55.04,55.03,55.08,55.07,55.00,54.92,54.86,54.87,54.89,54.89,54.89,54.91,54.94,54.97,55.00,54.97,54.95,54.94,54.91,54.77,54.44,54.22,54.15,54.20,54.26,54.27,54.23,54.17,54.17,54.17,54.17,54.18,54.22,54.21,54.22,54.22,54.21,54.20,54.20,54.20,54.20,54.20,54.20,54.20,54.20,54.20,54.20,54.20,54.20,54.20,54.17,54.14,54.15,54.19,54.24,54.30,54.33,54.32,54.26,54.23,54.21,54.17,54.12,54.10,54.18,54.20,54.20,54.21,54.21,54.21,54.20,54.18,54.20,54.23,54.23,54.20,54.16,54.17,54.19,54.18,54.17,54.18,54.20,54.20,54.18,54.18,54.18,54.20,54.21,54.18,54.19,54.21,54.20,54.17,54.17,54.17,54.18,54.19,54.19,54.16,54.12,54.11,54.15,54.16,54.12,54.10,54.12,54.21,54.15,54.05,53.94,53.85,53.85,53.70,53.61,e,e,e,e,e,53.49,53.53,53.54,53.52,53.47,53.31,53.09,52.89,52.69,52.43,52.40,52.34,52.30,52.32,52.37,52.37,52.44,52.55,52.45,52.31,52.23,52.20,52.16,52.17,52.22,52.29,52.36,52.45,52.56,52.62,52.59,52.44,52.51,52.59,52.66,52.72,52.76,52.78,52.79,52.79,52.71,52.68,52.64,52.53,52.26,52.44,52.48,52.44,52.38,52.42,52.52,52.67,52.90,53.24,53.39,53.47,53.43,53.28,53.32,53.37,53.37,53.34,53.36,53.51,53.60,53.65,53.73,53.93,54.04,54.03,53.92,53.92,53.91,53.90,53.88,53.78,53.60,53.50,53.49,53.55,53.65,53.75,53.86,53.99,54.15,54.21,54.34,54.66
55.03,54.96,54.85,54.83,54.87,54.89,54.74,54.60,54.46,54.35,54.33,54.33,54.33,54.31,54.25,54.22,54.21,54.20,54.21,54.31,54.62,54.97,55.22,55.23,55.21,55.19,55.20,55.23,55.23,55.21,55.10,54.87,54.54,54.43,54.38,54.36,54.34,54.38,54.50,54.63,54.71,54.60,54.50,54.50,54.57,54.65,54.88,54.98,55.01,54.99,55.04,55.03,54.99,54.92,54.84,54.85,54.86,54.88,54.90,54.93,54.95,54.97,55.00,54.99,54.96,54.94,54.88,54.70,54.39,54.22,54.17,54.21,54.26,54.29,54.27,54.21,54.18,54.17,54.15,54.14,54.18,54.19,54.22,54.23,54.23,54.21,54.20,54.20,54.20,54.20,54.20,54.20,54.20,54.20,54.20,54.21,54.21,54.20,54.15,54.13,54.15,54.20,54.25,54.28,54.30,54.27,54.22,54.17,54.15,54.14,54.12,54.11,54.15,54.16,54.15,54.17,54.17,54.16,54.15,54.15,54.16,54.15,54.16,54.18,54.17,54.16,54.17,54.17,54.15,54.16,54.20,54.21,54.19,54.21,54.21,54.24,54.25,54.22,54.25,54.27,54.25,54.19,54.19,54.19,54.19,54.20,54.20,54.19,54.16,54.15,54.19,54.19,54.13,54.11,54.15,54.27,54.24,54.12,53.98,53.90,53.90,53.68,53.53,e,e,e,e,e,53.50,53.51,53.49,53.49,53.49,53.39,53.14,52.92,52.74,52.45,52.38,52.33,52.29,52.29,52.34,52.30,52.37,52.54,52.46,52.28,52.20,52.18,52.13,52.15,52.22,52.32,52.41,52.49,52.59,52.65,52.61,52.45,52.47,52.53,52.60,52.67,52.69,52.70,52.73,52.74,52.68,52.69,52.67,52.57,52.32,52.45,52.49,52.45,52.38,52.33,52.38,52.47,52.62,52.90,53.07,53.21,53.24,53.13,53.17,53.22,53.23,53.20,53.22,53.31,53.30,53.23,53.21,53.13,53.03,52.98,53.05,53.18,53.19,53.19,53.20,53.16,53.16,53.15,53.14,53.13,53.18,53.26,53.35,53.45,53.55,53.74,54.20,54.95
55.30,55.19,55.05,55.04,55.09,55.11,54.84,54.69,54.57,54.45,54.41,54.40,54.41,54.38,54.27,54.25,54.22,54.20,54.21,54.27,54.55,54.93,55.26,55.31,55.25,55.22,55.22,55.24,55.19,55.12,55.00,54.83,54.65,54.63,54.61,54.59,54.53,54.54,54.60,54.65,54.68,54.65,54.55,54.50,54.52,54.65,54.88,54.98,54.99,54.99,55.00,55.00,54.99,54.96,54.91,54.88,54.88,54.91,54.97,55.00,55.00,54.99,55.00,55.00,54.99,54.98,54.93,54.75,54.44,54.26,54.19,54.20,54.22,54.25,54.28,54.27,54.23,54.20,54.16,54.13,54.12,54.16,54.20,54.23,54.25,54.23,54.21,54.20,54.20,54.20,54.20,54.20,54.20,54.20,54.20,54.23,54.24,54.21,54.14,54.15,54.15,54.15,54.19,54.17,54.15,54.13,54.11,54.06,54.03,54.07,54.14,54.12,54.11,54.11,54.11,54.11,54.17,54.15,54.14,54.18,54.19,54.15,54.18,54.26,54.28,54.23,54.24,54.25,54.22,54.26,54.28,54.26,54.23,54.27,54.28,54.29,54.29,54.29,54.29,54.30,54.26,54.21,54.20,54.20,54.20,54.20,54.19,54.19,54.19,54.19,54.21,54.21,54.14,54.13,54.19,54.27,54.28,54.15,53.98,53.89,e,e,e,e,e,e,e,e,e,e,53.44,53.45,53.49,53.40,53.16,52.96,52.81,52.53,52.36,52.30,52.27,52.22,52.29,52.31,52.36,52.45,52.40,52.26,52.20,52.20,52.20,52.24,52.37,52.50,52.60,52.66,52.69,52.68,52.62,52.48,52.42,52.45,52.53,52.60,52.65,52.69,52.70,52.68,52.63,52.63,52.60,52.52,52.41,52.46,52.48,52.45,52.38,52.33,52.36,52.42,52.49,52.63,52.73,52.89,53.02,53.01,53.07,53.12,53.13,53.08,53.11,53.17,53.15,53.09,53.08,52.99,52.91,52.88,52.90,52.93,52.96,53.00,53.03,53.00,53.05,53.06,53.03,53.03,53.10,53.18,53.26,53.32,53.33,53.63,54.34,55.36
55.30,55.26,55.19,55.17,55.17,55.11,54.85,54.75,54.68,54.61,54.58,54.59,54.60,54.56,54.46,54.41,54.33,54.27,54.25,54.30,54.57,54.99,55.36,55.41,55.35,55.28,55.23,55.20,55.14,55.08,54.97,54.84,54.72,54.69,54.67,54.63,54.58,54.60,54.64,54.68,54.69,54.68,54.62,54.56,54.54,54.64,54.83,54.95,55.00,55.02,55.00,55.02,55.02,55.01,54.96,54.93,54.92,54.94,55.01,55.03,55.03,55.03,55.03,55.03,55.04,55.05,55.01,54.89,54.65,54.43,54.27,54.20,54.20,54.24,54.27,54.28,54.25,54.22,54.19,54.17,54.18,54.17,54.16,54.17,54.20,54.21,54.20,54.18,54.16,54.15,54.15,54.15,54.15,54.16,54.17,54.16,54.15,54.15,54.12,54.13,54.13,54.13,54.15,54.16,54.14,54.12,54.11,54.11,54.11,54.12,54.13,54.11,54.13,54.14,54.14,54.16,54.19,54.20,54.22,54.24,54.24,54.19,54.20,54.23,54.25,54.22,54.24,54.25,54.22,54.27,54.29,54.27,54.22,54.24,54.28,54.30,54.30,54.30,54.30,54.30,54.27,54.21,54.20,54.20,54.20,54.19,54.16,54.15,54.14,54.17,54.22,54.25,54.13,54.08,54.11,54.18,54.25,54.16,54.02,e,e,e,e,e,e,e,e,e,e,e,e,e,53.49,53.41,53.23,53.04,52.85,52.63,52.44,52.36,52.34,52.28,52.33,52.32,52.34,52.40,52.39,52.29,52.22,52.20,52.21,52.29,52.47,52.62,52.67,52.70,52.70,52.67,52.62,52.50,52.39,52.40,52.49,52.59,52.70,52.72,52.71,52.68,52.64,52.58,52.51,52.45,52.39,52.43,52.43,52.41,52.36,52.32,52.33,52.39,52.48,52.60,52.67,52.79,52.90,52.91,52.94,53.00,53.02,52.96,52.99,53.03,52.98,52.91,52.95,52.90,52.87,52.86,52.85,52.81,52.80,52.83,52.87,52.86,52.91,52.92,52.90,52.87,52.93,53.03,53.11,53.14,53.17,53.49,54.16,55.13
55.26,55.29,55.28,55.26,55.20,55.05,54.84,54.78,54.76,54.74,54.72,54.78,54.83,54.82,54.76,54.67,54.54,54.43,54.38,54.40,54.64,55.01,55.33,55.34,55.32,55.27,55.21,55.16,55.12,55.06,54.97,54.85,54.77,54.73,54.68,54.64,54.60,54.64,54.68,54.70,54.69,54.68,54.64,54.59,54.56,54.62,54.78,54.91,55.01,55.05,55.01,55.03,55.05,55.05,55.01,54.97,54.95,54.97,55.02,55.04,55.06,55.06,55.05,55.05,55.08,55.10,55.09,55.02,54.85,54.60,54.35,54.20,54.20,54.22,54.24,54.25,54.24,54.21,54.19,54.19,54.22,54.17,54.13,54.11,54.15,54.17,54.18,54.16,54.13,54.11,54.11,54.12,54.14,54.14,54.16,54.11,54.09,54.10,54.11,54.12,54.13,54.13,54.13,54.17,54.16,54.14,54.14,54.18,54.19,54.17,54.13,54.10,54.15,54.17,54.18,54.21,54.21,54.26,54.29,54.29,54.27,54.24,54.21,54.20,54.20,54.20,54.23,54.24,54.22,54.27,54.29,54.27,54.22,54.20,54.26,54.29,54.30,54.30,54.30,54.30,54.27,54.21,54.20,54.20,54.20,54.19,54.15,54.12,54.10,54.13,54.21,54.28,54.12,54.02,54.03,54.09,54.20,54.15,54.06,e,e,e,e,e,e,e,e,e,e,e,e,e,53.49,53.42,53.30,53.12,52.90,52.71,52.54,52.48,52.45,52.37,52.40,52.34,52.32,52.36,52.39,52.33,52.26,52.21,52.21,52.30,52.53,52.70,52.71,52.70,52.69,52.67,52.61,52.52,52.37,52.37,52.46,52.58,52.73,52.75,52.72,52.68,52.66,52.53,52.43,52.38,52.35,52.39,52.39,52.36,52.32,52.31,52.32,52.38,52.47,52.59,52.66,52.74,52.80,52.81,52.81,52.88,52.90,52.85,52.88,52.91,52.83,52.74,52.82,52.81,52.83,52.84,52.81,52.72,52.67,52.67,52.72,52.75,52.77,52.77,52.76,52.72,52.76,52.88,52.96,52.97,53.02,53.34,53.89,54.69
55.28,55.29,55.28,55.24,55.14,54.96,54.81,54.75,54.72,54.72,54.74,54.90,55.09,55.24,55.27,55.20,54.99,54.80,54.70,54.71,54.81,54.89,54.89,54.76,54.86,54.99,55.09,55.13,55.16,55.11,55.00,54.87,54.80,54.77,54.70,54.63,54.62,54.65,54.68,54.69,54.66,54.59,54.54,54.52,54.52,54.60,54.76,54.90,55.00,55.05,55.00,55.01,55.05,55.08,55.04,55.00,54.97,54.96,54.96,55.00,55.06,55.08,55.06,55.06,55.09,55.11,55.11,55.09,54.99,54.71,54.39,54.18,54.18,54.18,54.18,54.15,54.11,54.11,54.12,54.13,54.15,54.13,54.11,54.10,54.11,54.12,54.13,54.14,54.16,54.16,54.17,54.20,54.23,54.22,54.25,54.19,54.14,54.13,54.12,54.15,54.17,54.18,54.18,54.19,54.19,54.19,54.18,54.19,54.20,54.18,54.14,54.11,54.14,54.18,54.22,54.24,54.24,54.27,54.28,54.26,54.23,54.23,54.22,54.21,54.20,54.20,54.21,54.21,54.21,54.27,54.29,54.28,54.24,54.21,54.24,54.27,54.29,54.30,54.30,54.30,54.27,54.21,54.20,54.20,54.20,54.20,54.19,54.16,54.12,54.11,54.14,54.23,54.13,54.01,53.96,54.08,54.15,54.09,54.02,e,e,e,e,e,e,e,e,e,e,e,e,e,53.50,53.45,53.34,53.16,52.94,52.76,52.69,52.68,52.65,52.52,52.51,52.36,52.31,52.39,52.40,52.38,52.31,52.24,52.20,52.25,52.48,52.69,52.74,52.71,52.69,52.66,52.60,52.51,52.37,52.36,52.44,52.52,52.66,52.71,52.69,52.64,52.62,52.50,52.40,52.36,52.33,52.38,52.37,52.32,52.27,52.31,52.35,52.39,52.46,52.55,52.63,52.70,52.73,52.72,52.70,52.75,52.78,52.76,52.80,52.84,52.76,52.64,52.66,52.66,52.72,52.78,52.76,52.65,52.58,52.58,52.63,52.66,52.63,52.63,52.64,52.62,52.63,52.73,52.82,52.86,52.92,53.18,53.53,54.00
55.24,55.24,55.24,55.18,55.07,54.91,54.82,54.78,54.76,54.76,54.74,54.92,55.19,55.42,55.48,55.38,55.22,55.06,54.96,54.97,55.00,54.95,54.82,54.66,54.77,54.92,55.04,55.09,55.12,55.08,54.98,54.85,54.77,54.71,54.62,54.56,54.57,54.62,54.64,54.65,54.62,54.55,54.49,54.49,54.57,54.68,54.80,54.91,54.99,55.04,55.02,55.03,55.05,55.08,55.06,55.01,54.97,54.94,54.91,54.97,55.05,55.09,55.08,55.08,55.10,55.13,55.14,55.13,55.05,54.76,54.40,54.14,54.13,54.13,54.13,54.12,54.09,54.10,54.11,54.12,54.12,54.12,54.11,54.10,54.10,54.10,54.12,54.16,54.19,54.22,54.25,54.29,54.31,54.28,54.27,54.20,54.14,54.12,54.11,54.15,54.18,54.20,54.20,54.20,54.20,54.20,54.20,54.20,54.20,54.19,54.16,54.10,54.13,54.18,54.22,54.25,54.25,54.27,54.28,54.26,54.24,54.25,54.24,54.21,54.20,54.20,54.20,54.20,54.21,54.27,54.29,54.29,54.26,54.22,54.22,54.26,54.29,54.30,54.30,54.30,54.27,54.21,54.20,54.20,54.20,54.20,54.20,54.18,54.15,54.13,54.14,54.21,54.13,54.03,53.97,54.08,54.11,54.10,53.92,e,e,e,e,e,e,e,e,e,e,e,e,e,53.53,53.48,53.38,53.19,52.95,52.79,52.76,52.76,52.72,52.62,52.60,52.43,52.34,52.39,52.37,52.39,52.35,52.28,52.20,52.23,52.39,52.56,52.66,52.63,52.62,52.58,52.51,52.43,52.37,52.36,52.40,52.47,52.57,52.61,52.59,52.52,52.48,52.38,52.34,52.33,52.32,52.37,52.35,52.31,52.27,52.31,52.36,52.41,52.46,52.57,52.64,52.66,52.65,52.61,52.61,52.67,52.69,52.66,52.68,52.73,52.67,52.56,52.56,52.56,52.61,52.65,52.63,52.53,52.48,52.48,52.51,52.53,52.50,52.50,52.51,52.50,52.52,52.60,52.68,52.75,52.84,53.01,53.21,53.45
55.16,55.16,55.17,55.11,55.00,54.88,54.85,54.85,54.84,54.81,54.74,54.90,55.21,55.48,55.52,55.39,55.32,55.26,55.18,55.21,55.19,55.09,54.93,54.81,54.87,54.96,55.02,55.05,55.05,55.01,54.93,54.81,54.70,54.59,54.50,54.45,54.49,54.56,54.57,54.58,54.58,54.52,54.45,54.50,54.65,54.82,54.88,54.94,54.99,55.02,55.04,55.05,55.06,55.07,55.08,55.03,54.97,54.92,54.88,54.95,55.04,55.10,55.10,55.10,55.12,55.15,55.17,55.15,55.07,54.76,54.38,54.10,54.08,54.08,54.10,54.13,54.12,54.12,54.12,54.12,54.12,54.12,54.11,54.10,54.10,54.10,54.14,54.19,54.23,54.28,54.34,54.38,54.38,54.32,54.25,54.17,54.12,54.10,54.10,54.15,54.18,54.20,54.20,54.20,54.20,54.20,54.20,54.20,54.20,54.20,54.17,54.08,54.11,54.16,54.20,54.25,54.24,54.26,54.28,54.28,54.27,54.28,54.26,54.22,54.20,54.20,54.20,54.20,54.21,54.27,54.29,54.30,54.29,54.22,54.21,54.25,54.29,54.30,54.30,54.30,54.27,54.21,54.20,54.20,54.20,54.20,54.20,54.20,54.19,54.18,54.18,54.19,54.14,54.06,54.01,54.09,54.10,54.13,53.82,52.89,52.65,52.53,52.49,e,e,e,e,e,e,e,e,e,53.57,53.51,53.42,53.22,52.96,52.81,52.80,52.76,52.72,52.69,52.68,52.51,52.39,52.38,52.33,52.37,52.39,52.33,52.21,52.21,52.28,52.39,52.51,52.51,52.50,52.45,52.38,52.32,52.36,52.35,52.35,52.42,52.48,52.49,52.46,52.38,52.30,52.25,52.26,52.30,52.32,52.36,52.34,52.30,52.30,52.32,52.37,52.42,52.47,52.60,52.65,52.61,52.55,52.50,52.54,52.61,52.63,52.56,52.55,52.60,52.58,52.50,52.50,52.50,52.50,52.49,52.45,52.40,52.39,52.38,52.38,52.38,52.38,52.38,52.38,52.38,52.41,52.46,52.54,52.63,52.75,52.83,52.91,52.98
55.05,55.07,55.13,55.09,55.00,54.88,54.85,54.85,54.84,54.81,54.74,54.92,55.22,55.47,55.51,55.35,55.29,55.27,55.26,55.21,55.15,55.07,54.98,54.92,54.95,54.99,55.01,55.01,55.00,54.99,54.94,54.86,54.76,54.62,54.49,54.39,54.36,54.39,54.39,54.42,54.47,54.46,54.44,54.53,54.72,54.93,54.99,55.01,55.01,55.01,55.02,55.03,55.06,55.11,55.12,55.06,55.00,54.96,54.93,54.99,55.06,55.10,55.10,55.10,55.13,55.16,55.19,55.18,55.03,54.70,54.34,54.10,54.11,54.13,54.14,54.14,54.12,54.13,54.13,54.12,54.11,54.11,54.10,54.10,54.10,54.10,54.14,54.18,54.22,54.26,54.34,54.38,54.38,54.32,54.25,54.19,54.15,54.12,54.10,54.15,54.18,54.20,54.20,54.20,54.20,54.20,54.20,54.20,54.17,54.15,54.12,54.05,54.05,54.08,54.14,54.21,54.25,54.28,54.29,54.29,54.29,54.29,54.26,54.22,54.20,54.20,54.20,54.20,54.20,54.22,54.27,54.29,54.29,54.22,54.21,54.24,54.29,54.30,54.30,54.30,54.27,54.21,54.20,54.20,54.20,54.20,54.20,54.20,54.20,54.19,54.19,54.15,54.12,54.09,54.08,54.15,54.08,54.14,53.81,52.65,e,e,e,e,e,e,e,e,e,e,e,e,53.52,53.45,53.33,53.16,52.97,52.87,52.82,52.79,52.78,52.76,52.71,52.59,52.45,52.33,52.31,52.37,52.39,52.36,52.27,52.23,52.25,52.33,52.44,52.43,52.39,52.35,52.30,52.24,52.25,52.29,52.34,52.42,52.48,52.50,52.46,52.38,52.32,52.32,52.32,52.30,52.29,52.31,52.30,52.29,52.30,52.32,52.36,52.39,52.41,52.46,52.49,52.50,52.48,52.42,52.47,52.54,52.56,52.49,52.48,52.53,52.53,52.49,52.50,52.49,52.48,52.45,52.39,52.34,52.32,52.30,52.29,52.28,52.29,52.28,52.26,52.27,52.28,52.28,52.30,52.35,52.42,52.48,52.55,52.63
54.94,54.97,55.04,55.03,54.96,54.88,54.83,54.84,54.84,54.81,54.77,54.94,55.20,55.41,55.44,55.29,55.24,55.24,55.24,55.17,55.10,55.04,55.00,54.99,55.00,55.00,55.00,54.99,54.94,54.93,54.91,54.86,54.78,54.62,54.47,54.36,54.29,54.30,54.31,54.35,54.42,54.42,54.47,54.61,54.81,54.98,55.04,55.06,55.05,55.03,55.03,55.04,55.08,55.13,55.14,55.09,55.04,55.02,55.00,55.04,55.08,55.10,55.10,55.10,55.12,55.16,55.18,55.18,54.97,54.61,54.27,54.09,54.13,54.16,54.17,54.14,54.13,54.15,54.15,54.12,54.10,54.10,54.10,54.10,54.10,54.12,54.14,54.17,54.20,54.26,54.33,54.38,54.38,54.33,54.25,54.21,54.17,54.13,54.10,54.15,54.18,54.20,54.20,54.20,54.20,54.20,54.20,54.20,54.15,54.13,54.11,54.06,54.04,54.07,54.14,54.22,54.27,54.29,54.30,54.31,54.31,54.32,54.29,54.24,54.21,54.20,54.20,54.21,54.22,54.20,54.25,54.29,54.29,54.22,54.21,54.24,54.29,54.30,54.30,54.30,54.27,54.21,54.20,54.20,54.20,54.20,54.20,54.20,54.20,54.20,54.19,54.12,54.09,54.08,54.10,54.19,54.14,54.18,53.82,52.69,e,e,e,e,e,e,e,e,e,e,e,e,53.49,53.44,53.33,53.15,52.95,52.90,52.85,52.84,52.83,52.81,52.75,52.64,52.48,52.31,52.31,52.34,52.37,52.37,52.33,52.27,52.27,52.31,52.38,52.37,52.31,52.26,52.22,52.18,52.16,52.22,52.30,52.37,52.43,52.45,52.42,52.35,52.32,52.33,52.31,52.26,52.24,52.24,52.24,52.26,52.28,52.29,52.32,52.34,52.34,52.35,52.39,52.42,52.42,52.36,52.42,52.48,52.48,52.42,52.41,52.44,52.45,52.44,52.46,52.45,52.42,52.39,52.34,52.28,52.26,52.25,52.24,52.21,52.22,52.21,52.19,52.20,52.20,52.18,52.17,52.18,52.20,52.23,52.28,52.36
54.84,54.86,54.92,54.90,54.87,54.85,54.78,54.82,54.84,54.80,54.81,54.94,55.13,55.29,55.32,55.21,55.16,55.13,55.13,55.09,55.04,55.01,55.00,55.00,55.00,55.00,54.99,54.97,54.89,54.85,54.83,54.81,54.75,54.59,54.46,54.35,54.30,54.30,54.34,54.39,54.44,54.41,54.55,54.75,54.93,54.95,55.03,55.07,55.09,55.09,55.09,55.09,55.12,55.15,55.15,55.11,55.09,55.09,55.09,55.09,55.10,55.10,55.10,55.10,55.10,55.13,55.15,55.15,54.88,54.51,54.19,54.07,54.14,54.18,54.18,54.14,54.16,54.18,54.17,54.13,54.10,54.10,54.10,54.10,54.11,54.15,54.15,54.15,54.19,54.26,54.33,54.38,54.38,54.33,54.25,54.21,54.17,54.13,54.10,54.15,54.18,54.20,54.20,54.20,54.20,54.20,54.20,54.20,54.15,54.14,54.15,54.11,54.10,54.13,54.20,54.28,54.29,54.30,54.31,54.32,54.32,54.36,54.35,54.29,54.22,54.20,54.20,54.22,54.25,54.22,54.25,54.29,54.29,54.22,54.21,54.24,54.29,54.30,54.30,54.30,54.27,54.21,54.20,54.20,54.20,54.20,54.20,54.20,54.20,54.19,54.18,54.12,54.06,54.04,54.07,54.20,54.27,54.24,53.88,53.08,e,e,e,e,e,e,e,e,e,e,53.50,53.49,53.47,53.47,53.41,53.19,52.91,52.90,52.90,52.89,52.88,52.83,52.79,52.65,52.47,52.32,52.30,52.30,52.34,52.37,52.38,52.32,52.33,52.34,52.33,52.32,52.25,52.19,52.15,52.12,52.09,52.13,52.21,52.26,52.30,52.35,52.34,52.28,52.28,52.27,52.24,52.20,52.17,52.16,52.17,52.19,52.23,52.24,52.24,52.24,52.26,52.29,52.34,52.38,52.37,52.32,52.37,52.41,52.41,52.36,52.35,52.33,52.33,52.35,52.39,52.35,52.33,52.30,52.28,52.24,52.23,52.23,52.23,52.19,52.17,52.16,52.17,52.18,52.17,52.16,52.16,52.14,52.10,52.08,52.11,52.17
54.87,54.88,54.90,54.90,54.90,54.91,54.85,54.87,54.87,54.84,54.80,54.82,54.90,55.00,55.06,55.01,55.02,55.04,55.03,55.00,54.97,54.96,54.98,54.98,54.98,54.95,54.94,54.92,54.86,54.81,54.77,54.74,54.65,54.53,54.41,54.33,54.31,54.33,54.38,54.42,54.43,54.39,54.58,54.78,54.92,54.93,55.04,55.07,55.06,55.04,55.05,55.07,55.10,55.12,55.12,55.12,55.14,55.15,55.13,55.09,55.08,55.09,55.10,55.10,55.10,55.11,55.11,55.08,54.80,54.45,54.18,54.11,54.16,54.17,54.17,54.16,54.18,54.19,54.19,54.16,54.12,54.10,54.10,54.10,54.11,54.15,54.17,54.18,54.20,54.26,54.31,54.35,54.37,54.33,54.25,54.21,54.17,54.13,54.10,54.15,54.18,54.20,54.20,54.20,54.20,54.20,54.20,54.20,54.17,54.14,54.13,54.11,54.10,54.14,54.21,54.32,54.33,54.34,54.36,54.36,54.36,54.38,54.37,54.31,54.23,54.21,54.20,54.21,54.22,54.21,54.25,54.29,54.29,54.22,54.21,54.24,54.29,54.30,54.30,54.30,54.27,54.21,54.20,54.20,54.20,54.20,54.20,54.20,54.19,54.16,54.11,54.11,54.10,54.08,54.10,54.22,54.30,54.27,54.07,53.67,e,e,e,e,e,e,e,e,e,e,e,e,53.43,53.40,53.41,53.23,52.93,52.90,52.92,52.93,52.91,52.86,52.75,52.64,52.51,52.35,52.28,52.29,52.31,52.34,52.36,52.31,52.29,52.28,52.25,52.22,52.17,52.12,52.08,52.05,52.04,52.06,52.09,52.11,52.13,52.16,52.17,52.15,52.17,52.17,52.16,52.14,52.13,52.12,52.13,52.14,52.17,52.21,52.20,52.21,52.23,52.24,52.28,52.31,52.31,52.27,52.30,52.34,52.35,52.31,52.28,52.25,52.25,52.27,52.29,52.27,52.25,52.22,52.19,52.19,52.20,52.22,52.22,52.19,52.17,52.17,52.18,52.19,52.20,52.20,52.20,52.16,52.12,52.09,52.09,52.10
54.89,54.91,54.91,54.92,54.93,54.93,54.89,54.90,54.90,54.87,54.77,54.68,54.69,54.76,54.84,54.82,54.88,54.92,54.91,54.88,54.85,54.87,54.90,54.92,54.92,54.89,54.87,54.87,54.84,54.78,54.73,54.68,54.59,54.50,54.40,54.32,54.32,54.36,54.43,54.45,54.41,54.39,54.61,54.81,54.92,54.93,55.05,55.06,55.01,54.98,55.01,55.04,55.08,55.10,55.10,55.12,55.16,55.17,55.16,55.10,55.07,55.08,55.10,55.10,55.10,55.10,55.09,55.03,54.73,54.41,54.18,54.13,54.15,54.15,54.16,54.18,54.20,54.20,54.20,54.19,54.14,54.11,54.10,54.10,54.11,54.15,54.19,54.20,54.21,54.25,54.29,54.33,54.35,54.33,54.26,54.22,54.17,54.13,54.10,54.15,54.18,54.20,54.20,54.20,54.20,54.20,54.20,54.20,54.18,54.14,54.11,54.10,54.10,54.14,54.22,54.34,54.35,54.38,54.39,54.40,54.40,54.41,54.39,54.33,54.23,54.21,54.20,54.20,54.20,54.20,54.25,54.29,54.29,54.22,54.21,54.24,54.29,54.30,54.30,54.30,54.27,54.21,54.20,54.20,54.20,54.20,54.20,54.19,54.16,54.11,54.07,54.09,54.14,54.13,54.12,54.21,54.29,54.28,54.21,54.13,e,e,e,e,e,e,e,e,e,e,e,e,53.38,53.33,53.38,53.24,52.96,52.90,52.94,52.95,52.94,52.88,52.72,52.63,52.52,52.37,52.26,52.28,52.30,52.31,52.33,52.30,52.26,52.21,52.18,52.13,52.09,52.06,52.02,52.00,52.00,52.00,52.00,52.00,52.02,52.03,52.04,52.06,52.11,52.11,52.11,52.11,52.12,52.12,52.13,52.14,52.15,52.18,52.19,52.21,52.24,52.24,52.26,52.27,52.26,52.21,52.24,52.27,52.29,52.26,52.21,52.20,52.22,52.23,52.25,52.24,52.22,52.19,52.15,52.17,52.21,52.23,52.22,52.20,52.20,52.21,52.21,52.21,52.23,52.25,52.24,52.21,52.17,52.14,52.11,52.08
54.85,54.92,54.97,54.96,54.90,54.82,54.84,54.90,54.95,54.91,54.73,54.56,54.59,54.71,54.78,54.75,54.75,54.74,54.72,54.67,54.66,54.67,54.70,54.75,54.79,54.79,54.80,54.82,54.83,54.77,54.70,54.65,54.61,54.57,54.47,54.37,54.35,54.42,54.47,54.46,54.40,54.40,54.63,54.85,55.00,55.02,55.07,55.03,54.98,54.96,55.01,55.05,55.08,55.10,55.12,55.11,55.12,55.14,55.15,55.13,55.10,55.09,55.10,55.10,55.10,55.10,55.08,55.02,54.75,54.44,54.19,54.08,54.10,54.13,54.17,54.20,54.20,54.20,54.20,54.19,54.16,54.13,54.11,54.10,54.11,54.15,54.19,54.20,54.21,54.23,54.27,54.31,54.33,54.32,54.25,54.22,54.17,54.13,54.10,54.15,54.18,54.20,54.20,54.20,54.20,54.20,54.20,54.20,54.19,54.16,54.12,54.10,54.10,54.14,54.21,54.31,54.36,54.39,54.40,54.40,54.40,54.43,54.42,54.36,54.24,54.21,54.20,54.20,54.20,54.20,54.25,54.29,54.29,54.22,54.21,54.24,54.29,54.30,54.30,54.30,54.27,54.21,54.20,54.20,54.20,54.20,54.20,54.16,54.10,54.06,54.07,54.10,54.15,54.15,54.11,54.14,54.22,54.23,54.20,54.18,54.16,53.97,53.85,e,e,e,e,e,e,53.40,53.41,53.39,53.33,53.26,53.28,53.17,52.98,52.90,52.92,52.93,52.92,52.88,52.72,52.60,52.49,52.38,52.28,52.29,52.30,52.30,52.31,52.29,52.25,52.20,52.18,52.11,52.05,52.02,52.00,52.00,52.00,52.00,52.00,52.01,52.06,52.08,52.08,52.11,52.16,52.17,52.14,52.13,52.17,52.18,52.22,52.24,52.24,52.20,52.22,52.28,52.35,52.35,52.35,52.30,52.23,52.15,52.20,52.22,52.22,52.19,52.15,52.20,52.26,52.31,52.36,52.34,52.31,52.27,52.27,52.27,52.28,52.27,52.25,52.22,52.26,52.28,52.27,52.25,52.23,52.26,52.29,52.28,52.27,52.25,52.20,52.13
54.66,54.77,54.90,54.94,54.89,54.76,54.81,54.92,54.99,54.96,54.72,54.43,54.47,54.67,54.80,54.79,54.77,54.74,54.71,54.65,54.64,54.62,54.62,54.66,54.70,54.72,54.73,54.74,54.76,54.71,54.66,54.61,54.59,54.57,54.52,54.45,54.42,54.45,54.46,54.43,54.38,54.45,54.71,54.91,55.01,55.04,55.07,55.03,54.98,54.96,55.00,55.01,55.04,55.09,55.11,55.09,55.10,55.12,55.11,55.10,55.10,55.10,55.10,55.10,55.10,55.10,55.08,55.02,54.75,54.44,54.19,54.08,54.10,54.15,54.20,54.23,54.21,54.20,54.20,54.20,54.18,54.14,54.11,54.10,54.11,54.15,54.19,54.20,54.20,54.22,54.26,54.29,54.32,54.31,54.25,54.22,54.18,54.15,54.12,54.15,54.18,54.20,54.20,54.20,54.20,54.20,54.20,54.20,54.20,54.18,54.15,54.11,54.10,54.14,54.20,54.27,54.33,54.37,54.41,54.43,54.44,54.46,54.46,54.41,54.28,54.22,54.20,54.20,54.20,54.20,54.23,54.25,54.25,54.21,54.20,54.24,54.29,54.30,54.30,54.28,54.24,54.20,54.20,54.20,54.20,54.20,54.20,54.12,54.08,54.07,54.09,54.13,54.17,54.16,54.10,54.07,54.17,54.20,54.20,54.20,54.15,53.98,53.84,e,e,e,e,e,e,53.40,53.38,53.34,53.26,53.22,53.20,53.11,52.99,52.94,52.92,52.89,52.86,52.84,52.68,52.59,52.51,52.42,52.34,52.28,52.28,52.31,52.34,52.31,52.27,52.22,52.18,52.11,52.07,52.05,52.04,52.05,52.06,52.08,52.10,52.10,52.08,52.13,52.18,52.20,52.23,52.24,52.22,52.21,52.25,52.29,52.32,52.34,52.33,52.28,52.25,52.30,52.40,52.40,52.38,52.31,52.22,52.13,52.19,52.22,52.23,52.20,52.15,52.20,52.28,52.36,52.43,52.42,52.37,52.33,52.32,52.35,52.37,52.37,52.33,52.27,52.29,52.30,52.28,52.24,52.23,52.26,52.29,52.31,52.35,52.35,52.31,52.23
54.42,54.55,54.76,54.89,54.86,54.70,54.77,54.92,55.02,55.00,54.74,54.32,54.35,54.62,54.85,54.87,54.85,54.81,54.78,54.73,54.70,54.65,54.61,54.62,54.65,54.67,54.67,54.65,54.66,54.64,54.61,54.58,54.54,54.55,54.55,54.54,54.51,54.47,54.43,54.38,54.35,54.51,54.80,54.96,55.00,55.02,55.06,55.04,55.01,54.98,54.97,54.96,55.00,55.06,55.08,55.06,55.07,55.09,55.07,55.06,55.08,55.09,55.09,55.09,55.10,55.10,55.08,55.01,54.75,54.44,54.20,54.09,54.12,54.19,54.25,54.27,54.23,54.21,54.20,54.20,54.20,54.16,54.12,54.10,54.11,54.16,54.19,54.20,54.20,54.20,54.24,54.28,54.30,54.30,54.25,54.22,54.20,54.18,54.14,54.16,54.18,54.20,54.20,54.20,54.20,54.20,54.20,54.20,54.20,54.20,54.18,54.13,54.10,54.13,54.18,54.21,54.27,54.34,54.41,54.47,54.49,54.50,54.50,54.45,54.33,54.25,54.21,54.20,54.20,54.20,54.21,54.21,54.21,54.20,54.20,54.24,54.28,54.30,54.30,54.25,54.21,54.20,54.20,54.20,54.20,54.20,54.19,54.07,54.07,54.10,54.11,54.17,54.19,54.16,54.09,54.02,54.13,54.18,54.18,54.18,54.11,53.98,53.83,53.71,53.70,53.58,53.47,53.41,53.41,53.40,53.35,53.27,53.20,53.20,53.14,53.06,53.00,52.99,52.93,52.85,52.80,52.78,52.64,52.59,52.55,52.48,52.40,52.27,52.26,52.33,52.39,52.33,52.30,52.26,52.18,52.13,52.12,52.11,52.11,52.13,52.15,52.19,52.23,52.22,52.10,52.18,52.28,52.30,52.30,52.31,52.32,52.32,52.33,52.40,52.42,52.42,52.42,52.38,52.29,52.30,52.40,52.41,52.39,52.32,52.22,52.12,52.19,52.24,52.26,52.23,52.17,52.21,52.29,52.38,52.47,52.46,52.42,52.38,52.36,52.42,52.47,52.48,52.42,52.31,52.31,52.30,52.28,52.22,52.23,52.25,52.28,52.32,52.43,52.44,52.41,52.34
54.37,54.43,54.52,54.60,54.59,54.47,54.47,54.66,54.89,55.02,54.79,54.41,54.37,54.54,54.71,54.85,54.91,54.92,54.89,54.82,54.77,54.74,54.71,54.70,54.67,54.65,54.63,54.62,54.62,54.63,54.62,54.60,54.54,54.55,54.56,54.57,54.58,54.49,54.42,54.36,54.36,54.54,54.80,54.95,55.00,55.07,55.09,55.08,55.05,55.02,54.97,54.95,54.97,55.02,55.03,55.02,55.03,55.04,55.06,55.05,55.04,55.03,55.00,55.00,55.04,55.07,55.05,55.00,54.79,54.48,54.22,54.10,54.11,54.17,54.24,54.28,54.24,54.21,54.20,54.20,54.20,54.19,54.15,54.13,54.15,54.18,54.20,54.20,54.20,54.20,54.24,54.28,54.30,54.30,54.25,54.22,54.20,54.19,54.18,54.19,54.20,54.20,54.20,54.20,54.20,54.20,54.20,54.20,54.20,54.20,54.19,54.17,54.10,54.11,54.16,54.20,54.22,54.27,54.34,54.41,54.46,54.49,54.50,54.47,54.35,54.25,54.21,54.20,54.20,54.20,54.20,54.20,54.20,54.20,54.20,54.21,54.24,54.29,54.29,54.25,54.21,54.20,54.20,54.19,54.19,54.16,54.04,54.10,54.13,54.14,54.14,54.12,54.12,54.11,54.10,54.06,54.06,54.03,54.00,53.99,53.92,53.86,53.79,53.71,53.70,53.63,53.55,53.50,53.47,53.43,53.37,53.30,53.25,53.20,53.15,53.10,53.04,52.99,52.94,52.90,52.84,52.74,52.65,52.58,52.53,52.48,52.41,52.33,52.30,52.33,52.40,52.37,52.34,52.28,52.19,52.18,52.17,52.15,52.15,52.24,52.30,52.34,52.37,52.36,52.20,52.12,52.15,52.28,52.31,52.35,52.37,52.37,52.38,52.44,52.47,52.47,52.46,52.41,52.30,52.32,52.44,52.46,52.42,52.33,52.22,52.12,52.12,52.17,52.20,52.17,52.10,52.19,52.29,52.38,52.42,52.43,52.43,52.43,52.42,52.45,52.48,52.47,52.41,52.33,52.32,52.32,52.31,52.26,52.25,52.27,52.32,52.40,52.45,52.42,52.37,52.31
54.37,54.37,54.37,54.41,54.41,54.34,54.31,54.44,54.64,54.79,54.68,54.43,54.36,54.44,54.56,54.76,54.88,54.95,54.95,54.88,54.84,54.82,54.80,54.79,54.74,54.70,54.66,54.64,54.61,54.62,54.63,54.60,54.51,54.53,54.55,54.58,54.62,54.53,54.42,54.36,54.38,54.59,54.81,54.94,54.99,55.06,55.08,55.08,55.07,55.03,54.99,54.97,54.98,55.00,55.02,55.03,55.02,55.03,55.05,55.06,55.05,55.03,55.02,55.03,55.06,55.07,55.06,55.01,54.85,54.56,54.28,54.10,54.11,54.17,54.23,54.27,54.25,54.23,54.21,54.20,54.20,54.20,54.18,54.16,54.18,54.20,54.20,54.20,54.20,54.20,54.24,54.28,54.30,54.30,54.25,54.22,54.20,54.20,54.20,54.20,54.20,54.20,54.20,54.20,54.20,54.20,54.20,54.19,54.20,54.20,54.19,54.17,54.09,54.10,54.14,54.19,54.19,54.22,54.27,54.34,54.41,54.46,54.50,54.48,54.37,54.26,54.21,54.20,54.20,54.20,54.20,54.20,54.19,54.19,54.19,54.19,54.21,54.26,54.25,54.21,54.18,54.18,54.18,54.16,54.16,54.14,54.01,54.12,54.14,54.12,54.12,54.07,54.06,54.07,54.08,54.06,54.05,54.00,53.95,53.94,53.87,53.85,53.82,53.76,53.75,53.70,53.65,53.59,53.50,53.46,53.42,53.38,53.36,53.28,53.23,53.19,53.13,53.07,53.00,52.93,52.85,52.75,52.67,52.59,52.53,52.49,52.41,52.36,52.32,52.32,52.38,52.39,52.37,52.30,52.21,52.19,52.19,52.20,52.22,52.32,52.39,52.43,52.43,52.40,52.25,52.09,52.08,52.26,52.31,52.36,52.39,52.41,52.43,52.45,52.46,52.47,52.46,52.39,52.30,52.33,52.46,52.49,52.45,52.35,52.23,52.14,52.11,52.14,52.16,52.12,52.05,52.16,52.29,52.38,52.40,52.41,52.43,52.44,52.45,52.46,52.47,52.45,52.41,52.36,52.33,52.32,52.32,52.29,52.28,52.32,52.38,52.45,52.46,52.39,52.32,52.26
54.39,54.38,54.32,54.31,54.31,54.30,54.28,54.25,54.25,54.32,54.42,54.38,54.34,54.33,54.39,54.61,54.78,54.90,54.96,54.91,54.90,54.89,54.89,54.89,54.87,54.82,54.77,54.72,54.63,54.63,54.62,54.58,54.45,54.49,54.52,54.56,54.62,54.58,54.45,54.37,54.41,54.63,54.83,54.93,54.97,55.01,55.04,55.06,55.05,55.01,55.01,55.01,55.00,55.01,55.04,55.07,55.06,55.04,55.05,55.09,55.10,55.11,55.13,55.16,55.15,55.12,55.09,55.04,54.94,54.68,54.36,54.11,54.13,54.16,54.20,54.24,54.27,54.26,54.23,54.21,54.20,54.20,54.20,54.20,54.20,54.20,54.20,54.20,54.20,54.20,54.24,54.27,54.29,54.30,54.25,54.22,54.20,54.20,54.20,54.20,54.20,54.20,54.20,54.20,54.20,54.20,54.20,54.18,54.19,54.19,54.17,54.13,54.09,54.09,54.11,54.17,54.18,54.18,54.20,54.26,54.34,54.41,54.49,54.50,54.39,54.27,54.21,54.20,54.20,54.20,54.20,54.19,54.17,54.16,54.16,54.16,54.18,54.21,54.18,54.15,54.14,54.15,54.14,54.09,54.11,54.13,54.10,54.13,54.09,54.05,54.04,54.01,54.00,54.02,54.05,54.02,54.09,54.07,54.03,54.03,53.95,53.93,53.91,53.87,53.84,53.80,53.77,53.69,53.51,53.50,53.49,53.50,53.53,53.45,53.37,53.32,53.28,53.24,53.10,52.95,52.84,52.79,52.72,52.64,52.56,52.49,52.41,52.36,52.32,52.31,52.35,52.39,52.39,52.34,52.24,52.17,52.19,52.25,52.32,52.36,52.43,52.44,52.41,52.34,52.27,52.09,52.06,52.23,52.30,52.34,52.38,52.42,52.46,52.45,52.42,52.40,52.42,52.33,52.28,52.33,52.46,52.50,52.47,52.37,52.25,52.18,52.14,52.15,52.14,52.09,52.04,52.14,52.27,52.38,52.40,52.40,52.41,52.42,52.45,52.47,52.45,52.42,52.42,52.42,52.33,52.30,52.30,52.30,52.33,52.40,52.47,52.49,52.46,52.36,52.26,52.19
54.40,54.38,54.33,54.31,54.30,54.29,54.25,54.22,54.20,54.21,54.23,54.23,54.22,54.22,54.25,54.44,54.65,54.81,54.89,54.90,54.92,54.92,54.90,54.90,54.89,54.87,54.84,54.79,54.73,54.70,54.68,54.64,54.55,54.53,54.53,54.52,54.51,54.48,54.40,54.37,54.48,54.75,54.92,55.01,55.04,55.06,55.08,55.09,55.07,55.04,55.05,55.05,55.04,55.03,55.04,55.04,55.01,54.99,55.03,55.08,55.10,55.11,55.12,55.13,55.14,55.12,55.09,55.03,54.97,54.75,54.44,54.15,54.11,54.12,54.15,54.19,54.23,54.24,54.23,54.21,54.20,54.20,54.20,54.20,54.20,54.22,54.21,54.21,54.22,54.21,54.22,54.25,54.28,54.30,54.25,54.22,54.20,54.20,54.20,54.20,54.20,54.20,54.20,54.20,54.20,54.19,54.18,54.16,54.19,54.20,54.17,54.12,54.09,54.08,54.11,54.17,54.14,54.14,54.15,54.17,54.23,54.27,54.32,54.34,54.26,54.20,54.17,54.16,54.14,54.16,54.18,54.18,54.17,54.16,54.16,54.16,54.17,54.18,54.17,54.14,54.15,54.18,54.17,54.13,54.13,54.16,54.17,54.20,54.18,54.14,54.11,54.08,54.05,54.03,54.03,54.04,54.19,54.21,54.18,54.17,54.12,54.09,54.06,54.04,53.98,53.93,53.87,53.75,53.51,53.53,53.57,53.59,53.57,53.53,53.46,53.39,53.32,53.24,53.12,52.97,52.83,52.75,52.67,52.62,52.58,52.53,52.45,52.39,52.36,52.35,52.37,52.42,52.39,52.28,52.15,52.16,52.20,52.28,52.38,52.42,52.43,52.42,52.38,52.32,52.28,52.15,52.06,52.08,52.28,52.32,52.36,52.41,52.43,52.38,52.33,52.31,52.32,52.20,52.21,52.29,52.39,52.45,52.46,52.37,52.25,52.18,52.14,52.16,52.14,52.08,52.03,52.11,52.22,52.31,52.35,52.36,52.38,52.41,52.42,52.44,52.42,52.41,52.38,52.24,52.01,52.08,52.28,52.34,52.42,52.49,52.51,52.47,52.42,52.33,52.24,52.19
