72.80,72.82,72.83,72.80,72.81,72.83,72.83,72.80,72.83,72.87,72.90,72.90,72.90,72.90,72.90,72.90,72.90,72.90,72.90,72.90,72.90,72.90,72.90,72.87,72.84,72.87,72.88,72.85,72.84,72.88,72.90,72.86,72.83,72.77,72.62,72.51,72.40,72.35,72.39,72.42,72.43,72.46,72.52,72.55,72.69,72.86,73.07,73.30,73.50,73.70,73.88,74.07,74.42,74.56,74.73,75.06,75.66,75.91,76.00,76.02,76.02,76.06,76.13,76.11,76.01,75.99,75.93,75.86,75.80,75.79,75.79,75.74,75.70,75.71,75.79,75.75,75.68,75.59,75.45,75.44,75.38,75.28,75.14,75.20,75.22,75.15,75.02,74.88,74.86,74.85,74.80,74.60,74.46,74.36,74.32,74.29,74.21,74.09,73.98,73.89,73.82,73.88,73.92,73.95,74.00,74.00,73.96,73.99,74.10,74.10,74.04,74.02,74.05,74.10,74.04,74.07,74.12,74.12,74.14,74.19,74.22,74.25,74.30,74.31,74.32,74.35,74.40,74.42,74.47,74.51,74.53,74.58,74.56,74.58,74.64,74.69,74.70,74.71,74.75,74.82,74.85,74.81,74.79,74.79,74.81,74.85,74.89,74.93,74.98,74.97,74.98,74.98,74.99,75.00,75.00,75.01,75.04,75.10,75.10,75.10,75.10,75.11,75.14,75.16,75.16,75.14,75.13,75.11,75.08,75.05,75.05,75.05,75.05,75.04,75.04,75.03,74.99,74.95,74.95,74.98,74.99,75.00,75.01,75.00,75.00,75.02,75.00,74.97,74.95,74.90,74.85,74.81,74.81,74.88,74.94,74.97,74.97,74.98,74.95,74.91,74.88,74.88,74.77,74.69,74.66,74.67,74.72,74.78,74.81,74.79,74.75,74.73,74.70,74.68,74.66,74.66,74.63,74.59,74.56,74.55,74.55,74.55,74.54,74.51,74.49,74.47,74.46,74.44,74.41,74.38,74.37,74.39,74.40,74.40,74.39,74.35,74.29,74.29,74.34,74.37,74.35,74.34,74.33,74.32,74.32,74.36,74.35,74.36,74.38,74.42,74.46,74.48,74.48,74.47,74.47,74.46
72.69,72.71,72.71,72.69,72.70,72.71,72.71,72.70,72.71,72.78,72.84,72.89,72.90,72.90,72.90,72.90,72.90,72.87,72.86,72.86,72.89,72.90,72.90,72.87,72.82,72.79,72.78,72.81,72.84,72.86,72.88,72.80,72.78,72.75,72.48,72.39,72.34,72.33,72.38,72.40,72.41,72.40,72.40,72.40,72.48,72.58,72.71,72.91,73.10,73.32,73.55,73.75,73.95,74.06,74.15,74.40,75.04,75.29,75.46,75.58,75.67,75.66,75.84,75.95,75.92,75.88,75.89,75.88,75.84,75.80,75.76,75.71,75.67,75.63,75.58,75.51,75.46,75.39,75.25,75.24,75.13,75.01,74.94,74.97,74.91,74.80,74.68,74.60,74.59,74.54,74.44,74.31,74.23,74.16,74.10,74.06,74.03,73.97,73.93,73.88,73.81,73.84,73.86,73.88,73.94,73.94,73.92,73.94,74.00,74.03,74.02,74.03,74.06,74.08,74.07,74.10,74.14,74.16,74.19,74.20,74.22,74.27,74.32,74.31,74.32,74.35,74.39,74.41,74.44,74.47,74.51,74.54,74.55,74.57,74.59,74.59,74.61,74.65,74.72,74.78,74.80,74.77,74.77,74.78,74.80,74.83,74.87,74.90,74.91,74.89,74.92,74.96,75.01,75.07,75.11,75.14,75.17,75.21,75.19,75.18,75.16,75.13,75.16,75.21,75.26,75.28,75.25,75.21,75.18,75.16,75.18,75.18,75.16,75.16,75.18,75.21,75.23,75.24,75.23,75.20,75.21,75.21,75.19,75.14,75.15,75.17,75.17,75.12,75.06,74.97,74.89,74.83,74.83,74.89,74.92,74.95,74.97,75.00,74.97,74.93,74.89,74.87,74.75,74.68,74.66,74.71,74.79,74.85,74.87,74.84,74.81,74.79,74.77,74.77,74.84,74.87,74.80,74.72,74.67,74.64,74.64,74.65,74.64,74.61,74.56,74.53,74.50,74.46,74.43,74.42,74.41,74.40,74.38,74.37,74.38,74.37,74.30,74.27,74.27,74.28,74.28,74.29,74.27,74.25,74.23,74.26,74.26,74.25,74.25,74.27,74.29,74.30,74.29,74.29,74.33,74.35
72.58,72.58,72.58,72.58,72.58,72.58,72.57,72.57,72.57,72.65,72.74,72.81,72.83,72.82,72.82,72.83,72.82,72.77,72.73,72.73,72.76,72.78,72.77,72.75,72.71,72.65,72.63,72.69,72.73,72.73,72.76,72.65,72.64,72.63,72.33,72.29,72.29,72.33,72.38,72.40,72.40,72.37,72.32,72.30,72.35,72.37,72.42,72.56,72.71,72.94,73.19,73.40,73.48,73.57,73.63,73.81,74.38,74.62,74.84,75.05,75.22,75.24,75.48,75.69,75.75,75.73,75.80,75.84,75.84,75.80,75.72,75.67,75.62,75.54,75.41,75.31,75.26,75.22,75.11,75.08,74.95,74.83,74.80,74.80,74.69,74.56,74.46,74.42,74.41,74.32,74.21,74.14,74.10,74.05,73.99,73.93,73.93,73.91,73.90,73.87,73.81,73.83,73.83,73.84,73.90,73.90,73.90,73.91,73.93,74.00,74.01,74.05,74.08,74.08,74.11,74.14,74.17,74.21,74.25,74.22,74.24,74.31,74.34,74.33,74.34,74.36,74.40,74.43,74.43,74.45,74.50,74.49,74.52,74.53,74.53,74.51,74.55,74.62,74.70,74.74,74.76,74.77,74.79,74.81,74.83,74.84,74.86,74.87,74.84,74.84,74.89,74.97,75.06,75.17,75.25,75.30,75.33,75.36,75.32,75.29,75.24,75.17,75.18,75.26,75.35,75.39,75.34,75.30,75.27,75.26,75.27,75.27,75.25,75.25,75.29,75.35,75.43,75.48,75.48,75.40,75.40,75.39,75.34,75.27,75.28,75.29,75.28,75.23,75.13,75.02,74.92,74.85,74.85,74.89,74.90,74.92,74.96,75.00,74.97,74.94,74.90,74.85,74.74,74.68,74.68,74.75,74.85,74.91,74.92,74.89,74.86,74.83,74.82,74.88,75.03,75.08,74.97,74.84,74.77,74.72,74.72,74.73,74.74,74.71,74.64,74.60,74.57,74.52,74.49,74.49,74.49,74.45,74.40,74.37,74.38,74.39,74.34,74.29,74.25,74.24,74.25,74.25,74.23,74.19,74.17,74.19,74.19,74.16,74.14,74.15,74.15,74.16,74.15,74.13,74.19,74.23
72.47,72.44,72.43,72.43,72.43,72.43,72.43,72.42,72.42,72.46,72.52,72.58,72.60,72.57,72.57,72.59,72.60,72.51,72.43,72.39,72.38,72.39,72.36,72.37,72.40,72.38,72.36,72.37,72.39,72.39,72.39,72.33,72.31,72.29,72.19,72.26,72.30,72.34,72.40,72.40,72.40,72.37,72.32,72.30,72.31,72.32,72.31,72.30,72.39,72.56,72.75,72.89,72.97,73.06,73.19,73.38,73.69,73.90,74.12,74.36,74.58,74.78,75.02,75.25,75.42,75.51,75.62,75.71,75.76,75.75,75.69,75.60,75.51,75.43,75.36,75.27,75.19,75.13,75.10,75.04,74.95,74.86,74.80,74.80,74.71,74.62,74.55,74.46,74.42,74.35,74.26,74.19,74.09,74.06,74.02,73.95,73.95,73.92,73.90,73.87,73.81,73.86,73.86,73.86,73.90,73.90,73.90,73.92,73.96,74.02,74.04,74.06,74.09,74.10,74.13,74.15,74.18,74.23,74.25,74.25,74.28,74.33,74.35,74.37,74.37,74.38,74.46,74.50,74.48,74.46,74.48,74.43,74.43,74.44,74.46,74.50,74.55,74.65,74.71,74.70,74.79,74.86,74.90,74.92,74.92,74.92,74.91,74.88,74.83,74.87,74.96,75.05,75.16,75.31,75.44,75.52,75.55,75.56,75.52,75.47,75.38,75.24,75.20,75.32,75.40,75.41,75.37,75.32,75.29,75.28,75.25,75.25,75.24,75.25,75.28,75.35,75.46,75.55,75.57,75.47,75.47,75.45,75.41,75.35,75.33,75.30,75.25,75.19,75.10,75.01,74.91,74.85,74.85,74.89,74.91,74.94,74.98,75.00,74.99,74.96,74.92,74.85,74.76,74.71,74.71,74.79,74.90,74.96,74.97,74.95,74.89,74.83,74.86,74.98,75.19,75.23,75.09,74.93,74.81,74.74,74.75,74.77,74.79,74.78,74.72,74.70,74.70,74.67,74.63,74.62,74.62,74.59,74.51,74.43,74.42,74.44,74.43,74.38,74.35,74.32,74.26,74.22,74.21,74.18,74.15,74.17,74.16,74.13,74.11,74.11,74.11,74.14,74.13,74.07,74.10,74.13
72.36,72.34,72.33,72.33,72.33,72.34,72.33,72.31,72.31,72.31,72.33,72.37,72.38,72.37,72.37,72.39,72.40,72.34,72.27,72.23,72.23,72.25,72.24,72.24,72.26,72.26,72.26,72.27,72.29,72.31,72.28,72.25,72.23,72.23,72.23,72.30,72.34,72.37,72.42,72.41,72.40,72.38,72.33,72.31,72.30,72.30,72.28,72.22,72.26,72.35,72.46,72.57,72.64,72.77,72.93,73.12,73.34,73.55,73.80,74.06,74.30,74.57,74.83,75.07,75.27,75.41,75.52,75.62,75.70,75.73,75.68,75.60,75.52,75.43,75.36,75.26,75.18,75.13,75.13,75.05,74.99,74.92,74.83,74.83,74.74,74.67,74.63,74.53,74.45,74.39,74.34,74.28,74.15,74.12,74.09,74.01,73.97,73.94,73.92,73.91,73.87,73.91,73.92,73.90,73.90,73.87,73.87,73.91,73.99,74.07,74.16,74.23,74.28,74.33,74.33,74.33,74.35,74.37,74.37,74.36,74.38,74.41,74.40,74.45,74.46,74.48,74.52,74.50,74.47,74.45,74.43,74.36,74.34,74.35,74.39,74.46,74.58,74.65,74.63,74.55,74.76,74.90,74.96,74.96,74.92,74.92,74.91,74.87,74.82,74.87,74.97,75.08,75.18,75.33,75.46,75.54,75.57,75.57,75.55,75.50,75.39,75.22,75.19,75.31,75.39,75.40,75.37,75.32,75.30,75.28,75.25,75.23,75.23,75.25,75.29,75.33,75.39,75.45,75.50,75.49,75.49,75.47,75.43,75.36,75.33,75.30,75.25,75.18,75.08,74.98,74.89,74.83,74.85,74.90,74.94,74.97,75.00,75.00,75.00,74.97,74.93,74.85,74.75,74.70,74.69,74.76,74.86,74.92,74.95,74.93,74.88,74.86,74.95,75.12,75.31,75.31,75.17,75.00,74.87,74.80,74.80,74.83,74.87,74.84,74.81,74.79,74.77,74.72,74.71,74.70,74.69,74.65,74.51,74.40,74.40,74.46,74.50,74.50,74.47,74.43,74.38,74.35,74.33,74.29,74.25,74.24,74.22,74.19,74.16,74.13,74.12,74.12,74.09,74.05,74.06,74.09
72.27,72.26,72.25,72.25,72.27,72.27,72.25,72.22,72.23,72.19,72.19,72.21,72.20,72.22,72.22,72.22,72.23,72.22,72.19,72.18,72.19,72.23,72.24,72.23,72.21,72.23,72.24,72.26,72.29,72.32,72.28,72.25,72.26,72.29,72.33,72.37,72.39,72.41,72.43,72.41,72.40,72.38,72.35,72.31,72.30,72.30,72.28,72.22,72.20,72.22,72.27,72.33,72.41,72.58,72.77,72.97,73.17,73.40,73.66,73.93,74.17,74.47,74.76,75.01,75.21,75.37,75.46,75.56,75.66,75.72,75.68,75.64,75.57,75.46,75.37,75.27,75.20,75.17,75.17,75.10,75.06,75.00,74.89,74.89,74.81,74.76,74.74,74.64,74.54,74.49,74.46,74.43,74.27,74.21,74.18,74.09,73.99,73.97,73.96,73.96,73.94,73.96,73.96,73.94,73.89,73.84,73.83,73.90,74.02,74.12,74.31,74.45,74.54,74.62,74.58,74.57,74.57,74.54,74.52,74.50,74.49,74.48,74.45,74.54,74.58,74.58,74.57,74.47,74.43,74.40,74.36,74.28,74.24,74.27,74.33,74.41,74.61,74.63,74.52,74.38,74.72,74.92,74.99,74.97,74.90,74.90,74.89,74.86,74.82,74.87,74.97,75.08,75.19,75.32,75.42,75.48,75.51,75.51,75.51,75.45,75.34,75.18,75.18,75.28,75.36,75.39,75.37,75.32,75.30,75.29,75.26,75.22,75.22,75.25,75.29,75.30,75.29,75.32,75.38,75.50,75.50,75.47,75.43,75.36,75.31,75.30,75.26,75.19,75.08,74.96,74.86,74.82,74.86,74.93,74.98,75.00,75.00,74.99,74.99,74.97,74.93,74.85,74.74,74.68,74.67,74.70,74.78,74.85,74.89,74.89,74.85,74.90,75.07,75.27,75.40,75.36,75.24,75.08,74.96,74.88,74.88,74.92,74.96,74.91,74.89,74.86,74.82,74.75,74.76,74.74,74.72,74.66,74.47,74.34,74.36,74.46,74.57,74.61,74.60,74.56,74.54,74.53,74.50,74.45,74.40,74.34,74.32,74.29,74.24,74.19,74.17,74.13,74.09,74.07,74.07,74.08
72.26,72.25,72.24,72.24,72.26,72.26,72.26,72.25,72.27,72.25,72.25,72.26,72.27,72.27,72.26,72.26,72.27,72.29,72.28,72.28,72.30,72.32,72.32,72.31,72.28,72.28,72.28,72.30,72.32,72.33,72.30,72.29,72.30,72.32,72.33,72.37,72.37,72.36,72.36,72.38,72.37,72.35,72.33,72.27,72.29,72.28,72.25,72.21,72.20,72.21,72.23,72.26,72.35,72.55,72.79,73.03,73.30,73.50,73.70,73.89,74.08,74.38,74.73,75.05,75.29,75.42,75.48,75.58,75.69,75.77,75.71,75.68,75.62,75.49,75.39,75.34,75.31,75.29,75.25,75.21,75.19,75.17,75.12,75.12,75.09,75.07,75.06,75.02,74.90,74.87,74.88,74.82,74.53,74.42,74.33,74.21,74.12,74.03,73.99,73.99,73.98,73.99,73.96,73.90,73.83,73.81,73.78,73.81,73.94,74.17,74.44,74.64,74.75,74.74,74.67,74.66,74.63,74.58,74.57,74.56,74.53,74.48,74.44,74.55,74.59,74.59,74.57,74.43,74.35,74.27,74.17,74.11,74.15,74.22,74.29,74.29,74.45,74.49,74.42,74.34,74.79,74.95,74.99,74.97,74.90,74.90,74.89,74.87,74.84,74.96,75.05,75.15,75.25,75.38,75.46,75.49,75.47,75.44,75.41,75.35,75.27,75.20,75.21,75.29,75.36,75.39,75.36,75.32,75.30,75.30,75.29,75.27,75.28,75.29,75.30,75.30,75.30,75.33,75.40,75.49,75.47,75.44,75.40,75.38,75.34,75.30,75.25,75.20,75.13,75.00,74.89,74.85,74.92,74.97,74.99,74.99,74.97,74.95,74.94,74.93,74.90,74.86,74.77,74.73,74.70,74.66,74.64,74.74,74.84,74.89,74.85,74.95,75.14,75.32,75.39,75.39,75.31,75.21,75.10,75.03,75.03,75.06,75.07,75.02,74.99,74.93,74.85,74.78,74.75,74.72,74.68,74.62,74.47,74.34,74.35,74.47,74.60,74.69,74.72,74.71,74.67,74.65,74.64,74.59,74.49,74.43,74.41,74.39,74.39,74.41,74.39,74.36,74.34,74.34,74.30,74.22
72.29,72.28,72.26,72.26,72.27,72.28,72.29,72.28,72.29,72.28,72.29,72.29,72.30,72.30,72.29,72.28,72.28,72.30,72.31,72.32,72.34,72.34,72.34,72.32,72.29,72.27,72.27,72.29,72.31,72.30,72.28,72.27,72.28,72.29,72.29,72.33,72.33,72.31,72.32,72.35,72.34,72.32,72.28,72.22,72.22,72.21,72.19,72.18,72.17,72.18,72.19,72.19,72.25,72.43,72.68,72.96,73.28,73.41,73.52,73.68,73.96,74.19,74.50,74.85,75.18,75.37,75.46,75.55,75.64,75.72,75.68,75.65,75.59,75.50,75.41,75.36,75.34,75.33,75.30,75.28,75.27,75.27,75.25,75.25,75.25,75.25,75.23,75.18,75.13,75.12,75.11,75.07,74.78,74.60,74.44,74.28,74.15,74.05,73.99,73.97,73.97,73.97,73.94,73.89,73.84,73.80,73.74,73.73,73.83,74.11,74.39,74.61,74.75,74.74,74.66,74.63,74.60,74.55,74.56,74.53,74.49,74.44,74.36,74.45,74.54,74.58,74.55,74.39,74.26,74.13,74.03,74.01,74.08,74.17,74.25,74.22,74.31,74.34,74.32,74.31,74.80,74.96,74.99,74.97,74.91,74.91,74.90,74.89,74.89,75.01,75.11,75.21,75.31,75.44,75.48,75.48,75.44,75.39,75.35,75.29,75.23,75.21,75.23,75.30,75.35,75.37,75.33,75.31,75.31,75.31,75.30,75.30,75.30,75.30,75.30,75.30,75.32,75.35,75.40,75.48,75.46,75.42,75.39,75.39,75.35,75.29,75.25,75.20,75.14,75.00,74.90,74.87,74.94,74.98,75.00,74.99,74.96,74.94,74.93,74.92,74.90,74.87,74.80,74.77,74.74,74.69,74.63,74.72,74.84,74.92,74.88,74.99,75.15,75.30,75.34,75.36,75.34,75.29,75.22,75.17,75.18,75.20,75.19,75.14,75.09,74.98,74.87,74.79,74.74,74.69,74.65,74.58,74.45,74.34,74.38,74.52,74.68,74.75,74.79,74.78,74.73,74.72,74.74,74.70,74.62,74.57,74.56,74.54,74.54,74.58,74.56,74.54,74.54,74.56,74.48,74.36
72.33,72.34,72.32,72.30,72.30,72.33,72.34,72.32,72.30,72.30,72.30,72.30,72.30,72.30,72.30,72.28,72.24,72.28,72.30,72.31,72.31,72.31,72.31,72.28,72.24,72.21,72.21,72.25,72.27,72.24,72.22,72.21,72.21,72.21,72.21,72.27,72.26,72.25,72.28,72.31,72.31,72.28,72.22,72.14,72.12,72.12,72.11,72.11,72.11,72.15,72.16,72.12,72.12,72.23,72.45,72.76,73.13,73.15,73.14,73.33,73.81,73.90,74.09,74.44,74.90,75.23,75.41,75.49,75.53,75.60,75.60,75.56,75.51,75.49,75.41,75.34,75.31,75.30,75.30,75.30,75.30,75.30,75.30,75.30,75.30,75.29,75.26,75.14,75.24,75.25,75.19,75.18,75.01,74.76,74.51,74.30,74.09,74.02,73.96,73.92,73.92,73.92,73.92,73.91,73.91,73.82,73.73,73.67,73.70,73.96,74.18,74.38,74.54,74.65,74.54,74.50,74.48,74.45,74.48,74.42,74.39,74.37,74.22,74.25,74.42,74.57,74.52,74.34,74.14,74.00,73.93,73.98,74.03,74.12,74.20,74.18,74.19,74.19,74.21,74.29,74.74,74.93,74.99,74.97,74.93,74.93,74.93,74.93,74.95,75.05,75.16,75.27,75.37,75.48,75.49,75.45,75.41,75.37,75.30,75.25,75.22,75.21,75.25,75.32,75.35,75.35,75.29,75.31,75.33,75.33,75.30,75.30,75.30,75.30,75.29,75.30,75.34,75.37,75.40,75.46,75.45,75.42,75.40,75.39,75.33,75.30,75.26,75.20,75.10,74.98,74.90,74.88,74.93,74.97,74.99,74.99,74.98,74.96,74.95,74.94,74.91,74.90,74.84,74.80,74.78,74.77,74.71,74.76,74.87,74.96,74.94,75.00,75.12,75.22,75.24,75.28,75.31,75.32,75.32,75.31,75.34,75.34,75.32,75.26,75.18,75.03,74.88,74.77,74.73,74.67,74.62,74.55,74.41,74.35,74.44,74.63,74.79,74.81,74.81,74.78,74.73,74.74,74.79,74.80,74.77,74.77,74.76,74.72,74.70,74.71,74.68,74.68,74.71,74.74,74.63,74.50
72.31,72.30,72.27,72.24,72.24,72.25,72.26,72.25,72.21,72.21,72.21,72.21,72.22,72.24,72.24,72.22,72.18,72.18,72.21,72.23,72.25,72.25,72.23,72.19,72.16,72.16,72.16,72.17,72.18,72.17,72.19,72.23,72.24,72.22,72.16,72.20,72.21,72.22,72.23,72.27,72.29,72.25,72.17,72.12,72.12,72.16,72.20,72.18,72.20,72.25,72.25,72.17,72.11,72.17,72.28,72.46,72.76,72.92,73.02,73.17,73.44,73.64,73.86,74.15,74.52,74.91,75.15,75.33,75.44,75.48,75.47,75.48,75.47,75.42,75.34,75.30,75.27,75.25,75.29,75.30,75.29,75.28,75.27,75.29,75.29,75.27,75.23,75.21,75.27,75.25,75.17,75.08,74.93,74.75,74.61,74.53,74.39,74.22,74.10,74.06,74.11,74.09,74.06,74.05,74.06,73.96,73.83,73.72,73.67,73.78,73.90,74.01,74.12,74.21,74.21,74.21,74.21,74.20,74.13,74.05,74.06,74.12,74.09,74.18,74.33,74.43,74.37,74.16,73.99,73.90,73.89,73.93,74.04,74.12,74.17,74.16,74.17,74.17,74.21,74.32,74.83,74.97,75.00,74.99,74.97,74.97,74.97,74.98,75.01,75.10,75.19,75.27,75.37,75.48,75.49,75.46,75.41,75.37,75.30,75.25,75.22,75.22,75.27,75.34,75.38,75.36,75.31,75.31,75.31,75.31,75.30,75.29,75.27,75.27,75.27,75.27,75.29,75.33,75.38,75.44,75.41,75.38,75.37,75.37,75.32,75.26,75.20,75.13,75.04,74.96,74.92,74.92,74.95,74.97,74.98,74.97,74.94,74.93,74.93,74.93,74.91,74.88,74.84,74.82,74.83,74.84,74.84,74.89,74.96,75.01,75.01,75.01,75.05,75.10,75.11,75.12,75.14,75.18,75.25,75.32,75.34,75.32,75.30,75.29,75.25,75.09,74.90,74.75,74.72,74.67,74.61,74.53,74.42,74.44,74.57,74.74,74.85,74.88,74.86,74.81,74.77,74.79,74.84,74.84,74.81,74.82,74.83,74.80,74.76,74.72,74.70,74.72,74.76,74.80,74.70,74.54
72.27,72.26,72.24,72.21,72.21,72.21,72.21,72.20,72.15,72.16,72.16,72.15,72.17,72.20,72.20,72.18,72.13,72.14,72.17,72.20,72.21,72.23,72.20,72.17,72.15,72.16,72.17,72.17,72.16,72.15,72.20,72.26,72.28,72.24,72.15,72.14,72.17,72.18,72.18,72.23,72.25,72.21,72.13,72.11,72.16,72.23,72.27,72.25,72.26,72.30,72.29,72.17,72.09,72.12,72.17,72.24,72.43,72.68,72.86,72.98,73.11,73.37,73.59,73.85,74.18,74.65,74.95,75.20,75.36,75.39,75.37,75.40,75.40,75.34,75.27,75.26,75.24,75.23,75.29,75.28,75.26,75.23,75.20,75.25,75.25,75.23,75.22,75.25,75.28,75.23,75.12,74.98,74.86,74.75,74.69,74.68,74.64,74.44,74.29,74.24,74.30,74.26,74.21,74.19,74.19,74.11,73.97,73.82,73.69,73.66,73.68,73.73,73.80,73.90,73.96,73.98,73.99,73.98,73.84,73.75,73.78,73.89,73.95,74.08,74.20,74.26,74.20,73.98,73.84,73.80,73.83,73.88,74.04,74.13,74.16,74.16,74.17,74.18,74.22,74.36,74.89,75.01,75.01,75.01,75.01,75.00,75.00,75.02,75.06,75.15,75.22,75.29,75.38,75.49,75.49,75.46,75.41,75.36,75.30,75.25,75.23,75.23,75.28,75.35,75.37,75.34,75.31,75.29,75.29,75.30,75.29,75.27,75.25,75.23,75.24,75.24,75.25,75.30,75.36,75.41,75.36,75.34,75.34,75.35,75.31,75.24,75.17,75.09,75.01,74.94,74.92,74.94,74.97,74.97,74.97,74.94,74.91,74.90,74.91,74.92,74.91,74.87,74.83,74.83,74.85,74.88,74.92,74.96,75.00,75.02,75.01,74.99,74.99,75.01,75.01,75.00,75.02,75.08,75.18,75.29,75.30,75.28,75.26,75.28,75.25,75.10,74.91,74.74,74.70,74.65,74.59,74.51,74.42,74.49,74.64,74.79,74.86,74.90,74.87,74.83,74.81,74.86,74.90,74.88,74.85,74.86,74.88,74.86,74.82,74.75,74.73,74.75,74.80,74.82,74.72,74.55
72.19,72.24,72.26,72.25,72.23,72.23,72.23,72.22,72.17,72.17,72.17,72.18,72.19,72.21,72.21,72.19,72.15,72.21,72.23,72.24,72.25,72.27,72.29,72.28,72.26,72.26,72.30,72.32,72.30,72.23,72.25,72.28,72.30,72.28,72.18,72.11,72.12,72.14,72.13,72.18,72.19,72.16,72.12,72.12,72.25,72.31,72.31,72.31,72.25,72.25,72.21,72.08,72.02,72.07,72.13,72.18,72.18,72.45,72.59,72.70,72.90,73.08,73.23,73.49,73.93,74.56,74.92,75.17,75.31,75.36,75.33,75.31,75.29,75.26,75.22,75.21,75.22,75.25,75.30,75.24,75.19,75.14,75.08,75.15,75.14,75.17,75.24,75.21,75.24,75.16,75.02,74.88,74.85,74.78,74.71,74.67,74.75,74.68,74.56,74.47,74.50,74.40,74.34,74.30,74.28,74.25,74.17,74.01,73.78,73.63,73.58,73.61,73.70,73.85,73.89,73.92,73.92,73.86,73.70,73.64,73.65,73.70,73.77,73.90,73.99,74.03,74.05,73.84,73.72,73.69,73.74,73.84,74.03,74.14,74.17,74.19,74.19,74.19,74.23,74.37,74.87,75.02,75.06,75.06,75.05,75.01,75.01,75.04,75.10,75.20,75.29,75.36,75.41,75.49,75.48,75.44,75.37,75.33,75.29,75.24,75.24,75.27,75.29,75.31,75.29,75.26,75.24,75.25,75.28,75.29,75.27,75.23,75.21,75.21,75.22,75.22,75.23,75.29,75.35,75.37,75.32,75.31,75.33,75.35,75.30,75.26,75.19,75.11,75.02,74.93,74.92,74.95,74.99,74.97,74.94,74.91,74.90,74.90,74.90,74.90,74.89,74.85,74.82,74.81,74.82,74.86,74.90,74.94,74.95,74.93,74.90,74.92,74.95,74.97,74.96,74.96,74.99,75.05,75.13,75.21,75.22,75.22,75.21,75.22,75.14,75.03,74.90,74.77,74.67,74.62,74.56,74.48,74.41,74.49,74.60,74.70,74.78,74.81,74.82,74.82,74.86,74.93,74.96,74.95,74.91,74.89,74.90,74.89,74.87,74.81,74.79,74.79,74.81,74.79,74.63,74.49
72.22,72.26,72.28,72.28,72.25,72.24,72.23,72.22,72.18,72.18,72.20,72.22,72.24,72.27,72.27,72.25,72.21,72.27,72.28,72.30,72.33,72.34,72.35,72.36,72.35,72.34,72.39,72.42,72.38,72.27,72.31,72.30,72.28,72.25,72.18,72.10,72.10,72.11,72.11,72.17,72.17,72.14,72.10,72.14,72.27,72.33,72.34,72.36,72.26,72.20,72.13,72.03,72.02,72.06,72.13,72.17,72.14,72.24,72.30,72.39,72.56,72.77,72.96,73.23,73.65,74.34,74.80,75.05,75.17,75.25,75.15,75.08,75.10,75.21,75.20,75.20,75.22,75.24,75.23,75.15,75.10,75.06,75.00,75.03,75.05,75.09,75.17,75.20,75.19,75.07,74.92,74.84,74.80,74.75,74.69,74.64,74.71,74.71,74.64,74.55,74.54,74.46,74.34,74.25,74.26,74.26,74.21,74.10,73.91,73.73,73.58,73.54,73.59,73.67,73.74,73.82,73.82,73.70,73.63,73.61,73.61,73.64,73.71,73.76,73.79,73.81,73.82,73.65,73.62,73.66,73.75,73.94,74.09,74.16,74.19,74.20,74.19,74.19,74.27,74.50,74.96,75.12,75.15,75.12,75.11,75.07,75.06,75.11,75.21,75.29,75.35,75.38,75.41,75.46,75.47,75.43,75.36,75.30,75.26,75.25,75.27,75.30,75.31,75.28,75.26,75.25,75.21,75.22,75.24,75.25,75.24,75.21,75.20,75.20,75.20,75.19,75.19,75.23,75.30,75.33,75.28,75.26,75.26,75.27,75.25,75.22,75.17,75.10,75.02,74.93,74.91,74.93,74.97,74.96,74.93,74.91,74.92,74.92,74.91,74.90,74.89,74.86,74.82,74.82,74.84,74.87,74.89,74.91,74.92,74.90,74.87,74.86,74.88,74.92,74.95,74.98,75.01,75.04,75.09,75.14,75.14,75.14,75.14,75.14,75.10,75.03,74.91,74.77,74.66,74.61,74.55,74.47,74.42,74.47,74.52,74.57,74.63,74.69,74.70,74.71,74.75,74.81,74.82,74.82,74.82,74.83,74.83,74.83,74.81,74.79,74.79,74.79,74.81,74.79,74.62,74.49
72.27,72.29,72.30,72.30,72.27,72.25,72.23,72.21,72.17,72.20,72.24,72.28,72.30,72.33,72.34,72.31,72.29,72.32,72.33,72.36,72.41,72.40,72.40,72.41,72.43,72.40,72.45,72.48,72.43,72.30,72.36,72.32,72.25,72.20,72.16,72.10,72.09,72.09,72.11,72.17,72.18,72.14,72.09,72.15,72.26,72.33,72.37,72.39,72.27,72.15,72.06,72.00,72.05,72.08,72.13,72.17,72.17,72.09,72.06,72.11,72.23,72.47,72.71,72.98,73.34,73.97,74.47,74.78,74.96,75.09,74.92,74.84,74.91,75.13,75.18,75.20,75.20,75.20,75.16,75.05,75.01,74.99,74.93,74.92,74.96,75.02,75.08,75.17,75.12,74.97,74.82,74.81,74.73,74.69,74.65,74.59,74.62,74.66,74.64,74.57,74.50,74.45,74.28,74.15,74.20,74.19,74.18,74.12,74.01,73.84,73.60,73.50,73.49,73.47,73.58,73.69,73.68,73.54,73.58,73.59,73.60,73.62,73.68,73.63,73.61,73.60,73.59,73.48,73.54,73.65,73.80,74.07,74.16,74.20,74.20,74.20,74.18,74.18,74.33,74.68,75.06,75.22,75.23,75.19,75.17,75.12,75.12,75.19,75.33,75.39,75.41,75.40,75.40,75.42,75.45,75.42,75.35,75.28,75.25,75.27,75.31,75.33,75.34,75.28,75.26,75.27,75.22,75.21,75.20,75.20,75.19,75.20,75.20,75.20,75.19,75.16,75.14,75.17,75.23,75.27,75.24,75.20,75.18,75.18,75.18,75.16,75.12,75.07,75.01,74.93,74.90,74.91,74.94,74.95,74.93,74.92,74.94,74.94,74.92,74.90,74.89,74.86,74.83,74.84,74.87,74.90,74.89,74.88,74.89,74.89,74.86,74.83,74.83,74.88,74.95,75.02,75.04,75.04,75.05,75.08,75.06,75.06,75.06,75.07,75.08,75.04,74.93,74.77,74.65,74.60,74.54,74.46,74.43,74.45,74.45,74.45,74.49,74.57,74.59,74.59,74.61,74.66,74.64,74.65,74.70,74.73,74.73,74.73,74.72,74.71,74.73,74.73,74.76,74.78,74.61,74.49
72.27,72.27,72.28,72.30,72.24,72.20,72.18,72.16,72.12,72.21,72.30,72.36,72.37,72.38,72.38,72.37,72.36,72.40,72.39,72.41,72.45,72.46,72.43,72.42,72.42,72.44,72.51,72.50,72.41,72.28,72.38,72.32,72.25,72.20,72.18,72.13,72.10,72.10,72.11,72.17,72.19,72.16,72.10,72.12,72.19,72.29,72.37,72.39,72.23,72.08,72.01,72.04,72.08,72.09,72.11,72.14,72.18,72.12,72.09,72.09,72.08,72.16,72.39,72.64,72.87,72.99,73.18,73.83,74.55,74.76,74.70,74.71,74.79,74.93,75.09,75.16,75.17,75.14,75.12,74.99,74.94,74.94,74.97,74.92,74.92,74.96,75.02,75.05,74.95,74.86,74.79,74.73,74.66,74.59,74.52,74.46,74.53,74.50,74.50,74.49,74.36,74.24,74.12,74.04,74.04,73.99,74.01,73.97,73.86,73.79,73.59,73.50,73.49,73.48,73.46,73.48,73.48,73.45,73.51,73.56,73.59,73.59,73.61,73.59,73.55,73.52,73.50,73.43,73.47,73.62,73.86,74.14,74.19,74.20,74.20,74.19,74.14,74.19,74.45,74.93,75.13,75.20,75.21,75.19,75.17,75.10,75.09,75.18,75.38,75.44,75.45,75.43,75.40,75.41,75.42,75.40,75.36,75.31,75.30,75.31,75.32,75.35,75.36,75.32,75.33,75.36,75.32,75.26,75.21,75.17,75.15,75.19,75.19,75.17,75.15,75.15,75.15,75.17,75.18,75.17,75.14,75.11,75.10,75.12,75.12,75.09,75.05,75.02,74.98,74.94,74.92,74.92,74.93,74.94,74.93,74.92,74.91,74.91,74.90,74.91,74.91,74.89,74.87,74.88,74.89,74.90,74.87,74.85,74.86,74.88,74.88,74.85,74.85,74.88,74.94,74.98,75.00,75.01,75.02,75.01,74.98,74.97,74.97,74.99,75.01,74.98,74.89,74.74,74.66,74.60,74.52,74.44,74.39,74.41,74.45,74.49,74.56,74.62,74.63,74.63,74.64,74.65,74.63,74.62,74.61,74.61,74.61,74.60,74.58,74.52,74.48,74.45,74.50,74.58,74.50,74.43
72.26,72.25,72.25,72.26,72.23,72.22,72.20,72.17,72.12,72.21,72.32,72.41,72.43,72.42,72.42,72.42,72.43,72.46,72.46,72.47,72.49,72.51,72.46,72.42,72.42,72.46,72.50,72.44,72.34,72.26,72.39,72.32,72.25,72.19,72.17,72.12,72.09,72.08,72.10,72.16,72.19,72.16,72.11,72.11,72.16,72.23,72.29,72.32,72.17,72.04,72.00,72.07,72.12,72.14,72.13,72.13,72.16,72.14,72.14,72.12,72.08,72.05,72.17,72.35,72.49,72.42,72.47,73.02,73.82,74.45,74.56,74.66,74.75,74.82,74.94,75.04,75.07,75.06,75.06,74.98,74.92,74.90,74.92,74.90,74.89,74.92,74.96,74.96,74.85,74.78,74.74,74.67,74.62,74.54,74.47,74.41,74.46,74.42,74.40,74.39,74.24,74.15,74.06,73.99,73.94,73.88,73.86,73.81,73.71,73.67,73.57,73.50,73.48,73.47,73.40,73.36,73.35,73.36,73.40,73.46,73.49,73.49,73.49,73.50,73.46,73.42,73.39,73.36,73.45,73.68,74.00,74.18,74.20,74.20,74.20,74.19,74.14,74.19,74.48,74.99,75.11,75.15,75.17,75.19,75.17,75.07,75.06,75.15,75.36,75.41,75.43,75.42,75.39,75.40,75.39,75.38,75.36,75.33,75.33,75.34,75.35,75.39,75.39,75.36,75.35,75.37,75.33,75.25,75.19,75.15,75.13,75.17,75.17,75.16,75.15,75.18,75.23,75.24,75.22,75.16,75.12,75.10,75.10,75.12,75.11,75.08,75.05,75.02,74.99,74.97,74.95,74.95,74.93,74.92,74.92,74.92,74.90,74.90,74.90,74.91,74.92,74.90,74.88,74.89,74.90,74.90,74.87,74.85,74.86,74.88,74.87,74.85,74.85,74.87,74.88,74.91,74.93,74.95,74.95,74.92,74.89,74.87,74.88,74.89,74.91,74.89,74.82,74.72,74.66,74.60,74.52,74.44,74.40,74.43,74.48,74.54,74.62,74.64,74.63,74.63,74.64,74.64,74.61,74.58,74.55,74.53,74.53,74.52,74.48,74.39,74.33,74.28,74.31,74.38,74.37,74.36
72.24,72.22,72.20,72.20,72.25,72.28,72.28,72.23,72.15,72.19,72.31,72.44,72.50,72.45,72.45,72.47,72.50,72.50,72.53,72.55,72.53,72.56,72.49,72.43,72.42,72.47,72.44,72.34,72.24,72.22,72.39,72.32,72.25,72.19,72.13,72.10,72.05,72.04,72.08,72.15,72.18,72.16,72.11,72.10,72.16,72.16,72.15,72.18,72.07,72.02,72.04,72.10,72.18,72.20,72.18,72.14,72.13,72.17,72.19,72.20,72.19,72.09,72.04,72.08,72.16,72.18,72.23,72.34,72.84,74.16,74.47,74.68,74.78,74.78,74.76,74.85,74.93,74.98,75.00,75.00,74.94,74.87,74.81,74.86,74.88,74.88,74.88,74.88,74.81,74.74,74.69,74.63,74.61,74.54,74.47,74.40,74.40,74.38,74.34,74.27,74.14,74.14,74.08,73.98,73.88,73.82,73.73,73.65,73.58,73.51,73.54,73.51,73.46,73.46,73.38,73.31,73.27,73.27,73.27,73.29,73.32,73.34,73.34,73.36,73.34,73.31,73.27,73.29,73.48,73.81,74.19,74.20,74.20,74.20,74.20,74.19,74.16,74.20,74.45,74.92,75.04,75.08,75.14,75.19,75.16,75.05,75.03,75.12,75.27,75.32,75.37,75.38,75.37,75.39,75.36,75.35,75.35,75.35,75.35,75.37,75.40,75.45,75.42,75.38,75.35,75.33,75.28,75.21,75.16,75.13,75.12,75.15,75.15,75.16,75.18,75.26,75.35,75.37,75.32,75.21,75.16,75.15,75.15,75.15,75.14,75.12,75.10,75.08,75.03,75.01,75.00,74.99,74.96,74.91,74.90,74.90,74.90,74.90,74.90,74.91,74.92,74.90,74.88,74.89,74.90,74.90,74.88,74.87,74.87,74.88,74.85,74.83,74.83,74.83,74.80,74.80,74.82,74.85,74.85,74.81,74.78,74.77,74.77,74.77,74.77,74.75,74.72,74.70,74.67,74.62,74.54,74.46,74.44,74.50,74.56,74.60,74.66,74.64,74.60,74.58,74.62,74.63,74.58,74.53,74.51,74.50,74.50,74.48,74.42,74.32,74.24,74.20,74.18,74.18,74.21,74.26
72.18,72.21,72.22,72.21,72.22,72.24,72.25,72.22,72.15,72.14,72.19,72.27,72.33,72.33,72.33,72.35,72.38,72.39,72.42,72.44,72.45,72.45,72.41,72.37,72.36,72.41,72.40,72.34,72.27,72.23,72.35,72.29,72.22,72.17,72.13,72.07,72.03,72.01,72.04,72.14,72.15,72.12,72.08,72.09,72.18,72.21,72.20,72.20,72.07,72.05,72.10,72.19,72.24,72.26,72.25,72.24,72.25,72.24,72.22,72.20,72.18,72.18,72.13,72.10,72.08,72.05,72.10,72.28,72.77,73.75,74.25,74.57,74.71,74.68,74.57,74.53,74.53,74.61,74.83,74.90,74.84,74.76,74.75,74.79,74.80,74.80,74.81,74.83,74.76,74.70,74.67,74.67,74.62,74.56,74.50,74.42,74.38,74.34,74.33,74.31,74.24,74.24,74.17,74.08,74.01,73.93,73.76,73.64,73.59,73.54,73.59,73.60,73.58,73.58,73.49,73.37,73.27,73.23,73.22,73.19,73.19,73.21,73.19,73.23,73.25,73.24,73.23,73.28,73.56,73.91,74.20,74.20,74.20,74.20,74.19,74.16,74.15,74.19,74.41,74.83,74.93,74.99,75.06,75.12,75.09,75.01,75.03,75.12,75.23,75.26,75.31,75.32,75.29,75.31,75.29,75.28,75.30,75.32,75.32,75.33,75.36,75.39,75.38,75.36,75.34,75.33,75.26,75.20,75.14,75.11,75.10,75.09,75.11,75.13,75.16,75.26,75.35,75.36,75.29,75.19,75.14,75.13,75.13,75.13,75.14,75.16,75.14,75.10,75.01,74.98,74.98,74.97,74.93,74.91,74.90,74.90,74.90,74.90,74.90,74.89,74.88,74.87,74.89,74.91,74.92,74.92,74.90,74.89,74.90,74.91,74.91,74.87,74.87,74.86,74.82,74.77,74.76,74.76,74.76,74.72,74.69,74.67,74.67,74.64,74.62,74.63,74.64,74.64,74.63,74.57,74.49,74.44,74.45,74.49,74.54,74.58,74.62,74.65,74.64,74.66,74.70,74.66,74.56,74.48,74.44,74.44,74.44,74.43,74.37,74.24,74.20,74.19,74.19,74.19,74.20,74.25
72.15,72.19,72.22,72.22,72.20,72.20,72.20,72.19,72.14,72.11,72.11,72.15,72.21,72.23,72.23,72.25,72.27,72.29,72.31,72.34,72.37,72.35,72.33,72.31,72.30,72.34,72.34,72.32,72.28,72.23,72.32,72.26,72.19,72.15,72.12,72.05,72.01,72.00,72.01,72.12,72.13,72.09,72.05,72.08,72.19,72.24,72.24,72.22,72.09,72.07,72.14,72.25,72.29,72.31,72.31,72.32,72.34,72.29,72.24,72.20,72.18,72.22,72.19,72.13,72.05,71.99,72.02,72.21,72.61,73.31,73.99,74.42,74.61,74.55,74.28,74.10,74.02,74.10,74.49,74.71,74.71,74.65,74.67,74.70,74.72,74.72,74.71,74.76,74.71,74.67,74.66,74.68,74.62,74.57,74.51,74.44,74.35,74.32,74.34,74.35,74.31,74.31,74.25,74.16,74.11,73.97,73.78,73.64,73.60,73.59,73.64,73.66,73.66,73.66,73.58,73.43,73.30,73.22,73.21,73.15,73.12,73.12,73.07,73.12,73.15,73.16,73.17,73.23,73.52,73.83,74.03,74.06,74.09,74.12,74.14,74.13,74.14,74.19,74.39,74.76,74.85,74.92,74.98,75.04,75.03,74.97,75.02,75.12,75.22,75.24,75.26,75.26,75.21,75.23,75.23,75.23,75.26,75.30,75.30,75.31,75.32,75.34,75.33,75.32,75.31,75.30,75.23,75.16,75.11,75.08,75.08,75.05,75.08,75.12,75.16,75.26,75.35,75.34,75.26,75.18,75.12,75.11,75.12,75.12,75.14,75.18,75.18,75.11,75.01,74.97,74.95,74.94,74.91,74.90,74.90,74.90,74.90,74.90,74.90,74.88,74.85,74.84,74.88,74.91,74.93,74.93,74.90,74.91,74.93,74.95,74.95,74.91,74.89,74.87,74.84,74.78,74.75,74.73,74.72,74.68,74.65,74.63,74.61,74.56,74.53,74.54,74.57,74.59,74.58,74.53,74.47,74.44,74.47,74.48,74.50,74.53,74.56,74.60,74.63,74.67,74.70,74.63,74.51,74.43,74.39,74.38,74.38,74.38,74.33,74.20,74.17,74.18,74.19,74.20,74.20,74.23
72.14,72.13,72.18,72.24,72.20,72.16,72.13,72.12,72.11,72.08,72.08,72.10,72.14,72.18,72.19,72.19,72.18,72.20,72.23,72.27,72.29,72.28,72.27,72.26,72.26,72.27,72.27,72.28,72.25,72.21,72.29,72.22,72.15,72.11,72.10,72.05,72.01,72.00,72.01,72.10,72.11,72.08,72.03,72.07,72.17,72.23,72.24,72.24,72.12,72.09,72.14,72.25,72.32,72.35,72.35,72.36,72.38,72.33,72.26,72.22,72.21,72.17,72.18,72.16,72.10,72.04,72.01,72.05,72.28,72.86,73.69,74.21,74.45,74.39,73.82,73.51,73.35,73.39,73.87,74.38,74.54,74.54,74.56,74.58,74.62,74.62,74.60,74.66,74.65,74.65,74.66,74.64,74.61,74.56,74.50,74.42,74.32,74.34,74.37,74.38,74.33,74.35,74.31,74.23,74.15,73.90,73.75,73.66,73.61,73.66,73.67,73.68,73.69,73.68,73.61,73.50,73.38,73.27,73.26,73.20,73.13,73.08,73.02,73.03,73.05,73.06,73.07,73.13,73.27,73.44,73.59,73.70,73.81,73.92,74.02,74.11,74.13,74.20,74.41,74.73,74.81,74.88,74.92,74.96,74.99,74.94,75.00,75.13,75.28,75.27,75.23,75.18,75.13,75.15,75.19,75.22,75.25,75.30,75.30,75.30,75.30,75.31,75.29,75.25,75.23,75.22,75.17,75.07,75.04,75.05,75.07,75.04,75.09,75.15,75.20,75.26,75.34,75.33,75.25,75.16,75.12,75.10,75.10,75.11,75.14,75.18,75.18,75.14,75.06,74.98,74.94,74.91,74.90,74.90,74.90,74.90,74.90,74.90,74.89,74.87,74.84,74.81,74.84,74.88,74.91,74.91,74.90,74.93,74.96,74.99,74.96,74.92,74.88,74.86,74.86,74.84,74.81,74.78,74.75,74.72,74.71,74.68,74.64,74.57,74.54,74.53,74.53,74.53,74.52,74.51,74.49,74.49,74.49,74.46,74.43,74.42,74.45,74.48,74.51,74.55,74.56,74.48,74.42,74.38,74.36,74.32,74.34,74.32,74.28,74.21,74.15,74.16,74.18,74.18,74.18,74.20
72.21,72.11,72.10,72.15,72.16,72.15,72.11,72.07,72.06,72.06,72.09,72.13,72.17,72.21,72.23,72.24,72.22,72.23,72.24,72.26,72.29,72.29,72.28,72.27,72.27,72.27,72.29,72.30,72.26,72.18,72.23,72.22,72.17,72.12,72.10,72.05,72.01,71.99,71.98,72.06,72.10,72.07,72.02,72.04,72.14,72.20,72.22,72.23,72.14,72.10,72.11,72.16,72.25,72.33,72.37,72.38,72.39,72.36,72.31,72.26,72.26,72.22,72.21,72.18,72.15,72.12,72.07,72.02,72.14,72.63,73.45,73.95,74.12,73.94,73.36,73.12,73.01,73.05,73.38,73.81,74.19,74.42,74.43,74.44,74.49,74.52,74.53,74.58,74.57,74.58,74.60,74.62,74.60,74.58,74.52,74.40,74.32,74.32,74.34,74.35,74.36,74.34,74.29,74.22,74.16,73.88,73.77,73.69,73.60,73.63,73.61,73.62,73.65,73.64,73.57,73.50,73.41,73.29,73.28,73.22,73.14,73.07,72.99,72.94,72.94,72.97,72.98,73.04,73.13,73.25,73.39,73.53,73.66,73.78,73.89,74.01,74.07,74.17,74.35,74.59,74.70,74.80,74.87,74.91,74.93,74.93,75.01,75.14,75.28,75.26,75.20,75.17,75.18,75.17,75.19,75.22,75.26,75.34,75.33,75.30,75.26,75.22,75.23,75.21,75.19,75.17,75.12,75.07,75.04,75.05,75.07,75.10,75.14,75.17,75.20,75.22,75.25,75.22,75.17,75.14,75.12,75.12,75.13,75.12,75.15,75.18,75.17,75.11,74.99,74.95,74.92,74.90,74.90,74.90,74.90,74.89,74.88,74.86,74.83,74.82,74.81,74.80,74.83,74.87,74.90,74.90,74.91,74.94,74.97,74.98,74.97,74.91,74.85,74.83,74.88,74.88,74.83,74.80,74.79,74.79,74.78,74.74,74.69,74.64,74.64,74.62,74.61,74.60,74.56,74.53,74.51,74.51,74.49,74.46,74.42,74.39,74.39,74.39,74.40,74.41,74.42,74.37,74.33,74.30,74.28,74.24,74.25,74.22,74.18,74.15,74.11,74.13,74.14,74.13,74.12,74.13
72.31,72.13,72.03,72.04,72.10,72.13,72.11,72.05,72.03,72.04,72.09,72.17,72.22,72.25,72.28,72.29,72.28,72.29,72.27,72.27,72.29,72.31,72.30,72.30,72.30,72.30,72.34,72.33,72.26,72.16,72.19,72.23,72.20,72.13,72.10,72.05,72.01,71.98,71.95,72.03,72.08,72.07,72.01,72.01,72.11,72.18,72.21,72.21,72.15,72.11,72.09,72.07,72.16,72.27,72.35,72.37,72.39,72.38,72.34,72.31,72.30,72.29,72.25,72.21,72.19,72.18,72.13,72.03,72.06,72.43,73.20,73.66,73.74,73.45,72.98,72.84,72.81,72.84,72.99,73.25,73.80,74.25,74.29,74.29,74.36,74.43,74.48,74.49,74.50,74.50,74.52,74.59,74.58,74.58,74.52,74.39,74.31,74.30,74.30,74.31,74.38,74.32,74.25,74.19,74.16,73.81,73.73,73.67,73.55,73.54,73.49,73.50,73.55,73.56,73.50,73.47,73.40,73.28,73.27,73.21,73.14,73.05,72.97,72.85,72.85,72.89,72.91,72.92,72.97,73.07,73.22,73.45,73.59,73.69,73.79,73.93,74.03,74.15,74.30,74.45,74.59,74.72,74.81,74.87,74.88,74.92,75.02,75.14,75.26,75.23,75.17,75.17,75.23,75.20,75.20,75.22,75.27,75.36,75.35,75.30,75.22,75.15,75.19,75.18,75.16,75.14,75.09,75.08,75.06,75.06,75.06,75.16,75.19,75.19,75.18,75.17,75.14,75.11,75.09,75.10,75.13,75.15,75.15,75.14,75.15,75.15,75.12,75.05,74.91,74.90,74.90,74.90,74.90,74.90,74.89,74.88,74.86,74.81,74.77,74.76,74.78,74.80,74.83,74.87,74.89,74.88,74.90,74.93,74.95,74.96,74.96,74.89,74.82,74.81,74.90,74.90,74.85,74.81,74.83,74.85,74.83,74.79,74.74,74.72,74.73,74.72,74.70,74.69,74.61,74.55,74.52,74.51,74.48,74.47,74.43,74.39,74.36,74.34,74.32,74.31,74.30,74.28,74.26,74.24,74.21,74.18,74.17,74.13,74.09,74.08,74.06,74.09,74.09,74.07,74.04,74.06
72.45,72.23,72.06,71.98,72.01,72.08,72.12,72.10,72.04,72.02,72.05,72.12,72.22,72.24,72.26,72.28,72.30,72.30,72.29,72.29,72.30,72.30,72.30,72.30,72.30,72.30,72.31,72.31,72.26,72.17,72.22,72.26,72.23,72.14,72.10,72.05,72.01,71.98,71.94,72.02,72.08,72.07,72.02,72.00,72.11,72.20,72.24,72.22,72.14,72.11,72.10,72.09,72.07,72.09,72.15,72.23,72.31,72.32,72.34,72.35,72.31,72.30,72.29,72.25,72.20,72.15,72.12,72.03,72.00,72.17,72.76,73.25,73.42,73.21,72.91,72.83,72.81,72.81,72.86,73.07,73.48,73.88,74.10,74.13,74.27,74.37,74.41,74.41,74.42,74.42,74.44,74.51,74.46,74.44,74.42,74.36,74.30,74.29,74.29,74.29,74.31,74.29,74.23,74.18,74.13,73.48,73.41,73.42,73.32,73.28,73.25,73.25,73.30,73.37,73.37,73.34,73.28,73.19,73.17,73.14,73.06,72.96,72.88,72.81,72.81,72.85,72.89,72.69,72.61,72.65,72.87,73.57,73.71,73.78,73.87,74.02,74.10,74.20,74.33,74.46,74.55,74.64,74.72,74.77,74.83,74.89,74.95,75.04,75.15,75.12,75.11,75.11,75.14,75.17,75.17,75.19,75.22,75.29,75.29,75.26,75.22,75.18,75.18,75.14,75.12,75.11,75.08,75.04,75.03,75.04,75.04,75.12,75.16,75.16,75.15,75.12,75.10,75.07,75.05,75.08,75.10,75.12,75.13,75.12,75.07,75.03,75.00,74.96,74.90,74.90,74.90,74.90,74.90,74.90,74.88,74.85,74.82,74.80,74.77,74.75,74.74,74.78,74.82,74.86,74.86,74.81,74.79,74.83,74.87,74.90,74.90,74.84,74.80,74.80,74.88,74.90,74.87,74.84,74.83,74.80,74.79,74.77,74.74,74.72,74.73,74.73,74.72,74.71,74.63,74.55,74.50,74.47,74.46,74.51,74.53,74.51,74.48,74.44,74.40,74.35,74.32,74.28,74.26,74.23,74.21,74.21,74.19,74.14,74.08,74.04,74.00,74.01,74.02,73.99,73.96,73.94
72.49,72.38,72.20,72.09,72.03,72.04,72.07,72.09,72.04,72.01,72.03,72.08,72.17,72.19,72.22,72.24,72.27,72.27,72.26,72.26,72.28,72.30,72.30,72.31,72.32,72.31,72.30,72.30,72.26,72.19,72.24,72.26,72.23,72.16,72.11,72.04,71.99,71.95,71.90,71.98,72.04,72.03,71.98,71.96,72.11,72.21,72.24,72.19,72.11,72.10,72.12,72.13,72.10,72.05,72.07,72.13,72.24,72.27,72.32,72.35,72.32,72.33,72.32,72.29,72.23,72.17,72.16,72.10,72.04,72.04,72.41,72.83,73.08,73.04,72.91,72.86,72.83,72.82,72.84,73.01,73.32,73.60,73.74,73.79,74.05,74.26,74.32,74.34,74.38,74.38,74.37,74.44,74.37,74.34,74.32,74.28,74.24,74.24,74.24,74.23,74.22,74.22,74.16,74.08,73.99,73.25,73.15,73.14,73.05,73.03,73.06,73.03,72.99,73.06,73.09,73.08,73.06,73.04,73.01,72.99,72.94,72.85,72.77,72.74,72.77,72.83,72.86,72.62,72.51,72.51,72.75,73.67,73.82,73.88,73.96,74.09,74.17,74.27,74.39,74.50,74.57,74.65,74.72,74.77,74.83,74.89,74.93,74.99,75.07,75.07,75.08,75.09,75.09,75.13,75.14,75.15,75.17,75.21,75.22,75.21,75.19,75.17,75.14,75.10,75.08,75.08,75.08,75.05,75.04,75.04,75.03,75.10,75.13,75.13,75.12,75.10,75.08,75.04,75.02,75.04,75.06,75.08,75.09,75.08,75.01,74.96,74.92,74.90,74.88,74.88,74.89,74.90,74.90,74.90,74.88,74.84,74.81,74.81,74.79,74.75,74.73,74.76,74.81,74.84,74.83,74.78,74.76,74.78,74.80,74.82,74.82,74.78,74.76,74.77,74.82,74.85,74.85,74.84,74.83,74.78,74.76,74.74,74.73,74.71,74.71,74.71,74.71,74.71,74.64,74.55,74.48,74.44,74.47,74.56,74.59,74.59,74.55,74.49,74.43,74.38,74.35,74.32,74.29,74.26,74.24,74.25,74.23,74.18,74.10,74.04,74.01,74.01,74.00,73.97,73.93,73.90
72.48,72.56,72.42,72.31,72.14,72.01,71.98,72.04,72.03,72.01,72.02,72.05,72.08,72.13,72.16,72.20,72.23,72.22,72.18,72.19,72.25,72.30,72.30,72.32,72.34,72.33,72.31,72.30,72.27,72.22,72.25,72.23,72.20,72.17,72.12,72.02,71.94,71.89,71.84,71.91,71.97,71.97,71.93,71.90,72.11,72.21,72.20,72.14,72.05,72.09,72.15,72.19,72.20,72.13,72.07,72.07,72.17,72.24,72.29,72.32,72.31,72.35,72.35,72.32,72.27,72.22,72.22,72.21,72.14,72.00,72.10,72.41,72.74,72.93,72.94,72.91,72.87,72.85,72.89,73.03,73.26,73.38,73.26,73.32,73.76,74.10,74.22,74.28,74.36,74.35,74.32,74.36,74.31,74.28,74.23,74.16,74.16,74.16,74.16,74.15,74.11,74.11,74.03,73.92,73.78,73.11,72.92,72.85,72.76,72.80,72.90,72.81,72.65,72.65,72.70,72.74,72.79,72.85,72.81,72.80,72.78,72.72,72.65,72.66,72.73,72.82,72.82,72.68,72.58,72.57,72.79,73.75,73.93,73.99,74.06,74.17,74.25,74.36,74.46,74.57,74.62,74.72,74.79,74.83,74.87,74.90,74.94,74.98,75.01,75.06,75.08,75.08,75.07,75.10,75.10,75.10,75.12,75.14,75.14,75.14,75.13,75.12,75.07,75.05,75.04,75.06,75.09,75.08,75.08,75.06,75.03,75.09,75.10,75.10,75.10,75.10,75.08,75.04,75.00,75.00,75.01,75.02,75.03,75.02,74.97,74.92,74.89,74.86,74.83,74.85,74.88,74.90,74.90,74.90,74.88,74.85,74.83,74.84,74.81,74.77,74.74,74.74,74.79,74.81,74.80,74.78,74.77,74.76,74.74,74.73,74.73,74.72,74.72,74.72,74.73,74.77,74.80,74.83,74.84,74.80,74.74,74.71,74.71,74.70,74.67,74.66,74.67,74.70,74.65,74.55,74.46,74.42,74.50,74.61,74.65,74.63,74.60,74.51,74.44,74.40,74.39,74.39,74.35,74.31,74.29,74.30,74.29,74.23,74.15,74.09,74.09,74.05,74.01,73.98,73.93,73.91
71.76,72.22,72.43,72.38,72.18,72.02,71.94,71.94,71.97,71.97,71.97,72.00,72.04,72.09,72.12,72.13,72.13,72.14,72.16,72.20,72.25,72.27,72.28,72.29,72.30,72.29,72.29,72.31,72.27,72.18,72.19,72.20,72.18,72.14,72.11,72.04,71.97,71.91,71.84,71.88,71.94,71.95,71.90,71.87,72.08,72.19,72.20,72.18,72.09,72.09,72.13,72.19,72.20,72.17,72.13,72.10,72.13,72.17,72.24,72.28,72.28,72.33,72.36,72.34,72.27,72.24,72.28,72.28,72.23,72.14,72.11,72.23,72.41,72.60,72.75,72.85,72.88,72.87,72.83,72.96,73.00,72.91,72.68,72.68,73.08,73.48,73.79,74.18,74.31,74.33,74.30,74.28,74.27,74.22,74.15,74.08,74.08,74.11,74.12,74.11,74.04,74.04,73.95,73.76,73.46,72.99,72.86,72.84,72.84,72.90,72.88,72.75,72.62,72.62,72.60,72.61,72.66,72.75,72.74,72.71,72.64,72.57,72.53,72.57,72.67,72.76,72.77,72.69,72.61,72.58,72.78,73.82,74.01,74.10,74.18,74.20,74.31,74.41,74.51,74.59,74.62,74.74,74.83,74.89,74.94,74.95,74.98,74.98,74.91,74.51,74.42,74.47,74.64,75.09,75.15,75.15,75.14,75.12,75.11,75.11,75.11,75.08,75.04,75.06,75.07,75.06,75.04,75.03,75.00,74.97,74.96,75.00,75.04,75.07,75.08,75.06,75.05,75.01,74.97,75.00,75.00,75.00,74.98,74.95,74.93,74.91,74.89,74.85,74.79,74.79,74.82,74.87,74.90,74.88,74.85,74.82,74.81,74.84,74.82,74.77,74.71,74.71,74.75,74.77,74.76,74.73,74.73,74.72,74.72,74.71,74.71,74.71,74.71,74.71,74.71,74.73,74.72,74.70,74.66,74.61,74.61,74.62,74.65,74.67,74.68,74.70,74.72,74.71,74.65,74.55,74.47,74.45,74.53,74.59,74.61,74.61,74.59,74.51,74.46,74.44,74.45,74.43,74.39,74.39,74.41,74.42,74.37,74.30,74.23,74.14,74.11,74.09,74.07,74.06,74.04,74.00
71.03,71.68,72.16,72.35,72.24,72.09,71.96,71.90,71.91,71.92,71.94,71.98,72.04,72.09,72.11,72.10,72.08,72.10,72.13,72.16,72.20,72.24,72.27,72.28,72.27,72.26,72.28,72.31,72.27,72.15,72.14,72.18,72.17,72.12,72.09,72.04,71.99,71.92,71.84,71.87,71.92,71.93,71.87,71.84,72.05,72.17,72.20,72.18,72.11,72.09,72.12,72.17,72.19,72.20,72.17,72.13,72.13,72.13,72.17,72.21,72.22,72.30,72.35,72.34,72.29,72.29,72.33,72.34,72.31,72.27,72.18,72.16,72.23,72.37,72.54,72.70,72.80,72.81,72.73,72.82,72.76,72.57,72.33,72.31,72.59,72.93,73.33,74.05,74.26,74.31,74.28,74.23,74.23,74.17,74.09,74.01,73.98,74.03,74.05,74.04,73.98,73.98,73.87,73.61,73.20,72.89,72.82,72.83,72.86,72.90,72.83,72.69,72.58,72.58,72.53,72.53,72.58,72.67,72.66,72.61,72.52,72.43,72.43,72.50,72.61,72.70,72.70,72.67,72.60,72.59,72.82,73.88,74.06,74.16,74.25,74.24,74.35,74.45,74.53,74.60,74.64,74.74,74.83,74.90,74.96,74.98,75.00,74.96,74.80,74.13,73.96,74.06,74.35,75.10,75.19,75.19,75.18,75.12,75.10,75.10,75.11,75.10,75.07,75.08,75.09,75.07,75.02,75.00,74.97,74.93,74.91,74.94,74.98,75.02,75.02,75.00,74.99,74.95,74.92,74.96,74.97,74.96,74.93,74.90,74.89,74.88,74.86,74.83,74.77,74.76,74.79,74.85,74.90,74.87,74.83,74.80,74.80,74.82,74.81,74.76,74.70,74.71,74.75,74.78,74.77,74.74,74.72,74.70,74.68,74.67,74.67,74.68,74.69,74.70,74.70,74.69,74.65,74.59,74.52,74.50,74.53,74.57,74.61,74.66,74.69,74.71,74.72,74.69,74.62,74.53,74.47,74.48,74.56,74.57,74.58,74.59,74.58,74.50,74.47,74.47,74.49,74.45,74.43,74.45,74.48,74.48,74.43,74.37,74.29,74.20,74.16,74.15,74.13,74.11,74.11,74.08
70.31,70.83,71.49,72.16,72.35,72.26,72.08,71.92,71.86,71.86,71.91,72.00,72.10,72.14,72.15,72.14,72.10,72.10,72.07,72.05,72.08,72.19,72.26,72.28,72.28,72.27,72.29,72.31,72.27,72.15,72.12,72.16,72.16,72.12,72.06,72.02,71.98,71.92,71.84,71.87,71.90,71.90,71.84,71.81,72.01,72.15,72.19,72.15,72.12,72.10,72.11,72.13,72.18,72.19,72.19,72.18,72.19,72.14,72.10,72.10,72.14,72.26,72.31,72.32,72.31,72.35,72.38,72.38,72.37,72.36,72.34,72.30,72.27,72.29,72.31,72.44,72.57,72.65,72.58,72.60,72.52,72.41,72.31,72.30,72.39,72.50,72.80,73.89,74.21,74.30,74.28,74.21,74.21,74.15,74.05,73.93,73.86,73.91,73.94,73.94,73.92,73.92,73.78,73.48,73.04,72.85,72.80,72.81,72.81,72.76,72.73,72.63,72.52,72.52,72.51,72.51,72.54,72.60,72.54,72.52,72.43,72.32,72.34,72.46,72.56,72.62,72.62,72.60,72.55,72.60,72.92,73.94,74.05,74.15,74.28,74.28,74.36,74.45,74.53,74.60,74.66,74.70,74.76,74.84,74.90,74.97,74.99,74.91,74.68,74.00,73.83,73.94,74.29,75.15,75.23,75.23,75.24,75.16,75.11,75.11,75.15,75.19,75.17,75.14,75.11,75.08,75.02,75.01,74.99,74.97,74.92,74.92,74.93,74.93,74.92,74.90,74.86,74.84,74.84,74.86,74.89,74.89,74.89,74.88,74.86,74.82,74.80,74.80,74.80,74.79,74.81,74.85,74.89,74.87,74.83,74.81,74.80,74.79,74.76,74.72,74.71,74.73,74.80,74.84,74.86,74.83,74.77,74.70,74.64,74.61,74.61,74.63,74.67,74.71,74.70,74.67,74.61,74.53,74.46,74.48,74.52,74.56,74.61,74.67,74.69,74.68,74.64,74.59,74.54,74.47,74.46,74.50,74.58,74.56,74.55,74.56,74.54,74.48,74.47,74.48,74.50,74.46,74.46,74.48,74.49,74.46,74.45,74.41,74.34,74.26,74.24,74.24,74.21,74.14,74.13,74.13
69.98,70.23,70.66,71.27,71.90,72.18,72.19,72.02,71.87,71.82,71.86,71.94,72.02,72.06,72.10,72.12,72.11,72.11,72.09,72.09,72.11,72.14,72.17,72.21,72.24,72.27,72.29,72.30,72.25,72.13,72.09,72.13,72.13,72.11,72.08,72.03,71.98,71.91,71.84,71.86,71.89,71.88,71.83,71.80,72.00,72.13,72.15,72.12,72.08,72.08,72.10,72.12,72.20,72.21,72.20,72.19,72.20,72.14,72.10,72.09,72.11,72.17,72.25,72.31,72.35,72.38,72.40,72.40,72.39,72.39,72.39,72.36,72.36,72.38,72.30,72.34,72.41,72.45,72.42,72.43,72.39,72.34,72.31,72.34,72.40,72.44,72.55,73.12,73.77,74.15,74.26,74.21,74.23,74.14,73.98,73.80,73.76,73.79,73.81,73.80,73.75,73.74,73.59,73.32,72.96,72.83,72.74,72.70,72.70,72.65,72.61,72.53,72.45,72.45,72.45,72.47,72.51,72.53,72.46,72.42,72.34,72.25,72.27,72.44,72.55,72.58,72.55,72.55,72.54,72.66,72.97,73.47,73.54,73.60,73.68,73.70,73.80,73.96,74.09,74.14,74.23,74.39,74.54,74.64,74.66,74.81,74.88,74.83,74.65,73.97,73.84,74.03,74.45,75.09,75.18,75.18,75.17,75.09,75.07,75.12,75.20,75.25,75.25,75.22,75.20,75.17,75.11,75.08,75.07,75.05,75.02,74.99,74.99,74.97,74.93,74.93,74.89,74.87,74.87,74.88,74.86,74.86,74.86,74.85,74.82,74.78,74.76,74.77,74.78,74.78,74.79,74.80,74.82,74.82,74.80,74.78,74.78,74.74,74.69,74.67,74.69,74.73,74.79,74.81,74.83,74.84,74.80,74.71,74.65,74.61,74.60,74.62,74.65,74.66,74.64,74.60,74.55,74.50,74.47,74.51,74.56,74.60,74.62,74.62,74.65,74.65,74.61,74.55,74.49,74.44,74.44,74.49,74.57,74.56,74.56,74.56,74.54,74.48,74.46,74.47,74.49,74.47,74.46,74.47,74.48,74.46,74.44,74.41,74.37,74.33,74.33,74.34,74.28,74.18,74.15,74.18
69.79,69.79,69.94,70.36,71.25,71.88,72.16,72.10,71.92,71.82,71.82,71.87,71.92,71.96,72.02,72.08,72.11,72.12,72.14,72.16,72.16,72.11,72.10,72.13,72.19,72.24,72.27,72.29,72.23,72.11,72.08,72.10,72.11,72.10,72.10,72.04,71.97,71.90,71.82,71.86,71.89,71.87,71.82,71.79,71.99,72.10,72.13,72.11,72.06,72.06,72.09,72.12,72.24,72.24,72.22,72.21,72.21,72.16,72.12,72.11,72.11,72.11,72.20,72.30,72.37,72.40,72.41,72.40,72.40,72.40,72.40,72.40,72.43,72.46,72.32,72.28,72.28,72.29,72.30,72.30,72.30,72.30,72.30,72.37,72.43,72.44,72.40,72.40,73.22,73.85,74.15,74.19,74.21,74.07,73.85,73.67,73.69,73.68,73.69,73.68,73.58,73.55,73.40,73.18,72.92,72.82,72.68,72.60,72.59,72.57,72.52,72.45,72.40,72.39,72.39,72.43,72.46,72.45,72.37,72.32,72.26,72.20,72.22,72.42,72.53,72.54,72.51,72.51,72.53,72.71,72.98,72.97,73.03,73.07,73.08,73.11,73.24,73.44,73.60,73.64,73.74,74.00,74.24,74.39,74.37,74.61,74.72,74.71,74.59,73.96,73.88,74.18,74.68,75.02,75.10,75.10,75.07,75.00,75.01,75.13,75.25,75.30,75.30,75.31,75.30,75.26,75.19,75.16,75.15,75.14,75.11,75.06,75.05,75.03,74.97,74.98,74.95,74.93,74.92,74.92,74.87,74.86,74.85,74.84,74.81,74.77,74.76,74.76,74.77,74.76,74.75,74.75,74.75,74.75,74.75,74.74,74.75,74.70,74.63,74.62,74.66,74.70,74.74,74.75,74.77,74.82,74.80,74.72,74.66,74.62,74.60,74.61,74.62,74.62,74.58,74.54,74.50,74.48,74.49,74.54,74.60,74.62,74.62,74.57,74.61,74.62,74.59,74.52,74.47,74.42,74.41,74.46,74.55,74.58,74.58,74.57,74.54,74.48,74.44,74.44,74.47,74.46,74.44,74.45,74.47,74.46,74.42,74.40,74.39,74.38,74.38,74.39,74.33,74.21,74.17,74.20
69.77,69.74,69.78,69.92,70.31,70.98,71.62,72.04,72.06,71.93,71.84,71.82,71.87,71.90,71.94,72.01,72.11,72.16,72.18,72.18,72.19,72.18,72.14,72.12,72.11,72.10,72.15,72.22,72.22,72.14,72.10,72.10,72.11,72.10,72.10,72.01,71.94,71.87,71.78,71.83,71.87,71.87,71.82,71.75,71.93,72.08,72.16,72.17,72.11,72.09,72.11,72.16,72.25,72.27,72.26,72.26,72.26,72.22,72.18,72.15,72.17,72.14,72.20,72.28,72.34,72.42,72.44,72.42,72.41,72.40,72.40,72.40,72.41,72.41,72.24,72.20,72.23,72.27,72.28,72.28,72.28,72.28,72.28,72.33,72.36,72.36,72.36,72.39,72.58,73.10,73.72,74.12,73.98,73.71,73.53,73.57,73.66,73.64,73.65,73.67,73.54,73.43,73.29,73.12,72.94,72.80,72.67,72.59,72.56,72.52,72.49,72.44,72.39,72.37,72.35,72.37,72.38,72.34,72.24,72.18,72.18,72.20,72.21,72.37,72.46,72.50,72.54,72.54,72.56,72.69,72.89,72.89,72.96,73.01,73.04,73.07,73.14,73.24,73.33,73.37,73.45,73.57,73.79,74.04,74.08,74.37,74.46,74.42,74.32,73.90,73.92,74.33,74.93,75.00,75.00,74.98,74.95,74.90,74.97,75.13,75.27,75.30,75.31,75.33,75.33,75.29,75.20,75.19,75.18,75.15,75.11,75.07,75.07,75.06,75.02,75.00,74.98,74.97,74.96,74.97,74.94,74.93,74.93,74.92,74.89,74.85,74.83,74.82,74.80,74.76,74.73,74.71,74.71,74.68,74.66,74.66,74.67,74.65,74.61,74.60,74.62,74.63,74.63,74.63,74.67,74.73,74.73,74.67,74.63,74.62,74.60,74.61,74.61,74.61,74.59,74.56,74.52,74.50,74.50,74.52,74.56,74.60,74.60,74.56,74.59,74.61,74.59,74.56,74.51,74.42,74.39,74.45,74.55,74.58,74.60,74.58,74.54,74.47,74.40,74.39,74.43,74.41,74.39,74.42,74.46,74.45,74.39,74.35,74.35,74.37,74.32,74.29,74.25,74.20,74.15,74.12
69.72,69.69,69.69,69.74,69.88,70.32,70.90,71.48,71.81,71.93,71.93,71.89,71.86,71.84,71.85,71.91,72.02,72.11,72.15,72.17,72.19,72.19,72.15,72.12,72.10,72.08,72.12,72.17,72.16,72.12,72.13,72.13,72.12,72.11,72.12,72.01,71.93,71.85,71.76,71.80,71.85,71.86,71.81,71.74,71.90,72.07,72.17,72.20,72.11,72.08,72.10,72.15,72.24,72.25,72.25,72.25,72.25,72.23,72.21,72.20,72.21,72.18,72.21,72.25,72.31,72.39,72.39,72.37,72.37,72.38,72.39,72.36,72.31,72.24,72.11,72.12,72.17,72.22,72.22,72.23,72.24,72.24,72.24,72.26,72.26,72.26,72.27,72.36,72.34,72.64,73.19,73.76,73.57,73.36,73.29,73.42,73.48,73.55,73.62,73.64,73.43,73.28,73.17,73.06,72.90,72.73,72.61,72.54,72.51,72.50,72.44,72.40,72.37,72.34,72.29,72.29,72.29,72.23,72.14,72.10,72.11,72.15,72.16,72.27,72.35,72.43,72.53,72.58,72.59,72.65,72.78,72.81,72.88,72.94,72.99,73.01,73.07,73.13,73.19,73.22,73.29,73.34,73.51,73.76,73.87,74.15,74.24,74.18,74.08,73.86,73.94,74.42,75.07,75.00,74.97,74.93,74.88,74.81,74.93,75.14,75.29,75.29,75.33,75.36,75.35,75.30,75.24,75.23,75.20,75.15,75.09,75.05,75.05,75.05,75.02,75.00,75.00,74.99,74.98,74.99,74.99,74.99,74.99,74.97,74.95,74.92,74.91,74.90,74.87,74.81,74.76,74.74,74.74,74.74,74.71,74.70,74.68,74.65,74.61,74.59,74.58,74.56,74.55,74.56,74.58,74.63,74.63,74.60,74.58,74.57,74.56,74.55,74.56,74.58,74.60,74.56,74.52,74.50,74.50,74.51,74.54,74.57,74.58,74.53,74.55,74.57,74.58,74.58,74.51,74.40,74.37,74.44,74.55,74.60,74.61,74.57,74.50,74.44,74.38,74.36,74.39,74.33,74.32,74.36,74.42,74.42,74.38,74.35,74.33,74.32,74.27,74.23,74.20,74.17,74.13,74.08
69.65,69.63,69.66,69.72,69.76,69.83,70.09,70.61,71.32,71.83,72.05,72.03,71.88,71.77,71.75,71.79,71.89,72.00,72.08,72.14,72.17,72.18,72.14,72.12,72.13,72.14,72.14,72.12,72.09,72.07,72.16,72.16,72.14,72.13,72.14,72.02,71.92,71.83,71.75,71.77,71.83,71.85,71.81,71.74,71.89,72.05,72.17,72.20,72.08,72.06,72.08,72.11,72.20,72.21,72.20,72.20,72.20,72.20,72.22,72.24,72.25,72.22,72.20,72.23,72.29,72.33,72.29,72.28,72.30,72.34,72.38,72.29,72.15,72.01,71.96,72.03,72.10,72.14,72.15,72.18,72.20,72.20,72.20,72.16,72.14,72.14,72.17,72.31,72.35,72.38,72.60,73.23,73.06,73.01,73.08,73.22,73.23,73.42,73.59,73.61,73.28,73.13,73.06,72.98,72.83,72.62,72.52,72.46,72.44,72.49,72.39,72.34,72.33,72.30,72.22,72.22,72.20,72.12,72.07,72.05,72.05,72.07,72.07,72.14,72.22,72.33,72.48,72.62,72.62,72.61,72.65,72.73,72.80,72.88,72.93,72.94,73.02,73.09,73.13,73.15,73.22,73.25,73.35,73.52,73.69,73.95,74.03,73.97,73.86,73.81,73.95,74.44,75.13,75.01,74.97,74.91,74.83,74.74,74.89,75.15,75.31,75.26,75.36,75.37,75.35,75.30,75.28,75.27,75.22,75.14,75.07,75.01,75.01,75.02,75.01,75.00,75.00,75.00,75.00,75.00,75.02,75.05,75.04,75.00,75.00,74.99,74.99,74.98,74.95,74.88,74.82,74.80,74.82,74.87,74.86,74.81,74.74,74.67,74.62,74.58,74.55,74.50,74.50,74.50,74.50,74.51,74.51,74.51,74.51,74.51,74.50,74.47,74.48,74.52,74.60,74.56,74.52,74.50,74.50,74.50,74.53,74.55,74.54,74.50,74.50,74.52,74.56,74.59,74.47,74.36,74.34,74.43,74.54,74.63,74.63,74.56,74.45,74.41,74.36,74.35,74.34,74.24,74.22,74.28,74.37,74.40,74.40,74.37,74.31,74.24,74.21,74.20,74.18,74.13,74.10,74.06
69.63,69.62,69.66,69.74,69.78,69.81,69.92,70.14,70.52,71.03,71.51,71.86,71.96,71.84,71.76,71.74,71.78,71.87,71.95,72.03,72.10,72.14,72.13,72.13,72.15,72.18,72.18,72.16,72.14,72.13,72.16,72.17,72.17,72.17,72.18,72.02,71.91,71.82,71.72,71.72,71.81,71.83,71.79,71.72,71.85,72.00,72.13,72.19,72.10,72.08,72.08,72.08,72.14,72.16,72.16,72.15,72.15,72.15,72.15,72.17,72.19,72.20,72.22,72.26,72.28,72.28,72.24,72.23,72.24,72.26,72.23,72.08,71.93,71.84,71.86,71.96,72.06,72.11,72.12,72.17,72.20,72.20,72.20,72.17,72.14,72.10,72.09,72.19,72.32,72.41,72.56,72.89,72.85,72.78,72.73,72.72,72.80,73.14,73.48,73.57,73.10,73.00,72.94,72.87,72.75,72.53,72.38,72.31,72.32,72.43,72.35,72.31,72.31,72.30,72.22,72.21,72.18,72.09,71.99,72.00,72.02,72.02,72.02,72.06,72.12,72.21,72.32,72.43,72.47,72.48,72.51,72.59,72.67,72.74,72.81,72.87,72.98,73.04,73.08,73.12,73.14,73.16,73.23,73.38,73.58,73.77,73.85,73.84,73.76,73.74,73.81,74.10,74.56,74.82,74.81,74.77,74.72,74.64,74.74,74.95,75.08,75.06,75.17,75.18,75.15,75.13,75.20,75.29,75.27,75.16,75.03,75.01,75.01,75.01,75.01,75.02,75.03,75.01,74.98,74.96,75.01,75.04,75.01,74.94,74.94,74.93,74.93,74.94,74.94,74.89,74.86,74.86,74.89,74.95,74.95,74.89,74.78,74.66,74.59,74.58,74.59,74.59,74.58,74.55,74.54,74.55,74.54,74.54,74.53,74.51,74.49,74.45,74.44,74.46,74.50,74.51,74.49,74.45,74.43,74.42,74.44,74.44,74.42,74.40,74.42,74.44,74.46,74.49,74.43,74.37,74.36,74.42,74.51,74.59,74.61,74.57,74.45,74.36,74.31,74.31,74.32,74.22,74.22,74.29,74.39,74.42,74.41,74.38,74.34,74.25,74.19,74.17,74.16,74.13,74.09,74.04
69.61,69.61,69.65,69.74,69.79,69.79,69.80,69.84,69.98,70.38,70.89,71.38,71.70,71.79,71.81,71.79,71.76,71.76,71.81,71.90,71.99,72.05,72.07,72.11,72.16,72.20,72.20,72.19,72.18,72.17,72.17,72.18,72.18,72.19,72.20,72.02,71.90,71.80,71.70,71.69,71.78,71.81,71.76,71.71,71.82,71.97,72.12,72.20,72.13,72.09,72.06,72.04,72.08,72.08,72.07,72.07,72.07,72.07,72.09,72.12,72.14,72.16,72.20,72.24,72.26,72.25,72.22,72.20,72.17,72.14,72.01,71.84,71.73,71.72,71.77,71.89,72.01,72.09,72.10,72.17,72.20,72.20,72.20,72.17,72.13,72.09,72.06,72.09,72.27,72.40,72.48,72.57,72.55,72.46,72.36,72.30,72.45,72.82,73.19,73.33,72.88,72.85,72.82,72.76,72.67,72.44,72.30,72.22,72.21,72.39,72.35,72.30,72.27,72.27,72.19,72.17,72.14,72.04,71.91,71.92,71.97,72.01,72.03,72.04,72.08,72.15,72.22,72.30,72.35,72.39,72.42,72.47,72.57,72.64,72.70,72.77,72.89,72.94,72.98,73.02,73.04,73.07,73.13,73.25,73.43,73.59,73.68,73.68,73.62,73.61,73.62,73.76,74.07,74.55,74.59,74.57,74.55,74.49,74.54,74.69,74.80,74.81,74.94,74.96,74.95,74.96,75.10,75.23,75.24,75.15,75.03,75.03,75.03,75.03,75.03,75.02,75.04,75.02,74.97,74.96,75.01,75.02,74.98,74.90,74.88,74.87,74.87,74.88,74.89,74.86,74.85,74.88,74.91,74.97,74.97,74.90,74.78,74.65,74.58,74.58,74.61,74.63,74.62,74.58,74.56,74.57,74.57,74.55,74.54,74.52,74.52,74.49,74.47,74.46,74.47,74.48,74.47,74.44,74.39,74.36,74.36,74.36,74.35,74.34,74.35,74.36,74.37,74.38,74.38,74.35,74.34,74.37,74.43,74.48,74.51,74.49,74.38,74.29,74.25,74.24,74.25,74.17,74.18,74.26,74.37,74.39,74.38,74.35,74.31,74.23,74.16,74.14,74.13,74.12,74.08,74.02
69.60,69.61,69.64,69.73,69.78,69.78,69.75,69.74,69.79,69.94,70.17,70.50,71.00,71.59,71.91,71.97,71.84,71.69,71.67,71.73,71.83,71.88,71.95,72.05,72.15,72.20,72.20,72.20,72.20,72.20,72.19,72.19,72.19,72.20,72.20,72.04,71.91,71.79,71.67,71.67,71.74,71.77,71.73,71.70,71.80,71.97,72.14,72.25,72.17,72.08,72.03,72.01,72.02,71.98,71.95,71.93,71.93,71.98,72.04,72.09,72.11,72.11,72.12,72.15,72.21,72.27,72.24,72.18,72.09,71.96,71.71,71.58,71.59,71.68,71.71,71.82,71.96,72.08,72.10,72.17,72.20,72.20,72.20,72.13,72.11,72.10,72.08,72.03,72.20,72.33,72.36,72.26,72.12,72.02,71.97,71.98,72.18,72.43,72.68,72.82,72.64,72.68,72.70,72.66,72.57,72.35,72.30,72.21,72.11,72.37,72.39,72.30,72.21,72.20,72.13,72.11,72.07,71.97,71.84,71.82,71.90,72.03,72.09,72.10,72.11,72.14,72.21,72.26,72.29,72.32,72.38,72.39,72.52,72.58,72.60,72.63,72.73,72.79,72.83,72.85,72.90,72.97,73.04,73.13,73.23,73.42,73.50,73.49,73.43,73.39,73.36,73.45,73.71,74.16,74.28,74.31,74.30,74.26,74.27,74.35,74.44,74.50,74.64,74.71,74.74,74.78,74.95,75.05,75.11,75.13,75.09,75.09,75.09,75.08,75.06,75.02,75.02,75.01,75.00,74.99,75.00,74.99,74.95,74.89,74.85,74.80,74.79,74.79,74.79,74.76,74.78,74.83,74.87,74.90,74.87,74.81,74.73,74.63,74.58,74.58,74.61,74.62,74.59,74.58,74.58,74.58,74.58,74.54,74.53,74.57,74.62,74.60,74.57,74.54,74.51,74.48,74.48,74.46,74.40,74.32,74.31,74.33,74.35,74.35,74.32,74.29,74.27,74.27,74.29,74.29,74.29,74.29,74.28,74.30,74.32,74.31,74.22,74.18,74.16,74.15,74.13,74.07,74.10,74.18,74.27,74.30,74.30,74.27,74.22,74.17,74.11,74.09,74.09,74.10,74.07,74.00
69.49,69.55,69.61,69.68,69.73,69.75,69.75,69.74,69.76,69.84,69.96,70.12,70.37,70.71,71.12,71.50,71.78,71.79,71.74,71.70,71.70,71.75,71.82,71.90,71.97,72.05,72.13,72.16,72.17,72.19,72.22,72.22,72.21,72.19,72.19,72.07,71.94,71.80,71.67,71.67,71.73,71.77,71.75,71.69,71.75,71.93,72.12,72.18,72.10,72.04,71.99,71.94,71.95,71.93,71.91,71.90,71.90,71.90,71.93,71.97,71.99,71.99,72.00,72.02,72.06,72.11,72.09,71.99,71.84,71.66,71.52,71.47,71.53,71.64,71.67,71.72,71.76,71.81,71.98,72.07,72.12,72.14,72.14,72.11,72.07,72.05,72.03,72.01,72.11,72.16,72.14,72.07,71.97,71.91,71.89,71.93,72.14,72.33,72.49,72.57,72.45,72.49,72.50,72.45,72.34,72.20,72.23,72.24,72.22,72.37,72.34,72.26,72.17,72.14,72.11,72.06,71.98,71.89,71.80,71.78,71.88,72.05,72.15,72.16,72.16,72.17,72.18,72.16,72.17,72.19,72.24,72.25,72.38,72.47,72.51,72.56,72.72,72.81,72.85,72.86,72.88,72.94,73.00,73.06,73.12,73.21,73.27,73.28,73.27,73.27,73.26,73.32,73.48,73.77,73.89,73.95,73.99,74.00,73.99,74.03,74.12,74.22,74.36,74.46,74.52,74.59,74.74,74.85,74.96,75.05,75.10,75.10,75.09,75.08,75.06,75.03,75.04,75.04,75.02,75.00,74.99,74.96,74.91,74.84,74.79,74.75,74.73,74.72,74.69,74.68,74.72,74.80,74.86,74.87,74.84,74.78,74.71,74.62,74.56,74.56,74.61,74.67,74.64,74.62,74.61,74.61,74.60,74.57,74.56,74.59,74.63,74.60,74.55,74.51,74.49,74.46,74.46,74.45,74.41,74.33,74.30,74.32,74.37,74.40,74.35,74.32,74.31,74.31,74.30,74.25,74.21,74.21,74.23,74.23,74.21,74.18,74.14,74.13,74.11,74.09,74.06,74.02,74.02,74.07,74.13,74.16,74.14,74.12,74.10,74.06,74.04,74.06,74.08,74.09,74.06,73.98
69.36,69.46,69.53,69.61,69.65,69.70,69.73,69.74,69.74,69.79,69.84,69.87,69.88,69.93,70.31,70.89,71.49,71.75,71.76,71.70,71.64,71.67,71.72,71.75,71.80,71.88,72.01,72.08,72.12,72.16,72.23,72.24,72.21,72.18,72.17,72.08,71.96,71.81,71.67,71.67,71.73,71.78,71.78,71.67,71.71,71.89,72.08,72.09,72.03,72.01,71.97,71.92,71.93,71.92,71.91,71.90,71.91,71.85,71.85,71.87,71.90,71.90,71.91,71.92,71.94,71.96,71.93,71.78,71.58,71.40,71.37,71.40,71.47,71.57,71.61,71.61,71.55,71.55,71.81,71.92,72.01,72.07,72.10,72.10,72.05,71.99,71.97,71.99,72.03,72.00,71.93,71.92,71.87,71.86,71.87,71.92,72.14,72.28,72.37,72.40,72.31,72.34,72.32,72.23,72.12,72.06,72.14,72.24,72.31,72.34,72.28,72.21,72.15,72.10,72.09,72.01,71.90,71.80,71.75,71.75,71.88,72.08,72.19,72.21,72.20,72.19,72.14,72.05,72.03,72.05,72.08,72.10,72.22,72.32,72.39,72.46,72.74,72.87,72.90,72.91,72.92,72.95,72.99,73.04,73.06,73.07,73.09,73.13,73.16,73.21,73.23,73.26,73.31,73.45,73.55,73.63,73.70,73.76,73.74,73.77,73.85,73.97,74.11,74.22,74.31,74.40,74.51,74.64,74.79,74.93,75.05,75.08,75.07,75.07,75.07,75.04,75.07,75.07,75.04,75.01,74.98,74.93,74.86,74.79,74.74,74.71,74.69,74.66,74.61,74.61,74.67,74.75,74.83,74.83,74.80,74.75,74.70,74.61,74.53,74.54,74.62,74.72,74.70,74.68,74.66,74.65,74.64,74.62,74.61,74.62,74.65,74.61,74.56,74.52,74.50,74.46,74.45,74.45,74.42,74.35,74.30,74.32,74.37,74.40,74.36,74.34,74.34,74.36,74.32,74.23,74.17,74.17,74.22,74.20,74.16,74.12,74.11,74.11,74.08,74.04,74.00,73.98,73.96,73.97,74.00,74.03,74.00,73.98,73.97,73.94,73.94,73.99,74.03,74.04,74.01,73.95
69.22,69.29,69.36,69.44,69.51,69.59,69.66,69.69,69.68,69.69,69.72,69.76,69.81,69.86,69.98,70.21,70.58,71.16,71.56,71.75,71.75,71.70,71.70,71.70,71.70,71.73,71.80,71.91,72.02,72.10,72.17,72.20,72.18,72.14,72.10,72.02,71.93,71.81,71.65,71.66,71.73,71.78,71.76,71.66,71.70,71.87,72.03,72.02,71.99,72.00,72.02,72.05,72.05,72.00,71.95,71.93,71.95,71.90,71.88,71.88,71.90,71.90,71.92,71.95,71.97,71.96,71.80,71.57,71.38,71.32,71.32,71.34,71.39,71.44,71.49,71.47,71.44,71.45,71.54,71.67,71.84,71.99,72.09,72.10,72.05,71.97,71.90,71.95,71.97,71.91,71.83,71.79,71.78,71.80,71.84,71.92,72.11,72.20,72.27,72.32,72.30,72.28,72.21,72.12,72.03,71.99,72.04,72.12,72.19,72.22,72.19,72.14,72.11,72.10,72.06,71.98,71.84,71.68,71.67,71.75,71.92,72.11,72.19,72.23,72.22,72.17,72.10,71.95,71.89,71.89,71.93,71.94,72.04,72.13,72.20,72.26,72.76,72.95,72.98,72.99,73.02,73.04,73.08,73.12,73.14,73.14,73.15,73.17,73.21,73.30,73.34,73.33,73.29,73.35,73.41,73.45,73.49,73.60,73.63,73.67,73.72,73.81,73.92,74.01,74.10,74.19,74.28,74.40,74.53,74.70,74.87,75.01,75.07,75.08,75.08,75.07,75.09,75.09,75.07,75.05,74.98,74.88,74.79,74.73,74.71,74.69,74.66,74.62,74.59,74.59,74.62,74.66,74.71,74.73,74.71,74.69,74.68,74.59,74.53,74.55,74.65,74.78,74.77,74.75,74.72,74.72,74.75,74.74,74.74,74.74,74.75,74.73,74.71,74.68,74.63,74.54,74.50,74.47,74.43,74.36,74.31,74.29,74.28,74.27,74.25,74.26,74.29,74.32,74.31,74.28,74.26,74.25,74.24,74.24,74.22,74.20,74.18,74.14,74.08,74.02,73.96,73.92,73.92,73.92,73.93,73.93,73.92,73.90,73.85,73.79,73.77,73.77,73.80,73.84,73.85,73.87
69.17,69.21,69.26,69.29,69.35,69.44,69.53,69.59,69.61,69.64,69.68,69.73,69.78,69.80,69.83,69.91,70.09,70.51,70.96,71.28,71.45,71.61,71.71,71.72,71.68,71.67,71.68,71.77,71.86,71.94,72.00,72.06,72.08,72.06,72.02,71.94,71.86,71.76,71.62,71.63,71.70,71.75,71.73,71.65,71.68,71.83,71.98,72.01,71.98,71.98,72.02,72.09,72.10,72.06,72.03,72.00,72.02,71.98,71.95,71.94,71.95,71.94,71.95,71.97,71.97,71.87,71.63,71.41,71.28,71.31,71.30,71.32,71.35,71.39,71.42,71.43,71.42,71.41,71.43,71.52,71.66,71.82,71.94,72.01,71.97,71.90,71.84,71.86,71.87,71.84,71.79,71.73,71.71,71.75,71.81,71.88,72.03,72.06,72.11,72.17,72.20,72.22,72.17,72.06,71.94,71.90,71.95,72.03,72.09,72.12,72.12,72.11,72.09,72.07,72.03,71.94,71.79,71.62,71.62,71.72,71.89,72.09,72.19,72.23,72.22,72.14,72.01,71.84,71.77,71.75,71.77,71.78,71.94,72.04,72.11,72.24,72.77,72.97,73.00,73.02,73.10,73.12,73.14,73.16,73.15,73.18,73.20,73.23,73.26,73.35,73.38,73.37,73.31,73.26,73.22,73.21,73.26,73.40,73.57,73.67,73.73,73.78,73.84,73.92,74.00,74.09,74.17,74.26,74.37,74.49,74.62,74.79,74.87,74.91,74.95,74.97,75.00,74.99,74.98,74.99,74.94,74.85,74.76,74.69,74.66,74.65,74.62,74.59,74.56,74.57,74.58,74.59,74.63,74.63,74.63,74.63,74.62,74.55,74.50,74.52,74.62,74.77,74.79,74.79,74.79,74.80,74.81,74.80,74.78,74.77,74.77,74.78,74.77,74.74,74.69,74.62,74.59,74.57,74.54,74.50,74.47,74.43,74.37,74.30,74.29,74.27,74.26,74.27,74.28,74.26,74.25,74.23,74.21,74.20,74.20,74.20,74.21,74.18,74.11,74.03,73.96,73.95,73.96,73.95,73.92,73.90,73.90,73.88,73.83,73.76,73.72,73.71,73.72,73.74,73.73,73.74
69.16,69.18,69.19,69.15,69.20,69.28,69.37,69.47,69.54,69.61,69.68,69.75,69.77,69.75,69.78,69.82,69.85,69.88,70.18,70.56,70.94,71.41,71.69,71.75,71.70,71.65,71.62,71.64,71.68,71.73,71.79,71.88,71.95,71.97,71.92,71.85,71.78,71.68,71.57,71.60,71.67,71.71,71.70,71.64,71.66,71.78,71.94,72.04,71.98,71.98,72.01,72.06,72.11,72.11,72.10,72.10,72.10,72.08,72.04,72.02,72.02,71.99,71.97,71.97,71.95,71.74,71.44,71.27,71.24,71.33,71.31,71.32,71.35,71.39,71.40,71.44,71.44,71.41,71.40,71.42,71.50,71.61,71.73,71.88,71.85,71.80,71.79,71.76,71.75,71.77,71.78,71.71,71.65,71.71,71.79,71.83,71.92,71.89,71.92,72.00,72.05,72.15,72.14,72.02,71.84,71.82,71.87,71.95,72.02,72.02,72.07,72.10,72.08,72.02,72.00,71.89,71.74,71.60,71.60,71.68,71.84,72.04,72.18,72.20,72.19,72.10,71.90,71.74,71.65,71.62,71.62,71.64,71.86,71.98,72.07,72.30,72.75,72.94,72.99,73.02,73.14,73.17,73.18,73.17,73.12,73.18,73.25,73.29,73.31,73.38,73.40,73.39,73.33,73.18,73.00,72.93,73.00,73.20,73.54,73.72,73.79,73.80,73.82,73.89,73.96,74.04,74.12,74.20,74.26,74.31,74.36,74.49,74.58,74.66,74.74,74.81,74.85,74.84,74.83,74.88,74.87,74.81,74.74,74.66,74.61,74.60,74.59,74.56,74.53,74.55,74.54,74.54,74.57,74.54,74.57,74.58,74.55,74.50,74.47,74.49,74.56,74.72,74.78,74.81,74.84,74.88,74.85,74.82,74.78,74.76,74.75,74.79,74.79,74.75,74.70,74.70,74.70,74.70,74.69,74.69,74.69,74.63,74.53,74.43,74.40,74.32,74.25,74.22,74.25,74.23,74.19,74.16,74.15,74.13,74.13,74.16,74.22,74.21,74.15,74.06,73.99,74.02,74.05,74.02,73.95,73.91,73.91,73.90,73.86,73.79,73.74,73.72,73.71,73.70,73.63,73.59
69.18,69.19,69.17,69.13,69.16,69.23,69.32,69.43,69.56,69.66,69.73,69.75,69.72,69.70,69.73,69.79,69.85,69.88,70.00,70.14,70.33,70.70,71.08,71.38,71.58,71.69,71.67,71.67,71.67,71.68,71.68,71.74,71.78,71.79,71.81,71.81,71.77,71.69,71.61,71.63,71.67,71.70,71.70,71.67,71.68,71.77,71.90,72.01,71.99,71.99,72.00,72.02,72.04,72.04,72.04,72.04,72.04,72.07,72.05,72.02,72.01,72.00,71.99,71.96,71.83,71.48,71.26,71.21,71.26,71.32,71.31,71.31,71.35,71.43,71.42,71.42,71.42,71.40,71.40,71.45,71.52,71.61,71.70,71.72,71.73,71.73,71.74,71.77,71.74,71.73,71.73,71.70,71.64,71.64,71.68,71.74,71.77,71.73,71.79,71.93,72.01,72.05,72.02,71.91,71.76,71.74,71.80,71.88,71.95,72.00,72.07,72.07,72.03,72.01,71.90,71.76,71.62,71.54,71.59,71.67,71.77,71.88,71.92,71.88,71.86,71.83,71.76,71.65,71.57,71.50,71.47,71.48,71.60,71.67,71.74,71.95,72.24,72.54,72.75,72.79,72.66,72.79,72.97,73.11,73.09,73.15,73.23,73.29,73.29,73.36,73.39,73.37,73.32,73.18,72.97,72.78,72.78,73.16,73.60,73.74,73.77,73.84,73.92,73.97,74.03,74.10,74.18,74.26,74.31,74.34,74.35,74.46,74.53,74.58,74.64,74.68,74.71,74.70,74.69,74.70,74.70,74.70,74.69,74.64,74.59,74.58,74.57,74.56,74.53,74.50,74.48,74.49,74.56,74.51,74.52,74.54,74.53,74.47,74.46,74.50,74.59,74.68,74.74,74.76,74.78,74.81,74.79,74.77,74.77,74.77,74.78,74.80,74.79,74.76,74.73,74.72,74.70,74.67,74.65,74.64,74.67,74.64,74.58,74.50,74.48,74.44,74.41,74.40,74.41,74.39,74.35,74.32,74.30,74.24,74.21,74.21,74.24,74.22,74.16,74.09,74.04,74.07,74.08,74.05,73.99,73.93,73.93,73.94,73.94,73.90,73.83,73.80,73.77,73.73,73.66,73.63
69.18,69.18,69.17,69.14,69.16,69.22,69.30,69.41,69.53,69.66,69.73,69.73,69.67,69.65,69.67,69.72,69.78,69.82,69.84,69.87,69.96,70.20,70.52,70.87,71.21,71.48,71.59,71.66,71.69,71.69,71.67,71.69,71.69,71.68,71.71,71.73,71.72,71.67,71.63,71.66,71.67,71.68,71.69,71.67,71.67,71.74,71.85,71.95,71.96,71.94,71.94,71.95,71.95,71.96,71.97,71.97,71.97,72.00,71.99,71.98,71.97,71.93,71.92,71.85,71.65,71.28,71.15,71.18,71.26,71.28,71.28,71.31,71.37,71.44,71.42,71.42,71.42,71.42,71.41,71.46,71.53,71.59,71.63,71.62,71.65,71.67,71.70,71.75,71.72,71.70,71.70,71.70,71.65,71.60,71.60,71.66,71.65,71.61,71.71,71.89,71.98,71.99,71.94,71.82,71.67,71.66,71.74,71.83,71.90,71.98,72.03,72.02,71.98,71.96,71.81,71.64,71.52,71.50,71.59,71.66,71.71,71.73,71.73,71.67,71.64,71.63,71.62,71.56,71.48,71.39,71.32,71.36,71.42,71.46,71.50,71.61,71.69,71.92,72.12,72.15,71.97,72.14,72.40,72.65,72.81,72.86,72.97,73.07,73.08,73.17,73.24,73.24,73.15,73.01,72.79,72.56,72.56,73.10,73.60,73.75,73.78,73.86,73.97,74.01,74.06,74.14,74.21,74.29,74.33,74.35,74.37,74.45,74.48,74.50,74.50,74.49,74.54,74.58,74.60,74.60,74.61,74.62,74.62,74.59,74.55,74.55,74.54,74.53,74.51,74.47,74.44,74.46,74.51,74.47,74.46,74.47,74.48,74.42,74.43,74.48,74.56,74.61,74.66,74.68,74.69,74.72,74.70,74.70,74.71,74.73,74.75,74.78,74.78,74.76,74.74,74.72,74.69,74.66,74.62,74.63,74.66,74.65,74.62,74.57,74.54,74.53,74.51,74.51,74.50,74.47,74.45,74.43,74.41,74.34,74.30,74.29,74.31,74.29,74.24,74.17,74.11,74.12,74.12,74.09,74.04,73.99,73.98,73.99,74.00,73.99,73.91,73.87,73.82,73.75,73.69,73.69
69.14,69.18,69.19,69.18,69.19,69.25,69.33,69.41,69.46,69.60,69.68,69.68,69.61,69.61,69.61,69.62,69.63,69.67,69.71,69.77,69.85,69.93,70.01,70.22,70.55,70.99,71.36,71.61,71.74,71.79,71.79,71.75,71.70,71.64,71.61,71.62,71.61,71.62,71.66,71.69,71.66,71.65,71.66,71.64,71.62,71.67,71.77,71.87,71.89,71.83,71.80,71.84,71.84,71.86,71.88,71.89,71.90,71.86,71.86,71.88,71.88,71.78,71.75,71.63,71.38,71.16,71.11,71.17,71.24,71.23,71.22,71.32,71.41,71.40,71.40,71.44,71.46,71.46,71.43,71.46,71.52,71.56,71.53,71.58,71.60,71.63,71.68,71.70,71.69,71.68,71.69,71.70,71.69,71.60,71.55,71.59,71.53,71.56,71.68,71.86,71.97,71.98,71.91,71.77,71.60,71.58,71.69,71.81,71.88,71.95,71.96,71.96,71.94,71.88,71.73,71.54,71.43,71.48,71.58,71.65,71.65,71.62,71.61,71.59,71.55,71.51,71.49,71.47,71.40,71.29,71.20,71.27,71.35,71.39,71.37,71.28,71.10,71.04,71.04,71.05,71.06,71.19,71.41,71.74,72.22,72.26,72.44,72.62,72.65,72.80,72.96,72.97,72.81,72.64,72.45,72.26,72.33,73.02,73.55,73.76,73.82,73.88,73.96,74.00,74.06,74.14,74.21,74.28,74.31,74.33,74.39,74.47,74.46,74.40,74.31,74.21,74.33,74.48,74.58,74.60,74.59,74.58,74.55,74.53,74.49,74.50,74.50,74.48,74.46,74.45,74.45,74.45,74.44,74.40,74.38,74.38,74.39,74.36,74.38,74.42,74.48,74.52,74.54,74.56,74.58,74.60,74.59,74.58,74.59,74.63,74.68,74.73,74.76,74.76,74.74,74.72,74.69,74.64,74.61,74.64,74.66,74.66,74.64,74.62,74.59,74.56,74.55,74.53,74.50,74.49,74.48,74.47,74.46,74.42,74.41,74.42,74.43,74.43,74.39,74.31,74.21,74.19,74.16,74.14,74.13,74.11,74.07,74.06,74.06,74.06,73.98,73.92,73.85,73.77,73.72,73.78
69.12,69.13,69.15,69.18,69.22,69.27,69.33,69.38,69.42,69.50,69.57,69.61,69.62,69.64,69.64,69.63,69.61,69.62,69.64,69.67,69.72,69.81,69.93,70.11,70.39,70.77,71.15,71.43,71.63,71.74,71.77,71.77,71.74,71.71,71.70,71.70,71.67,71.65,71.63,71.63,71.62,71.62,71.64,71.65,71.61,71.64,71.71,71.79,71.82,71.79,71.76,71.76,71.74,71.77,71.78,71.79,71.81,71.80,71.81,71.83,71.82,71.73,71.60,71.42,71.22,71.10,71.10,71.15,71.20,71.20,71.23,71.29,71.33,71.33,71.36,71.37,71.40,71.43,71.44,71.43,71.46,71.48,71.45,71.54,71.58,71.61,71.64,71.69,71.64,71.62,71.63,71.67,71.68,71.60,71.56,71.58,71.52,71.51,71.58,71.71,71.84,71.89,71.85,71.72,71.52,71.51,71.61,71.71,71.79,71.83,71.82,71.81,71.81,71.78,71.64,71.49,71.40,71.42,71.57,71.62,71.62,71.60,71.60,71.59,71.56,71.52,71.49,71.46,71.32,71.18,71.11,71.17,71.24,71.30,71.29,71.18,70.98,70.92,70.91,70.93,70.93,71.00,71.10,71.26,71.52,71.58,71.70,71.82,71.87,72.10,72.31,72.38,72.32,72.29,72.07,71.92,72.07,72.86,73.33,73.60,73.76,73.89,73.93,73.97,74.04,74.14,74.21,74.28,74.30,74.32,74.35,74.43,74.41,74.26,74.02,73.89,74.07,74.29,74.48,74.60,74.59,74.58,74.56,74.54,74.48,74.47,74.48,74.49,74.47,74.46,74.46,74.44,74.41,74.37,74.33,74.30,74.28,74.25,74.27,74.35,74.45,74.54,74.53,74.52,74.52,74.52,74.51,74.52,74.53,74.54,74.54,74.59,74.64,74.67,74.69,74.71,74.68,74.64,74.60,74.64,74.65,74.64,74.60,74.59,74.59,74.59,74.58,74.56,74.57,74.57,74.54,74.51,74.48,74.47,74.45,74.44,74.45,74.49,74.46,74.38,74.26,74.20,74.19,74.19,74.20,74.19,74.15,74.14,74.12,74.11,74.10,74.08,74.03,73.96,73.95,73.98
69.10,69.11,69.12,69.17,69.24,69.29,69.33,69.37,69.39,69.42,69.47,69.54,69.62,69.66,69.67,69.65,69.61,69.60,69.60,69.60,69.62,69.71,69.86,70.04,70.27,70.56,70.94,71.25,71.49,71.65,71.70,71.71,71.72,71.73,71.75,71.75,71.72,71.67,71.62,71.59,71.60,71.62,71.63,71.65,71.61,71.60,71.64,71.71,71.73,71.73,71.71,71.67,71.65,71.67,71.69,71.70,71.73,71.74,71.75,71.77,71.78,71.72,71.49,71.26,71.12,71.06,71.10,71.13,71.16,71.18,71.23,71.25,71.25,71.25,71.31,71.31,71.32,71.37,71.43,71.38,71.39,71.41,71.38,71.49,71.55,71.59,71.63,71.68,71.60,71.55,71.56,71.62,71.64,71.60,71.57,71.58,71.52,71.47,71.48,71.55,71.68,71.76,71.75,71.64,71.47,71.45,71.52,71.61,71.68,71.71,71.68,71.66,71.66,71.67,71.55,71.45,71.39,71.38,71.57,71.60,71.60,71.60,71.60,71.62,71.59,71.55,71.52,71.47,71.28,71.11,71.03,71.04,71.11,71.17,71.19,71.09,70.93,70.89,70.91,70.95,70.92,70.94,70.95,70.96,70.99,71.04,71.11,71.17,71.22,71.45,71.66,71.78,71.82,71.93,71.70,71.59,71.84,72.70,73.12,73.42,73.64,73.82,73.86,73.93,74.03,74.14,74.21,74.28,74.30,74.31,74.33,74.40,74.36,74.10,73.69,73.57,73.80,74.08,74.35,74.56,74.56,74.57,74.56,74.53,74.45,74.43,74.45,74.49,74.50,74.50,74.49,74.46,74.42,74.39,74.32,74.23,74.14,74.08,74.12,74.26,74.43,74.57,74.56,74.53,74.51,74.51,74.50,74.52,74.53,74.51,74.47,74.51,74.56,74.60,74.64,74.67,74.66,74.63,74.60,74.63,74.63,74.60,74.55,74.53,74.56,74.57,74.57,74.57,74.60,74.60,74.57,74.51,74.48,74.49,74.48,74.46,74.45,74.50,74.49,74.41,74.29,74.21,74.20,74.23,74.27,74.26,74.23,74.21,74.18,74.15,74.19,74.21,74.18,74.13,74.14,74.14
69.11,69.12,69.15,69.19,69.26,69.31,69.36,69.39,69.38,69.38,69.40,69.46,69.53,69.60,69.64,69.65,69.62,69.59,69.59,69.58,69.57,69.60,69.71,69.85,70.04,70.31,70.77,71.12,71.35,71.46,71.49,71.49,71.50,71.55,71.61,71.67,71.68,71.67,71.67,71.65,71.66,71.67,71.66,71.63,71.57,71.55,71.57,71.61,71.60,71.59,71.58,71.57,71.57,71.58,71.60,71.64,71.66,71.64,71.66,71.72,71.79,71.74,71.47,71.22,71.08,71.08,71.11,71.12,71.13,71.14,71.19,71.21,71.20,71.18,71.23,71.25,71.27,71.30,71.35,71.33,71.34,71.34,71.31,71.41,71.49,71.59,71.68,71.66,71.57,71.50,71.48,71.54,71.59,71.60,71.59,71.59,71.52,71.45,71.40,71.40,71.46,71.55,71.55,71.51,71.47,71.42,71.44,71.50,71.56,71.59,71.57,71.53,71.51,71.56,71.43,71.40,71.39,71.39,71.57,71.60,71.60,71.60,71.60,71.66,71.64,71.59,71.58,71.55,71.35,71.12,70.94,70.89,70.92,70.97,71.01,70.97,70.87,70.84,70.87,70.93,70.92,70.92,70.93,70.93,70.94,70.96,71.00,71.04,71.04,71.08,71.15,71.25,71.38,71.53,71.35,71.32,71.67,72.61,72.99,73.25,73.42,73.53,73.69,73.86,74.01,74.14,74.21,74.28,74.31,74.33,74.38,74.41,74.30,73.88,73.26,73.25,73.54,73.87,74.18,74.44,74.46,74.49,74.50,74.46,74.36,74.35,74.39,74.46,74.54,74.61,74.60,74.56,74.53,74.48,74.38,74.19,73.94,73.81,73.89,74.12,74.41,74.62,74.63,74.62,74.62,74.65,74.65,74.68,74.68,74.65,74.58,74.60,74.63,74.63,74.58,74.58,74.60,74.61,74.60,74.61,74.58,74.53,74.47,74.43,74.46,74.47,74.47,74.47,74.51,74.50,74.46,74.42,74.45,74.48,74.49,74.48,74.45,74.43,74.42,74.38,74.32,74.22,74.21,74.26,74.33,74.33,74.30,74.24,74.19,74.17,74.20,74.19,74.16,74.13,74.16,74.15
69.11,69.14,69.16,69.20,69.25,69.31,69.35,69.38,69.37,69.35,69.36,69.40,69.46,69.52,69.56,69.58,69.57,69.55,69.56,69.56,69.55,69.55,69.59,69.67,69.81,70.00,70.51,70.91,71.13,71.18,71.18,71.20,71.26,71.35,71.39,71.46,71.50,71.54,71.59,71.60,71.61,71.61,71.60,71.56,71.55,71.55,71.54,71.55,71.53,71.50,71.49,71.49,71.47,71.46,71.48,71.52,71.54,71.51,71.51,71.56,71.64,71.57,71.35,71.16,71.05,71.06,71.07,71.09,71.10,71.12,71.15,71.16,71.15,71.13,71.17,71.20,71.23,71.25,71.28,71.29,71.31,71.32,71.32,71.36,71.41,71.49,71.59,71.64,71.58,71.50,71.44,71.47,71.56,71.59,71.59,71.56,71.48,71.43,71.37,71.33,71.35,71.40,71.43,71.42,71.41,71.40,71.39,71.40,71.44,71.48,71.48,71.45,71.45,71.51,71.37,71.34,71.38,71.45,71.58,71.60,71.60,71.61,71.64,71.68,71.65,71.60,71.60,71.61,71.36,71.08,70.90,70.83,70.83,70.86,70.88,70.84,70.78,70.77,70.79,70.83,70.86,70.86,70.86,70.86,70.87,70.89,70.91,70.92,70.94,70.93,70.95,71.02,71.12,71.22,71.10,71.12,71.48,72.37,72.73,72.94,73.05,73.09,73.38,73.64,73.86,74.04,74.14,74.22,74.26,74.30,74.36,74.40,74.22,73.63,72.86,73.15,73.55,73.87,74.11,74.36,74.38,74.40,74.40,74.34,74.25,74.25,74.31,74.41,74.53,74.63,74.66,74.64,74.62,74.58,74.41,74.08,73.67,73.49,73.59,73.93,74.35,74.61,74.64,74.65,74.67,74.70,74.71,74.74,74.73,74.70,74.65,74.66,74.67,74.66,74.59,74.59,74.62,74.63,74.60,74.60,74.56,74.50,74.44,74.42,74.43,74.43,74.42,74.42,74.45,74.44,74.40,74.37,74.40,74.45,74.47,74.46,74.43,74.39,74.36,74.34,74.32,74.26,74.24,74.27,74.32,74.33,74.30,74.25,74.20,74.20,74.22,74.21,74.19,74.18,74.20,74.17
69.12,69.15,69.18,69.20,69.24,69.29,69.33,69.36,69.35,69.34,69.34,69.36,69.39,69.43,69.45,69.47,69.49,69.50,69.53,69.55,69.55,69.53,69.50,69.52,69.59,69.70,70.25,70.68,70.88,70.86,70.84,70.90,71.02,71.13,71.15,71.20,71.26,71.35,71.44,71.48,71.48,71.49,71.50,71.47,71.55,71.57,71.55,71.50,71.49,71.45,71.43,71.42,71.39,71.35,71.35,71.37,71.41,71.38,71.35,71.37,71.43,71.33,71.20,71.09,71.01,71.01,71.01,71.04,71.08,71.10,71.11,71.11,71.11,71.10,71.11,71.15,71.18,71.20,71.21,71.26,71.28,71.31,71.36,71.32,71.32,71.36,71.46,71.62,71.61,71.52,71.42,71.40,71.54,71.59,71.57,71.51,71.44,71.41,71.36,71.30,71.29,71.30,71.34,71.36,71.31,71.36,71.33,71.30,71.31,71.38,71.39,71.39,71.42,71.49,71.34,71.29,71.36,71.50,71.58,71.60,71.60,71.61,71.69,71.69,71.65,71.60,71.60,71.66,71.32,71.01,70.87,70.81,70.81,70.81,70.79,70.72,70.71,70.71,70.71,70.72,70.78,70.79,70.78,70.79,70.80,70.84,70.83,70.81,70.87,70.88,70.89,70.91,70.95,70.94,70.89,70.96,71.28,72.04,72.38,72.55,72.58,72.57,72.98,73.32,73.63,73.88,74.01,74.14,74.20,74.24,74.32,74.38,74.11,73.37,72.47,73.11,73.66,73.96,74.09,74.29,74.29,74.30,74.28,74.19,74.13,74.13,74.21,74.34,74.47,74.58,74.64,74.65,74.65,74.62,74.36,73.90,73.36,73.14,73.28,73.72,74.27,74.56,74.61,74.65,74.68,74.70,74.73,74.75,74.73,74.70,74.70,74.70,74.70,74.68,74.63,74.63,74.67,74.66,74.60,74.60,74.55,74.49,74.45,74.45,74.44,74.42,74.40,74.39,74.41,74.41,74.37,74.34,74.36,74.41,74.43,74.42,74.39,74.35,74.32,74.31,74.30,74.30,74.27,74.26,74.27,74.30,74.27,74.23,74.21,74.23,74.24,74.25,74.25,74.25,74.24,74.20
69.12,69.16,69.19,69.20,69.22,69.25,69.30,69.33,69.32,69.34,69.36,69.38,69.39,69.36,69.34,69.35,69.41,69.46,69.52,69.57,69.58,69.58,69.56,69.59,69.66,69.80,70.22,70.53,70.69,70.69,70.65,70.67,70.78,70.93,71.03,71.10,71.14,71.18,71.22,71.23,71.23,71.25,71.29,71.33,71.50,71.61,71.63,71.54,71.58,71.55,71.52,71.52,71.48,71.37,71.31,71.31,71.34,71.30,71.27,71.26,71.28,71.25,71.15,71.04,70.96,70.94,70.98,71.01,71.04,71.08,71.09,71.10,71.10,71.09,71.10,71.11,71.12,71.14,71.18,71.21,71.22,71.23,71.26,71.28,71.29,71.33,71.41,71.52,71.60,71.53,71.39,71.34,71.49,71.54,71.53,71.50,71.47,71.42,71.33,71.25,71.23,71.22,71.26,71.25,71.10,71.14,71.18,71.20,71.23,71.30,71.31,71.32,71.34,71.35,71.27,71.24,71.29,71.43,71.50,71.55,71.55,71.55,71.61,71.63,71.59,71.55,71.55,71.60,71.22,70.90,70.83,70.86,70.87,70.88,70.88,70.83,70.78,70.78,70.76,70.73,70.76,70.75,70.73,70.72,70.75,70.75,70.73,70.72,70.75,70.79,70.79,70.78,70.78,70.76,70.75,70.83,71.06,71.53,71.78,71.89,71.91,71.94,72.47,72.82,73.17,73.51,73.79,74.00,74.15,74.23,74.29,74.30,73.85,72.98,72.08,72.77,73.53,73.93,74.06,74.19,74.14,74.12,74.08,73.99,73.95,74.00,74.04,74.07,74.07,74.11,74.12,74.13,74.16,74.09,73.77,73.32,72.90,72.82,73.10,73.59,74.13,74.43,74.53,74.58,74.61,74.63,74.67,74.70,74.71,74.68,74.67,74.68,74.69,74.69,74.66,74.65,74.65,74.63,74.60,74.60,74.57,74.53,74.51,74.50,74.48,74.48,74.48,74.45,74.42,74.40,74.39,74.40,74.41,74.43,74.41,74.37,74.33,74.31,74.29,74.30,74.32,74.30,74.23,74.19,74.18,74.18,74.14,74.12,74.14,74.17,74.20,74.22,74.23,74.23,74.26,74.23
69.12,69.15,69.18,69.20,69.21,69.23,69.26,69.29,69.31,69.34,69.37,69.37,69.36,69.33,69.31,69.31,69.35,69.42,69.48,69.53,69.56,69.59,69.61,69.65,69.73,69.89,70.17,70.40,70.54,70.59,70.55,70.54,70.63,70.77,70.91,70.98,71.03,71.06,71.07,71.08,71.09,71.11,71.16,71.23,71.39,71.50,71.54,71.49,71.54,71.53,71.53,71.56,71.56,71.46,71.41,71.42,71.43,71.38,71.35,71.33,71.32,71.36,71.27,71.13,71.02,71.00,71.02,71.03,71.04,71.07,71.07,71.06,71.05,71.06,71.06,71.06,71.06,71.07,71.12,71.14,71.14,71.15,71.18,71.23,71.24,71.27,71.34,71.44,71.51,71.44,71.31,71.26,71.40,71.46,71.47,71.45,71.44,71.38,71.30,71.21,71.19,71.17,71.18,71.14,70.98,70.98,71.03,71.09,71.14,71.19,71.23,71.25,71.27,71.26,71.25,71.22,71.25,71.36,71.44,71.49,71.50,71.49,71.53,71.51,71.48,71.46,71.46,71.49,71.11,70.84,70.83,70.89,70.90,70.92,70.93,70.89,70.83,70.82,70.80,70.76,70.81,70.79,70.76,70.75,70.76,70.73,70.70,70.68,70.67,70.71,70.71,70.69,70.68,70.65,70.66,70.72,70.86,71.11,71.25,71.32,71.32,71.35,71.83,72.14,72.45,72.82,73.19,73.53,73.79,73.98,74.08,74.02,73.43,72.52,71.71,72.41,73.21,73.68,73.83,73.82,73.74,73.75,73.77,73.75,73.74,73.79,73.80,73.73,73.61,73.58,73.55,73.54,73.57,73.49,73.18,72.78,72.46,72.55,73.03,73.59,74.07,74.30,74.42,74.50,74.54,74.57,74.59,74.62,74.64,74.65,74.64,74.63,74.63,74.65,74.66,74.64,74.62,74.60,74.58,74.58,74.56,74.56,74.55,74.54,74.52,74.53,74.54,74.51,74.45,74.42,74.44,74.47,74.47,74.46,74.42,74.36,74.34,74.33,74.32,74.32,74.33,74.32,74.26,74.22,74.20,74.16,74.13,74.12,74.14,74.16,74.17,74.19,74.20,74.20,74.22,74.21
69.11,69.13,69.16,69.20,69.20,69.20,69.22,69.25,69.32,69.36,69.36,69.34,69.31,69.34,69.34,69.33,69.31,69.36,69.40,69.44,69.49,69.56,69.64,69.71,69.80,69.96,70.12,70.28,70.43,70.55,70.53,70.51,70.55,70.65,70.80,70.86,70.92,70.96,71.00,71.01,71.04,71.07,71.11,71.17,71.20,71.24,71.29,71.35,71.39,71.41,71.46,71.54,71.61,71.61,71.64,71.68,71.68,71.63,71.60,71.57,71.55,71.63,71.54,71.37,71.21,71.18,71.16,71.12,71.08,71.06,71.05,71.00,70.97,71.00,70.99,70.99,70.99,70.99,71.03,71.04,71.04,71.06,71.12,71.18,71.17,71.18,71.25,71.39,71.35,71.25,71.17,71.17,71.24,71.34,71.40,71.38,71.37,71.31,71.25,71.20,71.16,71.13,71.09,71.04,70.95,70.88,70.89,70.95,71.03,71.07,71.13,71.18,71.21,71.20,71.27,71.24,71.23,71.31,71.39,71.41,71.43,71.45,71.42,71.33,71.31,71.32,71.32,71.32,71.02,70.82,70.85,70.89,70.90,70.92,70.94,70.90,70.86,70.84,70.83,70.82,70.92,70.91,70.89,70.88,70.84,70.77,70.72,70.69,70.65,70.65,70.63,70.63,70.64,70.61,70.61,70.62,70.66,70.76,70.80,70.82,70.81,70.81,71.08,71.25,71.47,71.79,72.22,72.71,73.14,73.48,73.68,73.54,72.85,71.99,71.38,72.04,72.71,73.19,73.38,73.18,73.09,73.17,73.33,73.49,73.48,73.51,73.46,73.31,73.08,73.00,72.93,72.88,72.89,72.82,72.59,72.28,72.04,72.33,73.09,73.74,74.11,74.16,74.29,74.40,74.47,74.51,74.49,74.50,74.54,74.61,74.62,74.55,74.53,74.56,74.62,74.61,74.59,74.56,74.52,74.52,74.54,74.57,74.58,74.55,74.53,74.56,74.58,74.57,74.51,74.49,74.52,74.57,74.55,74.49,74.44,74.40,74.41,74.41,74.39,74.37,74.35,74.34,74.37,74.37,74.32,74.25,74.25,74.23,74.20,74.18,74.16,74.16,74.16,74.15,74.13,74.13
69.18,69.18,69.20,69.23,69.23,69.23,69.23,69.24,69.28,69.31,69.31,69.30,69.30,69.32,69.32,69.31,69.30,69.36,69.39,69.44,69.50,69.60,69.69,69.75,69.80,69.90,70.06,70.29,70.50,70.60,70.51,70.47,70.48,70.55,70.64,70.72,70.82,70.90,70.96,70.98,71.01,71.04,71.07,71.14,71.15,71.17,71.20,71.26,71.30,71.31,71.31,71.33,71.37,71.41,71.46,71.52,71.53,71.54,71.57,71.61,71.65,71.73,71.66,71.54,71.45,71.48,71.45,71.41,71.37,71.32,71.24,71.19,71.16,71.15,71.15,71.13,71.09,71.04,71.02,71.00,70.99,71.00,71.02,71.08,71.06,71.05,71.09,71.17,71.14,71.08,71.04,71.05,71.10,71.20,71.29,71.35,71.31,71.21,71.17,71.16,71.13,71.11,71.05,70.99,70.97,70.93,70.93,70.97,71.03,71.09,71.16,71.19,71.19,71.20,71.25,71.27,71.29,71.35,71.39,71.37,71.35,71.34,71.31,71.13,71.08,71.09,71.09,71.06,70.90,70.83,70.88,70.90,70.90,70.91,70.91,70.86,70.84,70.80,70.79,70.81,70.88,70.88,70.87,70.87,70.87,70.84,70.81,70.77,70.71,70.64,70.61,70.61,70.61,70.60,70.57,70.58,70.63,70.70,70.71,70.72,70.71,70.68,70.73,70.80,70.91,71.07,71.29,71.51,71.71,71.86,71.95,71.88,71.55,71.15,70.88,71.28,71.91,72.53,72.82,72.35,72.27,72.47,72.80,73.10,73.18,73.23,73.16,72.99,72.85,72.88,72.84,72.78,72.76,72.67,72.36,71.95,71.62,72.00,72.90,73.66,74.11,74.21,74.30,74.35,74.41,74.50,74.47,74.47,74.53,74.60,74.59,74.54,74.53,74.51,74.45,74.43,74.46,74.49,74.48,74.46,74.49,74.55,74.59,74.58,74.57,74.58,74.60,74.61,74.59,74.57,74.57,74.59,74.55,74.51,74.47,74.47,74.50,74.52,74.46,74.40,74.36,74.40,74.44,74.45,74.43,74.40,74.40,74.34,74.28,74.27,74.29,74.28,74.26,74.24,74.23,74.24
69.25,69.22,69.23,69.27,69.28,69.27,69.26,69.25,69.27,69.28,69.28,69.29,69.31,69.30,69.30,69.31,69.31,69.35,69.38,69.42,69.49,69.59,69.69,69.73,69.76,69.81,69.99,70.28,70.54,70.63,70.48,70.42,70.43,70.47,70.52,70.60,70.72,70.82,70.90,70.94,70.96,70.99,71.03,71.09,71.10,71.11,71.13,71.17,71.24,71.24,71.22,71.20,71.20,71.24,71.29,71.35,71.36,71.41,71.47,71.55,71.65,71.71,71.66,71.59,71.55,71.63,71.60,71.57,71.56,71.52,71.43,71.38,71.36,71.34,71.33,71.30,71.23,71.15,71.10,71.06,71.05,71.04,71.02,71.05,71.03,71.02,71.04,71.01,70.99,70.96,70.95,70.96,70.98,71.06,71.16,71.25,71.20,71.09,71.06,71.09,71.07,71.08,71.02,70.97,70.99,70.98,70.98,71.01,71.06,71.13,71.21,71.22,71.19,71.20,71.21,71.27,71.34,71.38,71.38,71.35,71.29,71.24,71.23,71.02,70.96,70.97,70.94,70.87,70.81,70.82,70.90,70.90,70.90,70.89,70.87,70.82,70.80,70.76,70.75,70.80,70.83,70.83,70.83,70.85,70.88,70.88,70.88,70.84,70.76,70.63,70.60,70.61,70.61,70.58,70.54,70.56,70.63,70.68,70.68,70.68,70.67,70.64,70.54,70.54,70.56,70.59,70.62,70.61,70.61,70.61,70.59,70.58,70.54,70.49,70.47,70.63,71.10,71.68,71.98,71.45,71.40,71.67,72.08,72.46,72.62,72.70,72.66,72.56,72.61,72.75,72.76,72.70,72.67,72.58,72.22,71.69,71.23,71.64,72.63,73.47,74.00,74.16,74.24,74.28,74.34,74.46,74.44,74.45,74.50,74.56,74.54,74.53,74.51,74.45,74.31,74.28,74.34,74.41,74.42,74.39,74.44,74.51,74.56,74.56,74.57,74.57,74.58,74.61,74.62,74.61,74.59,74.58,74.54,74.51,74.50,74.52,74.57,74.60,74.52,74.42,74.37,74.44,74.49,74.50,74.50,74.50,74.50,74.43,74.35,74.35,74.41,74.40,74.37,74.34,74.33,74.35
69.27,69.24,69.27,69.33,69.35,69.34,69.33,69.31,69.33,69.32,69.31,69.31,69.32,69.31,69.31,69.32,69.32,69.31,69.33,69.35,69.40,69.48,69.57,69.61,69.64,69.68,69.89,70.22,70.49,70.57,70.43,70.38,70.40,70.45,70.48,70.52,70.61,70.70,70.78,70.82,70.85,70.89,70.95,71.02,71.04,71.05,71.06,71.10,71.18,71.23,71.26,71.27,71.24,71.22,71.24,71.26,71.21,71.27,71.30,71.35,71.44,71.49,71.44,71.37,71.33,71.38,71.39,71.40,71.44,71.50,71.52,71.53,71.54,71.52,71.49,71.46,71.42,71.38,71.35,71.33,71.32,71.30,71.25,71.21,71.19,71.20,71.21,71.04,70.99,70.95,70.92,70.91,70.92,70.95,70.97,70.98,70.99,70.92,70.91,70.96,70.96,71.00,71.00,70.99,71.00,71.00,71.03,71.07,71.10,71.17,71.25,71.27,71.25,71.20,71.15,71.23,71.33,71.39,71.34,71.31,71.27,71.21,71.21,71.10,71.10,71.09,70.97,70.84,70.76,70.79,70.90,70.90,70.90,70.86,70.82,70.81,70.74,70.72,70.74,70.80,70.80,70.76,70.76,70.81,70.83,70.88,70.89,70.86,70.77,70.63,70.61,70.63,70.65,70.53,70.51,70.56,70.63,70.70,70.70,70.70,70.69,70.67,70.60,70.59,70.59,70.58,70.51,70.47,70.44,70.41,70.36,70.37,70.35,70.31,70.27,70.29,70.36,70.46,70.52,70.41,70.48,70.68,70.96,71.27,71.51,71.63,71.72,71.87,72.27,72.49,72.55,72.53,72.57,72.50,72.15,71.53,70.88,71.27,72.26,73.10,73.64,73.84,74.00,74.13,74.25,74.33,74.35,74.38,74.42,74.46,74.48,74.47,74.45,74.40,74.29,74.24,74.26,74.29,74.31,74.33,74.37,74.40,74.43,74.43,74.46,74.48,74.48,74.50,74.54,74.57,74.57,74.55,74.51,74.50,74.51,74.56,74.61,74.61,74.53,74.44,74.40,74.46,74.50,74.51,74.51,74.51,74.50,74.46,74.42,74.42,74.47,74.48,74.45,74.42,74.40,74.45
69.28,69.25,69.28,69.35,69.37,69.36,69.34,69.32,69.35,69.34,69.33,69.33,69.32,69.29,69.30,69.32,69.32,69.30,69.32,69.34,69.38,69.42,69.45,69.47,69.50,69.59,69.85,70.18,70.42,70.49,70.40,70.38,70.38,70.41,70.43,70.49,70.57,70.64,70.69,70.73,70.78,70.82,70.86,70.95,71.00,71.02,71.02,71.05,71.12,71.20,71.27,71.29,71.20,71.18,71.22,71.28,71.24,71.24,71.23,71.24,71.27,71.28,71.25,71.23,71.22,71.23,71.25,71.26,71.27,71.28,71.33,71.36,71.38,71.40,71.42,71.43,71.45,71.46,71.49,71.46,71.43,71.39,71.36,71.35,71.33,71.33,71.32,71.20,71.18,71.13,71.08,71.04,71.01,71.03,71.03,70.97,70.95,70.90,70.90,70.93,70.93,70.98,71.00,70.99,70.97,70.96,71.02,71.07,71.12,71.15,71.22,71.25,71.24,71.20,71.13,71.21,71.29,71.30,71.29,71.29,71.25,71.19,71.19,71.10,71.12,71.13,70.98,70.83,70.74,70.78,70.91,70.94,70.88,70.81,70.75,70.75,70.70,70.70,70.72,70.75,70.74,70.72,70.76,70.82,70.83,70.87,70.87,70.83,70.78,70.70,70.69,70.71,70.69,70.51,70.50,70.55,70.62,70.69,70.70,70.70,70.70,70.69,70.66,70.65,70.63,70.59,70.50,70.46,70.41,70.37,70.32,70.34,70.34,70.30,70.25,70.24,70.20,70.15,70.12,70.13,70.15,70.24,70.37,70.51,70.63,70.69,70.76,70.91,71.27,71.56,71.72,71.84,71.97,71.83,71.52,71.03,70.56,71.03,72.04,72.77,73.17,73.41,73.65,73.87,74.05,74.20,74.27,74.32,74.36,74.40,74.46,74.44,74.42,74.38,74.31,74.29,74.27,74.26,74.26,74.29,74.30,74.30,74.29,74.29,74.32,74.32,74.33,74.36,74.42,74.45,74.46,74.45,74.43,74.45,74.48,74.52,74.55,74.52,74.45,74.40,74.40,74.48,74.50,74.51,74.51,74.50,74.48,74.46,74.45,74.45,74.47,74.48,74.47,74.44,74.44,74.48
69.28,69.25,69.28,69.35,69.38,69.36,69.33,69.31,69.35,69.35,69.35,69.34,69.31,69.27,69.29,69.31,69.31,69.30,69.33,69.35,69.38,69.38,69.34,69.33,69.38,69.53,69.84,70.15,70.35,70.41,70.39,70.39,70.37,70.35,70.38,70.48,70.55,70.60,70.61,70.65,70.71,70.74,70.76,70.88,70.96,70.99,71.00,71.00,71.05,71.16,71.24,71.26,71.13,71.14,71.23,71.33,71.31,71.25,71.22,71.19,71.13,71.12,71.11,71.14,71.17,71.15,71.17,71.16,71.11,71.04,71.07,71.09,71.12,71.18,71.25,71.32,71.38,71.45,71.53,71.49,71.44,71.39,71.39,71.45,71.43,71.40,71.39,71.39,71.39,71.36,71.30,71.23,71.16,71.18,71.17,71.07,70.99,70.97,70.96,70.96,70.95,71.00,71.02,71.00,70.95,70.94,70.99,71.07,71.13,71.13,71.19,71.21,71.20,71.19,71.14,71.19,71.23,71.19,71.24,71.25,71.22,71.18,71.17,71.06,71.10,71.12,70.97,70.81,70.73,70.77,70.91,70.98,70.86,70.75,70.69,70.67,70.67,70.69,70.70,70.70,70.68,70.69,70.76,70.84,70.84,70.86,70.83,70.79,70.77,70.77,70.78,70.78,70.71,70.49,70.48,70.53,70.60,70.67,70.69,70.70,70.70,70.70,70.69,70.69,70.66,70.61,70.51,70.49,70.44,70.38,70.36,70.39,70.39,70.35,70.30,70.30,70.28,70.21,70.15,70.16,70.09,70.06,70.03,70.01,69.95,69.92,69.92,69.97,70.14,70.44,70.72,70.96,71.17,70.93,70.69,70.42,70.25,70.83,71.82,72.42,72.67,72.94,73.25,73.54,73.80,74.03,74.17,74.25,74.31,74.37,74.45,74.44,74.40,74.37,74.35,74.35,74.31,74.27,74.25,74.28,74.25,74.22,74.19,74.18,74.19,74.17,74.18,74.22,74.27,74.29,74.30,74.31,74.33,74.38,74.42,74.45,74.45,74.40,74.35,74.33,74.37,74.47,74.48,74.48,74.48,74.48,74.45,74.45,74.46,74.45,74.43,74.45,74.45,74.44,74.45,74.48
69.29,69.25,69.28,69.35,69.36,69.33,69.31,69.31,69.34,69.35,69.33,69.31,69.30,69.29,69.30,69.30,69.30,69.30,69.33,69.35,69.35,69.33,69.34,69.34,69.38,69.49,69.81,70.09,70.27,70.33,70.35,70.35,70.33,70.32,70.36,70.42,70.49,70.55,70.60,70.61,70.63,70.65,70.69,70.79,70.86,70.92,70.97,70.99,71.01,71.07,71.11,71.11,71.12,71.19,71.26,71.30,71.27,71.23,71.24,71.23,71.17,71.16,71.17,71.21,71.25,71.26,71.27,71.21,71.13,71.09,71.08,71.06,71.05,71.07,71.12,71.15,71.16,71.16,71.21,71.23,71.24,71.25,71.27,71.36,71.35,71.33,71.34,71.34,71.35,71.36,71.34,71.28,71.26,71.28,71.30,71.27,71.21,71.21,71.20,71.18,71.13,71.12,71.12,71.11,71.08,71.05,71.10,71.17,71.22,71.22,71.26,71.25,71.21,71.15,71.17,71.18,71.16,71.13,71.12,71.12,71.10,71.07,71.09,71.06,71.07,71.05,70.92,70.76,70.73,70.79,70.91,70.96,70.81,70.70,70.66,70.62,70.60,70.65,70.70,70.69,70.63,70.66,70.70,70.75,70.78,70.78,70.77,70.74,70.69,70.69,70.72,70.71,70.63,70.42,70.42,70.48,70.55,70.59,70.65,70.66,70.66,70.66,70.63,70.64,70.62,70.56,70.50,70.49,70.46,70.41,70.39,70.40,70.39,70.37,70.34,70.33,70.30,70.26,70.23,70.24,70.17,70.11,70.06,70.04,70.02,69.99,69.96,69.96,70.00,70.06,70.13,70.19,70.24,70.14,70.03,69.95,69.98,70.42,71.23,71.84,72.22,72.50,72.80,73.11,73.38,73.63,73.83,73.99,74.16,74.31,74.38,74.40,74.39,74.36,74.32,74.35,74.35,74.34,74.34,74.40,74.36,74.32,74.28,74.27,74.27,74.25,74.22,74.18,74.12,74.08,74.09,74.15,74.19,74.23,74.26,74.29,74.29,74.30,74.30,74.30,74.30,74.33,74.35,74.35,74.36,74.38,74.40,74.41,74.38,74.34,74.33,74.35,74.38,74.39,74.39,74.41
69.30,69.28,69.30,69.34,69.33,69.31,69.30,69.30,69.33,69.33,69.32,69.30,69.30,69.30,69.29,69.29,69.28,69.29,69.32,69.33,69.32,69.31,69.34,69.35,69.38,69.49,69.78,70.03,70.19,70.25,70.28,70.29,70.29,70.29,70.33,70.36,70.42,70.48,70.53,70.54,70.52,70.54,70.60,70.68,70.77,70.84,70.91,70.96,70.98,71.01,71.04,71.05,71.13,71.22,71.27,71.28,71.25,71.24,71.25,71.26,71.22,71.20,71.21,71.24,71.27,71.30,71.31,71.24,71.16,71.14,71.12,71.09,71.06,71.02,71.03,71.04,71.03,71.00,71.02,71.07,71.11,71.13,71.13,71.19,71.17,71.18,71.22,71.22,71.24,71.26,71.27,71.24,71.23,71.26,71.29,71.29,71.28,71.29,71.29,71.27,71.21,71.20,71.19,71.18,71.16,71.13,71.16,71.21,71.24,71.24,71.24,71.24,71.22,71.18,71.20,71.17,71.11,71.06,71.04,71.04,71.02,70.99,71.02,71.02,71.01,70.97,70.87,70.73,70.72,70.78,70.86,70.89,70.74,70.65,70.60,70.58,70.55,70.62,70.67,70.66,70.61,70.63,70.67,70.71,70.74,70.72,70.71,70.68,70.61,70.63,70.63,70.59,70.52,70.36,70.37,70.43,70.50,70.54,70.61,70.63,70.63,70.61,70.55,70.56,70.56,70.52,70.50,70.47,70.44,70.41,70.40,70.40,70.40,70.41,70.41,70.38,70.34,70.30,70.28,70.29,70.23,70.15,70.09,70.04,70.06,70.05,70.02,69.99,69.96,69.92,69.89,69.86,69.82,69.75,69.66,69.64,69.75,70.06,70.66,71.24,71.73,72.09,72.38,72.67,72.93,73.17,73.42,73.67,73.92,74.16,74.27,74.34,74.36,74.35,74.35,74.38,74.38,74.38,74.39,74.44,74.41,74.38,74.35,74.34,74.33,74.32,74.29,74.24,74.16,74.12,74.12,74.16,74.17,74.16,74.15,74.14,74.16,74.18,74.21,74.23,74.23,74.21,74.21,74.21,74.20,74.24,74.29,74.30,74.29,74.26,74.24,74.24,74.27,74.32,74.33,74.35
69.32,69.33,69.34,69.33,69.30,69.29,69.29,69.29,69.30,69.30,69.30,69.30,69.30,69.30,69.28,69.26,69.25,69.28,69.30,69.30,69.30,69.32,69.34,69.34,69.37,69.51,69.74,69.95,70.09,70.16,70.17,70.20,70.23,70.27,70.28,70.30,70.34,70.39,70.42,70.43,70.41,70.42,70.48,70.56,70.66,70.75,70.82,70.90,70.95,70.98,71.01,71.06,71.15,71.21,71.25,71.26,71.26,71.26,71.26,71.27,71.28,71.24,71.23,71.23,71.23,71.28,71.29,71.25,71.19,71.19,71.19,71.17,71.12,71.03,70.97,70.98,70.98,70.96,70.95,70.98,71.02,71.03,70.98,70.94,70.92,70.96,71.04,71.06,71.06,71.07,71.09,71.10,71.10,71.12,71.14,71.16,71.22,71.24,71.24,71.24,71.21,71.23,71.24,71.23,71.20,71.16,71.18,71.20,71.20,71.20,71.16,71.18,71.24,71.25,71.21,71.17,71.09,70.99,71.00,71.00,70.96,70.91,70.94,70.95,70.91,70.87,70.84,70.73,70.72,70.75,70.78,70.78,70.66,70.57,70.53,70.53,70.52,70.58,70.63,70.63,70.60,70.61,70.65,70.70,70.72,70.66,70.63,70.60,70.55,70.58,70.52,70.45,70.40,70.31,70.33,70.39,70.46,70.51,70.58,70.60,70.59,70.56,70.46,70.46,70.48,70.50,70.49,70.44,70.38,70.37,70.40,70.40,70.42,70.46,70.52,70.46,70.39,70.33,70.30,70.30,70.27,70.19,70.10,70.03,70.09,70.10,70.08,70.05,70.00,69.98,69.97,69.93,69.85,69.73,69.56,69.49,69.57,69.73,70.11,70.64,71.22,71.70,71.99,72.23,72.45,72.67,72.96,73.28,73.61,73.91,74.12,74.26,74.33,74.36,74.43,74.44,74.42,74.40,74.40,74.40,74.40,74.40,74.40,74.40,74.40,74.39,74.39,74.38,74.38,74.37,74.35,74.32,74.25,74.15,74.06,74.02,74.06,74.06,74.09,74.12,74.15,74.11,74.08,74.04,74.02,74.06,74.10,74.14,74.17,74.19,74.15,74.12,74.14,74.22,74.29,74.29
69.37,69.37,69.36,69.33,69.31,69.31,69.31,69.31,69.33,69.33,69.33,69.33,69.33,69.32,69.29,69.26,69.23,69.26,69.29,69.30,69.30,69.32,69.33,69.32,69.35,69.47,69.68,69.84,69.95,70.02,70.11,70.17,70.20,70.20,70.18,70.22,70.26,70.29,70.30,70.32,70.31,70.32,70.35,70.39,70.51,70.64,70.75,70.82,70.90,70.96,71.03,71.11,71.17,71.22,71.25,71.26,71.24,71.21,71.19,71.21,71.27,71.26,71.21,71.16,71.15,71.18,71.20,71.20,71.20,71.22,71.21,71.18,71.13,71.06,71.02,71.01,70.99,70.98,71.00,70.97,70.99,70.99,70.94,70.90,70.90,70.94,71.00,70.99,70.97,70.95,70.94,70.93,70.93,70.97,71.00,71.02,71.10,71.11,71.12,71.11,71.07,71.07,71.08,71.09,71.14,71.14,71.17,71.21,71.24,71.21,71.17,71.20,71.26,71.28,71.22,71.16,71.09,71.03,71.04,71.05,71.03,70.99,70.97,70.93,70.87,70.84,70.86,70.73,70.71,70.70,70.68,70.68,70.62,70.56,70.51,70.51,70.51,70.53,70.56,70.56,70.55,70.55,70.59,70.63,70.60,70.57,70.56,70.54,70.51,70.49,70.44,70.39,70.33,70.26,70.34,70.42,70.48,70.51,70.57,70.57,70.53,70.49,70.33,70.30,70.31,70.32,70.32,70.31,70.34,70.36,70.35,70.39,70.41,70.45,70.51,70.47,70.41,70.36,70.33,70.29,70.27,70.21,70.15,70.11,70.10,70.09,70.06,70.04,70.05,70.05,70.03,69.99,69.88,69.69,69.51,69.37,69.27,69.14,69.43,70.02,70.68,71.11,71.49,71.75,71.94,72.10,72.35,72.65,73.01,73.39,73.70,73.93,74.10,74.22,74.30,74.30,74.32,74.34,74.38,74.39,74.39,74.39,74.40,74.42,74.43,74.41,74.40,74.40,74.40,74.38,74.35,74.33,74.31,74.25,74.22,74.21,74.21,74.13,74.09,74.10,74.15,74.18,74.17,74.15,74.14,74.14,74.10,74.08,74.09,74.09,74.08,74.05,74.04,74.05,74.09,74.13
69.39,69.39,69.37,69.34,69.33,69.33,69.33,69.33,69.34,69.35,69.35,69.35,69.35,69.33,69.29,69.25,69.23,69.25,69.28,69.30,69.30,69.31,69.32,69.31,69.33,69.44,69.63,69.75,69.82,69.87,70.00,70.08,70.10,70.08,70.05,70.10,70.16,70.19,70.21,70.21,70.22,70.23,70.24,70.26,70.38,70.54,70.67,70.75,70.86,70.95,71.03,71.14,71.18,71.21,71.24,71.26,71.24,71.18,71.15,71.17,71.24,71.27,71.19,71.11,71.08,71.10,71.12,71.16,71.20,71.24,71.22,71.18,71.13,71.09,71.05,71.03,71.02,71.01,71.04,70.99,70.97,70.97,70.92,70.89,70.90,70.94,70.98,70.94,70.91,70.88,70.85,70.84,70.82,70.86,70.89,70.92,71.01,71.02,71.02,71.01,70.98,70.96,70.96,71.01,71.12,71.12,71.17,71.23,71.27,71.23,71.19,71.21,71.26,71.28,71.22,71.16,71.11,71.07,71.03,71.03,71.03,71.02,70.97,70.93,70.88,70.85,70.88,70.78,70.75,70.71,70.67,70.65,70.65,70.60,70.54,70.51,70.50,70.50,70.50,70.49,70.47,70.47,70.50,70.52,70.47,70.47,70.46,70.46,70.46,70.43,70.41,70.36,70.28,70.23,70.35,70.45,70.50,70.50,70.55,70.53,70.47,70.40,70.23,70.20,70.21,70.21,70.19,70.20,70.28,70.34,70.30,70.35,70.36,70.39,70.43,70.44,70.41,70.37,70.33,70.26,70.23,70.19,70.16,70.14,70.09,70.07,70.05,70.02,70.06,70.06,70.05,69.99,69.87,69.65,69.47,69.29,69.07,68.66,68.77,69.29,69.96,70.40,70.90,71.22,71.40,71.53,71.70,71.97,72.34,72.79,73.20,73.52,73.78,73.99,74.12,74.16,74.22,74.28,74.33,74.36,74.37,74.37,74.38,74.41,74.42,74.41,74.39,74.39,74.39,74.36,74.33,74.32,74.34,74.33,74.34,74.36,74.31,74.15,74.06,74.06,74.14,74.22,74.23,74.23,74.23,74.21,74.12,74.08,74.06,74.04,74.05,74.03,74.00,73.97,73.97,74.02
