67.10,67.07,67.00,66.92,66.83,66.78,66.74,66.73,66.76,66.80,66.91,67.01,67.07,67.07,67.04,67.07,67.12,67.18,67.31,67.54,67.83,68.14,68.40,68.51,68.43,68.19,67.86,67.34,66.70,66.09,65.59,65.11,64.83,64.71,64.68,64.66,64.58,64.53,64.43,64.25,64.02,63.72,63.21,62.55,61.97,61.74,61.65,e,e,e,e,e,e,e,e,e,e,61.56,61.69,61.75,61.76,61.74,61.80,61.81,61.85,61.92,61.96,62.00,62.04,62.10,62.18,62.25,62.29,62.33,62.41,62.54,62.65,62.68,62.68,62.73,62.75,62.76,62.79,62.83,62.80,62.75,62.73,62.73,62.74,62.78,62.80,62.79,62.78,62.79,62.75,62.72,62.71,62.68,62.61,62.56,62.54,62.47,62.38,62.39,62.36,62.19,62.20,e,e,e,e,e,e,e,e,e,e,e,e,e,e,e,e,61.46,62.31,62.89,63.24,63.40,63.40,63.40,63.41,63.43,63.44,63.41,63.39,63.36,63.31,63.34,63.38,63.40,63.40,63.40,63.40,63.40,63.40,63.40,63.41,63.41,63.41,63.41,63.40,63.40,63.41,63.42,63.44,63.48,63.52,63.54,63.54,63.54,63.59,63.64,63.64,63.60,63.63,63.68,63.74,63.81,64.24,65.05,66.04,66.94,67.08,66.49,65.78,65.26,65.07,64.87,64.75,64.71,64.72,64.73,64.75,64.79,64.84,64.92,64.57,64.04,63.55,63.39,63.39,63.37,63.34,63.30,63.31,63.31,63.33,63.36,63.39,63.36,63.33,63.42,63.78,63.94,64.00,64.00,63.96,63.97,64.07,64.10,64.05,64.01,64.04,64.08,64.13,64.19,64.31,64.45,64.52,64.54,64.60,64.67,64.75,64.82,64.90,65.04,65.23,65.45,65.68,65.79,66.03,66.21,66.10,65.22,64.00,63.32,63.24,63.70,64.06,64.17,64.54,65.38,66.58,67.04,67.27,67.37,67.38,67.56,67.65,67.73,67.85,67.94,67.90,67.87,67.90,67.94
67.06,67.03,66.96,66.87,66.81,66.73,66.68,66.67,66.68,66.72,66.86,66.98,67.09,67.17,67.12,67.13,67.15,67.12,67.08,67.18,67.35,67.55,67.78,68.06,68.24,68.33,68.38,68.10,67.74,67.34,66.91,66.30,65.73,65.26,64.92,64.71,64.65,64.63,64.59,64.48,64.36,64.17,63.87,63.45,62.94,62.48,62.28,62.05,61.62,e,e,e,e,e,e,e,e,e,e,61.73,61.71,61.68,61.78,61.80,61.82,61.85,61.87,61.89,61.94,62.00,62.08,62.20,62.23,62.27,62.34,62.41,62.54,62.59,62.60,62.66,62.70,62.72,62.75,62.81,62.79,62.74,62.73,62.75,62.72,62.77,62.79,62.78,62.74,62.75,62.72,62.70,62.70,62.69,62.66,62.64,62.64,62.63,62.50,62.45,62.39,62.28,62.25,62.26,62.21,62.12,e,e,e,e,e,e,e,e,e,e,e,e,e,e,e,62.47,62.66,63.18,63.33,63.39,63.41,63.42,63.43,63.41,63.39,63.36,63.32,63.35,63.37,63.38,63.37,63.39,63.39,63.40,63.40,63.40,63.39,63.39,63.39,63.39,63.39,63.40,63.40,63.40,63.42,63.47,63.52,63.54,63.52,63.50,63.54,63.59,63.63,63.60,63.60,63.62,63.65,63.69,63.95,64.50,65.31,66.31,66.96,66.81,66.25,65.59,65.22,64.99,64.83,64.74,64.70,64.72,64.79,64.86,64.90,64.91,64.63,64.21,63.76,63.49,63.40,63.36,63.34,63.31,63.30,63.29,63.30,63.33,63.43,63.44,63.43,63.48,63.75,63.88,63.91,63.88,63.85,63.88,64.06,64.25,64.40,64.49,64.61,64.76,64.90,65.01,65.17,65.43,65.67,65.83,66.00,66.16,66.31,66.44,66.60,66.80,67.08,67.39,67.68,67.74,67.95,68.13,68.02,67.15,65.40,64.06,63.35,63.35,63.86,64.07,64.50,65.49,67.51,68.49,68.95,69.10,69.13,69.23,69.28,69.31,69.35,69.44,69.39,69.36,69.37,69.41
67.01,66.99,66.91,66.83,66.79,66.70,66.66,66.63,66.63,66.67,66.81,66.95,67.08,67.18,67.19,67.23,67.24,67.16,67.00,66.98,67.00,67.04,67.11,67.43,67.75,68.09,68.44,68.44,68.47,68.39,68.13,67.57,66.85,66.11,65.45,65.01,64.86,64.76,64.69,64.61,64.53,64.44,64.37,64.25,63.90,63.36,62.80,62.26,61.82,e,e,e,e,e,e,e,e,e,e,61.70,61.67,61.62,61.77,61.79,61.79,61.80,61.80,61.81,61.85,61.92,62.00,62.14,62.18,62.22,62.28,62.29,62.41,62.48,62.51,62.57,62.64,62.68,62.73,62.79,62.77,62.73,62.74,62.77,62.71,62.76,62.77,62.75,62.70,62.71,62.71,62.70,62.70,62.70,62.70,62.70,62.72,62.74,62.61,62.50,62.43,62.38,62.32,62.30,62.24,62.15,e,e,e,e,e,e,e,e,e,e,e,e,e,e,e,61.79,62.09,62.75,63.14,63.31,63.38,63.40,63.40,63.40,63.39,63.36,63.35,63.37,63.37,63.35,63.34,63.37,63.38,63.39,63.39,63.38,63.37,63.37,63.37,63.38,63.37,63.39,63.40,63.40,63.42,63.47,63.51,63.52,63.50,63.46,63.48,63.55,63.62,63.59,63.58,63.57,63.59,63.65,63.77,64.04,64.61,65.57,66.62,66.97,66.70,66.02,65.44,65.15,64.96,64.82,64.72,64.74,64.83,64.91,64.94,64.87,64.73,64.46,64.08,63.66,63.48,63.42,63.40,63.38,63.36,63.34,63.33,63.37,63.55,63.64,63.69,63.75,63.93,64.07,64.07,63.96,63.81,63.81,64.14,64.62,65.11,65.40,65.64,65.89,66.12,66.29,66.49,66.88,67.25,67.54,67.77,67.98,68.16,68.33,68.51,68.72,69.03,69.37,69.67,69.64,69.77,69.88,69.78,69.05,67.16,65.31,63.88,63.20,63.74,64.00,64.38,65.32,67.83,69.41,70.19,70.41,70.44,70.48,70.48,70.46,70.43,70.50,70.46,70.43,70.43,70.46
67.00,66.92,66.85,66.79,66.75,66.79,66.75,66.69,66.63,66.68,66.80,66.92,66.97,66.88,67.15,67.26,67.24,67.13,67.06,67.05,67.06,67.02,66.87,66.95,67.07,67.26,67.55,67.80,68.17,68.40,68.41,68.36,68.11,67.61,66.94,66.23,65.57,65.11,64.83,64.69,64.55,64.50,64.47,64.42,64.27,64.16,63.77,63.23,62.72,62.24,61.94,61.76,61.66,61.77,e,e,e,e,e,e,e,e,e,61.76,61.77,61.78,61.78,61.80,61.81,61.85,61.91,62.01,62.08,62.13,62.16,62.20,62.29,62.36,62.40,62.43,62.51,62.61,62.70,62.75,62.72,62.70,62.71,62.74,62.71,62.72,62.71,62.69,62.69,62.74,62.73,62.71,62.69,62.68,62.68,62.68,62.68,62.67,62.61,62.56,62.50,62.43,62.38,62.39,62.36,62.27,62.11,e,e,e,e,e,e,e,e,e,e,e,e,e,e,e,e,61.79,62.57,63.04,63.29,63.38,63.40,63.39,63.38,63.37,63.37,63.36,63.35,63.35,63.33,63.32,63.33,63.35,63.36,63.34,63.32,63.33,63.34,63.34,63.34,63.36,63.39,63.42,63.45,63.47,63.48,63.47,63.48,63.46,63.49,63.55,63.62,63.59,63.57,63.55,63.56,63.68,63.74,63.80,64.08,64.74,65.82,66.64,66.90,66.55,65.78,65.33,65.11,65.00,64.82,64.79,64.84,64.88,64.84,64.79,64.70,64.59,64.39,64.00,63.74,63.67,63.69,63.67,63.62,63.59,63.59,63.66,63.92,64.16,64.41,64.68,64.97,65.22,65.18,64.75,64.03,63.79,64.57,65.67,66.74,67.36,67.71,68.00,68.26,68.50,68.74,69.08,69.41,69.66,69.87,69.96,70.01,70.05,70.06,70.14,70.28,70.46,70.64,70.56,70.58,70.59,70.50,70.14,69.28,67.44,65.33,63.81,63.89,63.99,64.14,64.62,66.50,68.86,70.18,70.52,70.53,70.53,70.52,70.50,70.46,70.47,70.45,70.44,70.44,70.45
66.96,66.87,66.82,66.80,66.79,66.85,66.83,66.77,66.70,66.70,66.80,66.89,66.90,66.80,67.02,67.12,67.11,67.03,66.97,66.96,66.94,66.87,66.75,66.69,66.70,66.81,67.04,67.26,67.60,67.90,68.09,68.36,68.44,68.28,67.91,67.41,66.70,66.09,65.56,65.14,64.83,64.64,64.54,64.50,64.44,64.49,64.30,63.95,63.56,62.96,62.51,62.14,61.85,61.78,e,e,e,e,e,e,e,e,e,61.74,61.71,61.69,61.76,61.78,61.78,61.80,61.85,61.93,62.00,62.05,62.09,62.13,62.19,62.25,62.31,62.35,62.41,62.50,62.59,62.67,62.66,62.65,62.66,62.69,62.70,62.68,62.66,62.65,62.65,62.70,62.71,62.70,62.67,62.65,62.64,62.63,62.62,62.63,62.59,62.57,62.54,62.50,62.44,62.44,62.41,62.33,62.20,e,e,e,e,e,e,e,e,e,e,e,e,e,e,e,e,61.40,61.82,62.39,62.89,63.20,63.36,63.39,63.38,63.37,63.37,63.37,63.36,63.34,63.32,63.30,63.31,63.32,63.33,63.32,63.30,63.31,63.31,63.32,63.31,63.34,63.38,63.43,63.47,63.46,63.44,63.43,63.45,63.44,63.47,63.54,63.61,63.57,63.52,63.50,63.53,63.69,63.73,63.69,63.75,64.10,65.01,66.06,66.77,66.90,66.28,65.66,65.30,65.11,64.93,64.84,64.83,64.80,64.72,64.66,64.58,64.51,64.41,64.16,63.97,63.95,64.01,64.09,64.26,64.40,64.53,64.71,65.04,65.39,65.79,66.21,66.62,66.97,67.05,66.79,66.26,66.15,66.83,67.77,68.68,69.26,69.54,69.72,69.87,70.01,70.17,70.37,70.55,70.68,70.78,70.80,70.79,70.77,70.72,70.73,70.77,70.84,70.90,70.83,70.79,70.76,70.70,70.54,70.27,69.04,67.04,64.67,64.12,63.97,64.00,64.22,65.24,67.67,69.48,70.42,70.68,70.70,70.74,70.80,70.86,70.84,70.64,70.63,70.81,70.86
66.90,66.84,66.81,66.82,66.88,66.90,66.90,66.87,66.81,66.73,66.79,66.84,66.85,66.84,66.84,66.88,66.91,66.89,66.78,66.78,66.73,66.65,66.69,66.57,66.53,66.59,66.76,66.79,66.89,67.09,67.41,67.89,68.19,68.41,68.55,68.53,68.06,67.43,66.67,65.83,65.28,64.86,64.62,64.54,64.49,64.52,64.54,64.50,64.38,64.02,63.41,62.75,62.17,61.81,61.69,61.65,61.64,e,e,e,e,e,e,e,e,61.56,61.73,61.75,61.76,61.77,61.80,61.88,61.93,61.99,62.05,62.06,62.09,62.15,62.23,62.30,62.33,62.38,62.45,62.55,62.59,62.60,62.60,62.62,62.68,62.65,62.62,62.60,62.61,62.64,62.67,62.67,62.63,62.60,62.59,62.57,62.56,62.59,62.55,62.54,62.56,62.57,62.50,62.46,62.41,62.36,62.33,62.17,62.10,e,e,e,e,e,e,e,e,e,e,e,e,e,e,e,60.83,61.54,62.32,62.90,63.30,63.37,63.37,63.36,63.35,63.39,63.38,63.34,63.30,63.30,63.30,63.30,63.30,63.30,63.30,63.30,63.30,63.30,63.30,63.33,63.38,63.44,63.47,63.43,63.40,63.40,63.41,63.41,63.45,63.52,63.59,63.54,63.47,63.44,63.50,63.69,63.75,63.65,63.55,63.61,64.20,65.33,66.43,67.10,66.85,66.09,65.51,65.17,65.03,64.89,64.80,64.71,64.60,64.50,64.40,64.32,64.27,64.24,64.22,64.27,64.41,64.65,65.15,65.57,65.92,66.24,66.62,67.05,67.57,68.12,68.65,69.07,69.36,69.53,69.64,69.86,70.13,70.44,70.75,71.08,71.17,71.17,71.12,71.07,71.07,71.08,71.07,71.03,70.96,70.93,70.91,70.89,70.83,70.81,70.81,70.78,70.73,70.71,70.66,70.62,70.59,70.53,70.56,70.29,68.89,65.72,64.40,63.97,63.93,63.99,64.07,66.09,68.37,70.18,70.86,70.94,71.03,71.21,71.44,71.42,70.91,70.89,71.36,71.47
66.86,66.82,66.82,66.84,66.89,66.90,66.90,66.87,66.81,66.73,66.79,66.84,66.84,66.79,66.76,66.80,66.85,66.89,66.79,66.70,66.65,66.63,66.61,66.54,66.52,66.55,66.64,66.65,66.73,66.82,66.93,67.18,67.45,67.73,68.03,68.31,68.30,68.09,67.71,67.19,66.60,65.88,65.28,64.87,64.60,64.61,64.62,64.59,64.50,64.42,64.09,63.63,63.10,62.47,62.09,61.83,61.67,61.60,e,e,e,e,e,e,e,e,61.61,61.72,61.76,61.76,61.76,61.80,61.85,61.91,61.96,61.93,61.98,62.05,62.13,62.20,62.22,62.27,62.34,62.43,62.49,62.53,62.57,62.61,62.64,62.62,62.61,62.60,62.60,62.61,62.62,62.62,62.61,62.60,62.60,62.58,62.57,62.58,62.53,62.52,62.52,62.53,62.50,62.48,62.44,62.38,62.38,62.31,62.29,62.30,e,e,e,e,e,e,e,e,e,e,e,e,e,e,e,e,e,62.06,62.75,63.17,63.34,63.35,63.32,63.34,63.33,63.31,63.28,63.26,63.29,63.30,63.30,63.28,63.25,63.24,63.24,63.26,63.31,63.37,63.42,63.45,63.43,63.39,63.36,63.34,63.37,63.40,63.43,63.48,63.53,63.51,63.45,63.41,63.44,63.68,63.78,63.70,63.57,63.54,63.80,64.57,65.62,66.65,67.04,66.54,65.89,65.33,65.08,64.98,64.86,64.75,64.69,64.68,64.75,64.91,65.14,65.40,65.65,65.96,66.34,66.74,67.20,67.62,67.98,68.29,68.61,69.01,69.49,69.99,70.39,70.66,70.73,70.71,70.66,70.60,70.65,70.78,70.93,71.03,71.02,71.00,70.99,70.97,70.97,70.99,70.99,70.95,70.85,70.80,70.78,70.77,70.76,70.76,70.86,70.91,70.86,70.92,70.79,70.75,70.78,70.61,70.59,70.45,69.61,67.52,65.32,64.30,63.95,63.95,63.96,64.95,67.08,69.41,70.34,70.42,70.47,70.53,70.63,70.58,70.37,70.35,70.52,70.57
66.83,66.81,66.82,66.85,66.89,66.91,66.92,66.89,66.83,66.75,66.79,66.82,66.82,66.76,66.73,66.74,66.77,66.81,66.72,66.62,66.61,66.66,66.67,66.58,66.55,66.56,66.59,66.52,66.53,66.53,66.52,66.58,66.84,67.14,67.48,67.85,68.11,68.25,68.26,68.09,67.63,66.94,66.25,65.62,65.07,64.82,64.71,64.66,64.60,64.64,64.51,64.24,63.86,63.28,62.74,62.25,61.87,61.63,e,e,e,e,e,e,e,e,61.53,61.68,61.74,61.74,61.70,61.73,61.77,61.83,61.88,61.85,61.88,61.94,62.01,62.09,62.13,62.19,62.25,62.30,62.39,62.46,62.53,62.58,62.59,62.60,62.60,62.59,62.57,62.57,62.59,62.60,62.60,62.60,62.60,62.59,62.58,62.58,62.52,62.50,62.50,62.51,62.50,62.47,62.43,62.39,62.37,62.36,62.32,62.28,e,e,e,e,e,e,e,e,e,e,e,e,e,e,e,e,e,61.58,62.44,62.82,63.06,63.24,63.29,63.30,63.30,63.29,63.28,63.26,63.28,63.30,63.28,63.25,63.22,63.21,63.23,63.27,63.34,63.40,63.43,63.42,63.38,63.35,63.33,63.32,63.35,63.39,63.41,63.43,63.44,63.42,63.38,63.35,63.38,63.56,63.72,63.72,63.63,63.53,63.55,64.00,64.87,66.03,66.92,66.84,66.31,65.65,65.21,65.06,65.07,65.20,65.39,65.57,65.84,66.19,66.59,67.00,67.38,67.82,68.28,68.72,69.11,69.46,69.74,69.97,70.17,70.43,70.76,71.09,71.31,71.43,71.38,71.27,71.18,71.05,70.98,70.96,70.98,70.95,70.90,70.88,70.89,70.90,70.89,70.96,70.98,70.93,70.78,70.71,70.66,70.64,70.64,70.65,70.75,70.82,70.78,70.84,70.71,70.68,70.72,70.55,70.52,70.46,70.05,68.90,66.48,64.95,64.15,63.90,63.79,64.15,65.86,68.14,69.38,69.80,69.96,70.00,70.02,69.95,69.91,69.88,69.89,69.90
66.81,66.80,66.81,66.84,66.88,66.93,66.96,66.94,66.88,66.80,66.80,66.80,66.78,66.74,66.75,66.72,66.67,66.61,66.53,66.55,66.63,66.76,66.90,66.71,66.64,66.64,66.62,66.38,66.29,66.24,66.21,66.09,66.39,66.67,66.88,67.11,67.35,67.76,68.16,68.40,68.27,68.05,67.61,66.91,65.98,65.20,64.82,64.70,64.68,64.62,64.59,64.51,64.39,64.28,63.70,62.99,62.29,61.70,61.62,e,e,e,e,e,e,e,e,61.63,61.67,61.69,61.62,61.69,61.72,61.76,61.82,61.81,61.81,61.83,61.86,61.94,62.07,62.16,62.18,62.16,62.30,62.38,62.46,62.51,62.52,62.58,62.60,62.57,62.51,62.52,62.57,62.60,62.60,62.60,62.60,62.60,62.59,62.58,62.52,62.50,62.50,62.50,62.49,62.44,62.39,62.36,62.31,62.29,62.26,62.24,62.27,62.07,e,e,e,e,e,e,e,e,e,e,e,e,e,e,e,e,e,62.08,62.45,62.98,63.26,63.29,63.30,63.30,63.30,63.29,63.30,63.29,63.26,63.23,63.22,63.24,63.28,63.34,63.38,63.39,63.38,63.35,63.31,63.31,63.32,63.34,63.38,63.39,63.40,63.36,63.29,63.23,63.24,63.26,63.29,63.33,63.54,63.71,63.75,63.59,63.51,63.66,64.21,65.18,66.40,66.93,66.78,66.17,65.44,65.14,65.48,66.16,66.91,67.39,67.88,68.35,68.78,69.17,69.51,69.87,70.23,70.57,70.84,71.03,71.13,71.18,71.18,71.16,71.17,71.18,71.17,71.13,71.08,71.05,71.05,71.14,71.05,70.94,70.87,70.84,70.82,70.82,70.84,70.85,70.83,70.99,71.07,70.98,70.78,70.66,70.57,70.51,70.46,70.45,70.44,70.43,70.41,70.40,70.37,70.36,70.36,70.31,70.32,70.29,70.14,69.75,67.97,66.03,64.58,63.85,63.55,63.78,64.74,66.23,67.88,69.05,69.54,69.66,69.68,69.62,69.54,69.51,69.53,69.53
66.81,66.80,66.82,66.86,66.89,66.95,66.98,66.93,66.84,66.83,66.76,66.77,66.80,66.74,66.73,66.77,66.74,66.59,66.51,66.54,66.64,66.75,66.74,66.68,66.60,66.52,66.41,66.25,66.15,66.10,66.07,66.01,66.15,66.28,66.44,66.77,66.93,67.15,67.46,67.82,68.08,68.19,68.09,67.78,67.28,66.45,65.74,65.20,64.85,64.70,64.66,64.60,64.50,64.48,64.23,63.80,63.19,62.44,61.92,61.73,61.65,61.60,61.60,e,e,e,e,e,e,e,61.60,61.66,61.66,61.68,61.74,61.75,61.75,61.77,61.82,61.89,62.00,62.06,62.09,62.11,62.18,62.31,62.41,62.45,62.50,62.53,62.54,62.53,62.50,62.50,62.53,62.55,62.55,62.55,62.55,62.56,62.57,62.54,62.51,62.50,62.50,62.49,62.49,62.44,62.38,62.31,62.21,62.21,62.22,62.23,62.22,62.11,62.04,61.99,e,e,e,e,e,e,e,e,e,e,e,e,e,e,e,e,e,62.32,62.90,63.14,63.26,63.30,63.30,63.30,63.30,63.29,63.28,63.26,63.27,63.29,63.33,63.37,63.38,63.37,63.35,63.32,63.30,63.30,63.31,63.32,63.35,63.40,63.40,63.34,63.22,63.19,63.22,63.25,63.27,63.27,63.39,63.54,63.65,63.65,63.56,63.56,63.83,64.48,65.61,66.54,66.87,66.62,65.91,65.37,65.67,66.67,68.14,69.11,69.59,69.94,70.25,70.51,70.70,70.85,70.97,71.08,71.17,71.22,71.24,71.23,71.21,71.21,71.19,71.18,71.22,71.13,71.02,70.95,70.95,71.07,70.98,70.85,70.76,70.75,70.72,70.69,70.66,70.64,70.62,70.69,70.71,70.65,70.56,70.48,70.41,70.35,70.30,70.29,70.24,70.17,70.07,70.00,69.94,69.88,69.80,69.69,69.69,69.60,69.44,69.20,68.06,66.28,64.76,63.90,63.49,63.57,64.08,64.92,65.92,67.51,68.20,68.36,68.34,68.29,68.26,68.24,68.23,68.21
66.80,66.81,66.84,66.88,66.90,66.95,66.96,66.89,66.78,66.82,66.73,66.73,66.77,66.71,66.69,66.79,66.78,66.57,66.52,66.56,66.66,66.72,66.58,66.63,66.54,66.38,66.22,66.15,66.08,66.03,66.02,66.02,66.01,66.00,66.11,66.48,66.56,66.62,66.79,67.15,67.65,67.99,68.20,68.29,68.28,67.64,66.80,65.96,65.29,64.96,64.80,64.68,64.55,64.53,64.57,64.45,64.05,63.25,62.41,61.97,61.76,61.63,61.61,e,e,e,e,e,e,e,61.59,61.62,61.61,61.62,61.67,61.69,61.69,61.73,61.79,61.84,61.91,61.95,62.00,62.06,62.08,62.23,62.34,62.39,62.48,62.49,62.50,62.50,62.50,62.49,62.49,62.49,62.49,62.49,62.50,62.52,62.54,62.50,62.50,62.50,62.49,62.48,62.49,62.45,62.38,62.28,62.16,62.16,62.18,62.19,62.15,62.12,62.04,61.96,e,e,e,e,e,e,e,e,e,e,e,e,e,e,e,e,e,61.72,62.33,62.82,63.12,63.26,63.30,63.29,63.30,63.30,63.29,63.30,63.32,63.34,63.37,63.37,63.35,63.34,63.32,63.30,63.30,63.30,63.29,63.30,63.32,63.40,63.39,63.30,63.17,63.17,63.21,63.25,63.27,63.26,63.29,63.41,63.57,63.72,63.62,63.50,63.54,63.88,64.79,65.96,66.74,66.93,66.39,65.68,65.84,67.02,69.08,70.49,70.91,71.10,71.26,71.37,71.41,71.38,71.32,71.27,71.24,71.21,71.17,71.11,71.07,71.10,71.11,71.11,71.21,71.10,70.96,70.85,70.83,70.93,70.84,70.73,70.64,70.63,70.58,70.52,70.46,70.42,70.38,70.32,70.27,70.22,70.15,70.08,70.01,69.95,69.88,69.82,69.72,69.58,69.41,69.30,69.20,69.08,68.91,68.68,68.65,68.50,68.29,68.11,67.46,66.03,64.73,63.95,63.54,63.45,63.58,63.89,64.28,65.86,66.57,66.74,66.69,66.64,66.65,66.64,66.60,66.57
66.80,66.84,66.87,66.90,66.90,66.91,66.84,66.77,66.75,66.74,66.74,66.69,66.62,66.58,66.63,66.65,66.61,66.50,66.55,66.62,66.69,66.71,66.61,66.60,66.49,66.33,66.22,66.19,66.14,66.10,66.08,66.08,66.03,66.00,66.02,66.08,66.21,66.38,66.55,66.72,66.95,67.27,67.63,67.95,68.13,68.13,67.80,67.22,66.52,65.66,65.14,64.83,64.66,64.60,64.58,64.59,64.46,63.93,63.30,62.71,62.19,61.77,61.65,61.59,61.56,e,e,e,e,e,e,61.51,61.56,61.61,61.62,61.66,61.67,61.68,61.70,61.74,61.79,61.85,61.91,61.96,61.99,62.11,62.22,62.32,62.42,62.46,62.48,62.50,62.49,62.47,62.46,62.46,62.46,62.46,62.46,62.47,62.49,62.50,62.50,62.50,62.48,62.47,62.49,62.48,62.42,62.34,62.26,62.18,62.11,62.06,62.02,62.01,61.98,61.88,61.67,e,e,e,e,e,e,e,e,e,e,e,e,e,e,e,e,e,61.30,62.10,62.71,63.12,63.31,63.27,63.28,63.28,63.27,63.30,63.33,63.36,63.36,63.33,63.32,63.31,63.30,63.30,63.30,63.28,63.27,63.28,63.34,63.35,63.30,63.21,63.14,63.16,63.21,63.25,63.28,63.28,63.31,63.46,63.66,63.80,63.62,63.47,63.41,63.53,64.02,65.09,66.14,66.83,66.82,66.17,66.09,67.11,69.30,70.92,71.22,71.24,71.26,71.25,71.20,71.17,71.19,71.26,71.33,71.37,71.32,71.15,70.97,70.94,70.93,70.93,70.95,70.85,70.76,70.68,70.63,70.64,70.61,70.56,70.49,70.40,70.32,70.28,70.26,70.23,70.06,69.96,69.86,69.69,69.31,69.11,68.96,68.82,68.63,68.38,68.12,67.91,67.78,67.66,67.58,67.40,67.10,66.73,66.60,66.42,66.27,66.22,65.55,64.77,64.20,63.96,63.81,63.55,63.33,63.35,63.86,64.31,64.59,64.71,64.71,64.60,64.60,64.56,64.48,64.44
66.80,66.85,66.89,66.90,66.90,66.86,66.73,66.67,66.70,66.69,66.68,66.64,66.59,66.59,66.62,66.58,66.52,66.48,66.54,66.61,66.66,66.67,66.60,66.55,66.44,66.31,66.24,66.21,66.19,66.16,66.13,66.11,66.04,66.01,66.00,65.98,66.10,66.22,66.34,66.47,66.73,66.94,67.17,67.41,67.67,68.00,68.07,67.89,67.47,66.71,66.00,65.40,64.95,64.66,64.57,64.59,64.55,64.24,63.90,63.39,62.83,62.30,61.96,61.70,61.58,e,e,e,e,e,e,61.46,61.56,61.60,61.60,61.59,61.62,61.62,61.62,61.67,61.68,61.75,61.82,61.85,61.88,61.97,62.10,62.24,62.36,62.40,62.44,62.48,62.49,62.46,62.44,62.43,62.43,62.43,62.43,62.44,62.45,62.49,62.48,62.48,62.48,62.45,62.49,62.49,62.46,62.41,62.36,62.26,62.14,62.03,61.92,61.88,61.84,61.75,61.57,e,e,e,e,e,e,e,e,e,e,e,e,e,e,e,e,e,60.95,61.85,62.33,62.63,63.04,63.17,63.23,63.25,63.26,63.30,63.32,63.34,63.34,63.31,63.30,63.30,63.30,63.30,63.28,63.27,63.26,63.28,63.32,63.30,63.22,63.15,63.12,63.15,63.23,63.33,63.43,63.48,63.53,63.63,63.72,63.74,63.60,63.46,63.36,63.34,63.55,64.38,65.44,66.35,66.65,66.33,66.57,67.68,69.61,70.98,71.25,71.28,71.30,71.29,71.22,71.15,71.11,71.12,71.16,71.18,71.12,70.98,70.82,70.77,70.75,70.73,70.70,70.62,70.54,70.44,70.35,70.21,70.11,69.98,69.75,69.28,68.49,67.92,67.78,68.21,68.48,68.48,68.35,68.13,67.74,67.51,67.31,67.10,66.86,66.58,66.25,66.00,65.89,65.82,65.81,65.68,65.42,65.15,65.04,64.94,64.87,64.85,64.44,64.17,64.06,64.07,64.05,63.83,63.49,63.30,63.70,63.80,63.89,63.94,63.93,63.84,63.82,63.77,63.70,63.65
66.80,66.85,66.88,66.90,66.89,66.79,66.65,66.59,66.64,66.66,66.60,66.60,66.63,66.65,66.64,66.56,66.49,66.49,66.51,66.56,66.61,66.63,66.57,66.50,66.40,66.31,66.26,66.22,66.23,66.22,66.16,66.12,66.05,66.01,66.01,66.04,66.12,66.12,66.16,66.33,66.75,66.82,66.79,66.81,67.08,67.53,67.92,68.17,68.21,67.88,67.12,66.22,65.38,64.77,64.58,64.51,64.47,64.34,64.31,64.01,63.55,63.03,62.43,61.91,61.63,61.56,e,e,e,e,e,e,61.60,61.60,61.58,61.49,61.56,61.57,61.56,61.62,61.59,61.65,61.73,61.74,61.76,61.84,61.98,62.16,62.28,62.32,62.38,62.45,62.50,62.47,62.43,62.40,62.40,62.40,62.40,62.40,62.43,62.48,62.45,62.47,62.47,62.44,62.49,62.50,62.49,62.48,62.46,62.37,62.22,62.03,61.83,61.72,61.66,61.58,61.44,61.11,e,e,e,e,e,e,e,e,e,e,e,e,e,e,e,e,e,e,61.70,61.99,62.64,63.00,63.15,63.21,63.24,63.30,63.30,63.30,63.30,63.30,63.30,63.30,63.30,63.29,63.26,63.25,63.27,63.30,63.30,63.24,63.16,63.11,63.12,63.15,63.26,63.44,63.63,63.75,63.83,63.82,63.74,63.60,63.55,63.45,63.34,63.25,63.26,63.76,64.69,65.66,66.16,66.32,67.15,68.45,69.93,70.83,71.11,71.25,71.35,71.40,71.34,71.21,71.06,70.93,70.85,70.80,70.75,70.71,70.62,70.57,70.54,70.49,70.42,70.34,70.23,70.09,69.93,69.63,69.40,69.13,68.66,67.67,65.94,64.62,64.29,65.35,66.27,66.45,66.30,66.05,65.82,65.61,65.39,65.14,64.87,64.66,64.34,64.09,63.99,63.99,64.07,64.04,63.91,63.84,63.83,63.85,63.85,63.79,63.79,63.94,64.11,64.21,64.26,64.19,63.86,63.52,63.66,63.80,63.85,63.83,63.79,63.78,63.73,63.68,63.65,63.58
66.80,66.83,66.85,66.85,66.82,66.67,66.57,66.56,66.62,66.60,66.58,66.61,66.64,66.60,66.57,66.55,66.53,66.52,66.49,66.49,66.50,66.51,66.52,66.46,66.38,66.31,66.29,66.26,66.24,66.22,66.19,66.20,66.11,66.06,66.05,66.08,66.12,66.11,66.22,66.49,66.72,66.79,66.80,66.78,66.84,67.01,67.23,67.51,67.88,68.10,67.83,67.29,66.57,65.65,64.98,64.59,64.39,64.22,64.21,64.17,63.98,63.62,63.33,62.67,62.04,61.63,61.50,e,e,e,e,e,e,e,61.53,61.49,61.52,61.53,61.51,61.50,61.52,61.56,61.61,61.65,61.66,61.70,61.81,61.97,62.12,62.26,62.34,62.38,62.44,62.43,62.44,62.44,62.40,62.39,62.35,62.34,62.35,62.38,62.41,62.46,62.46,62.41,62.43,62.44,62.46,62.49,62.49,62.43,62.25,61.98,61.66,61.58,61.50,61.42,61.31,61.12,60.93,60.41,59.87,e,e,e,e,e,e,e,e,e,e,e,e,e,e,e,e,e,e,62.50,62.83,63.10,63.22,63.26,63.24,63.23,63.24,63.23,63.23,63.23,63.24,63.24,63.25,63.28,63.31,63.35,63.37,63.30,63.27,63.28,63.33,63.35,63.35,63.40,63.49,63.56,63.58,63.57,63.52,63.44,63.40,63.32,63.25,63.20,63.21,63.47,64.07,64.82,65.46,66.18,67.24,68.42,69.55,70.37,70.78,70.99,71.05,71.02,70.97,70.91,70.84,70.78,70.69,70.58,70.47,70.36,70.22,70.05,69.85,69.62,69.36,69.02,68.71,68.41,68.08,67.69,67.39,67.11,66.74,66.01,64.86,64.07,63.84,64.24,64.69,64.79,64.70,64.52,64.37,64.27,64.21,64.15,64.06,64.02,63.97,63.95,63.97,63.97,64.01,64.00,63.95,63.92,63.90,63.85,63.74,63.54,63.52,63.78,64.05,64.21,64.32,64.27,64.10,63.81,63.40,63.50,63.69,63.86,63.92,63.94,63.91,63.88,63.83,63.74
66.78,66.79,66.80,66.79,66.76,66.66,66.57,66.57,66.64,66.60,66.58,66.61,66.63,66.54,66.52,66.53,66.55,66.55,66.54,66.52,66.51,66.50,66.48,66.43,66.38,66.33,66.31,66.29,66.27,66.24,66.23,66.25,66.17,66.15,66.17,66.12,66.11,66.11,66.23,66.53,66.70,66.80,66.82,66.78,66.74,66.73,66.80,66.99,67.39,67.89,68.07,67.94,67.51,66.71,65.77,65.04,64.55,64.20,64.16,64.24,64.25,64.08,63.93,63.37,62.69,62.07,61.68,e,e,e,e,e,e,e,61.51,61.49,61.48,61.48,61.48,61.43,61.46,61.49,61.51,61.53,61.54,61.56,61.64,61.79,61.93,62.13,62.24,62.30,62.37,62.40,62.44,62.44,62.40,62.39,62.33,62.30,62.30,62.31,62.37,62.42,62.45,62.42,62.40,62.41,62.44,62.48,62.49,62.45,62.26,61.98,61.69,61.55,61.44,61.34,61.23,61.12,60.91,60.39,59.84,e,e,e,e,e,e,e,e,e,e,e,e,e,e,e,e,e,e,62.20,62.46,62.76,63.06,63.18,63.17,63.18,63.20,63.20,63.20,63.20,63.21,63.24,63.28,63.31,63.36,63.40,63.42,63.32,63.30,63.33,63.38,63.37,63.32,63.31,63.35,63.39,63.38,63.35,63.31,63.28,63.25,63.20,63.16,63.15,63.16,63.26,63.59,64.13,64.86,65.93,67.07,68.15,69.05,69.62,70.03,70.33,70.53,70.59,70.57,70.51,70.43,70.33,70.13,69.89,69.66,69.43,69.17,68.90,68.57,68.20,67.80,67.34,66.96,66.63,66.29,65.94,65.66,65.43,65.17,64.73,64.11,63.75,63.62,63.65,63.79,63.83,63.79,63.68,63.60,63.56,63.58,63.62,63.61,63.68,63.78,63.88,63.98,64.00,64.00,63.98,63.97,63.95,63.88,63.72,63.48,63.20,63.24,63.56,63.88,64.08,64.22,64.18,64.13,63.94,63.42,63.33,63.55,63.83,63.98,64.03,64.05,64.03,63.97,63.87
66.75,66.73,66.72,66.72,66.71,66.78,66.67,66.63,66.69,66.64,66.61,66.60,66.58,66.47,66.47,66.49,66.53,66.58,66.64,66.66,66.66,66.62,66.47,66.42,66.40,66.37,66.32,66.30,66.30,66.29,66.29,66.29,66.23,66.30,66.36,66.16,66.11,66.10,66.19,66.41,66.69,66.83,66.85,66.80,66.78,66.73,66.67,66.64,66.71,67.19,67.76,68.12,68.17,67.98,66.99,65.93,65.00,64.31,64.16,64.21,64.33,64.40,64.21,64.02,63.61,62.95,62.06,61.62,61.46,e,e,e,e,e,e,e,61.39,61.43,61.47,61.41,61.41,61.44,61.43,61.35,61.40,61.41,61.48,61.60,61.71,61.91,62.09,62.22,62.29,62.36,62.40,62.40,62.40,62.39,62.33,62.29,62.28,62.28,62.30,62.36,62.42,62.45,62.39,62.39,62.41,62.43,62.48,62.43,62.25,62.04,61.94,61.66,61.48,61.35,61.21,61.13,60.90,60.35,59.78,59.84,e,e,e,e,e,e,e,e,e,e,e,e,e,e,e,e,e,e,61.82,62.16,62.73,63.04,63.09,63.15,63.19,63.20,63.20,63.21,63.23,63.28,63.34,63.35,63.40,63.45,63.45,63.31,63.26,63.24,63.23,63.17,63.15,63.16,63.19,63.24,63.22,63.18,63.13,63.11,63.11,63.09,63.08,63.09,63.10,63.14,63.27,63.65,64.39,65.53,66.61,67.60,68.41,68.55,68.79,69.23,69.77,70.11,70.14,70.00,69.78,69.53,69.11,68.66,68.23,67.83,67.39,67.02,66.61,66.16,65.66,65.24,64.94,64.72,64.54,64.40,64.25,64.13,64.02,63.88,63.76,63.68,63.66,63.66,63.67,63.68,63.66,63.62,63.60,63.57,63.57,63.59,63.60,63.68,63.78,63.89,64.01,64.08,64.05,64.00,63.96,63.93,63.76,63.42,63.05,62.77,62.96,63.27,63.57,63.78,63.92,63.91,63.91,63.89,63.74,63.31,63.43,63.75,63.97,64.02,64.13,64.14,64.05,63.97
66.75,66.72,66.70,66.71,66.77,66.79,66.76,66.76,66.78,66.69,66.63,66.57,66.50,66.45,66.47,66.48,66.51,66.54,66.58,66.55,66.54,66.54,66.43,66.46,66.43,66.36,66.30,66.29,66.29,66.30,66.33,66.34,66.23,66.21,66.23,66.13,66.07,66.07,66.16,66.35,66.69,66.74,66.75,66.74,66.54,66.42,66.40,66.46,66.59,66.82,67.12,67.49,67.87,68.03,67.68,67.00,66.12,65.23,64.60,64.33,64.26,64.26,64.23,64.19,63.98,63.54,62.87,62.30,61.96,61.69,e,e,e,e,e,e,e,e,61.42,61.42,61.39,61.38,61.36,61.34,61.32,61.34,61.37,61.42,61.52,61.70,61.89,62.05,62.15,62.25,62.32,62.36,62.38,62.37,62.32,62.27,62.24,62.24,62.25,62.29,62.34,62.37,62.32,62.34,62.35,62.36,62.38,62.36,62.26,62.15,62.07,61.76,61.59,61.45,61.28,61.16,60.91,60.42,59.92,59.89,e,e,e,e,e,e,e,e,e,e,e,e,e,e,e,e,e,e,e,e,e,62.50,62.76,62.98,63.12,63.17,63.19,63.22,63.26,63.29,63.31,63.31,63.29,63.27,63.24,63.16,63.14,63.13,63.13,63.07,63.03,63.03,63.05,63.08,63.06,63.02,62.98,62.98,63.00,63.00,63.02,63.05,63.08,63.10,63.19,63.43,63.93,64.86,65.93,66.96,67.75,67.61,67.36,67.38,67.76,68.41,68.67,68.48,68.07,67.65,67.21,66.76,66.32,65.90,65.48,65.23,65.04,64.86,64.65,64.40,64.23,64.11,64.05,64.06,64.07,64.04,63.97,63.90,63.86,63.79,63.72,63.68,63.68,63.63,63.58,63.55,63.56,63.54,63.54,63.55,63.58,63.66,63.75,63.84,63.92,64.02,64.01,63.97,63.89,63.65,63.33,63.03,62.79,62.66,62.82,63.03,63.25,63.45,63.61,63.50,63.37,63.40,63.78,63.72,63.51,63.47,63.79,63.96,64.06,64.09,64.07,64.04
66.77,66.75,66.72,66.74,66.83,66.79,66.82,66.85,66.85,66.77,66.65,66.52,66.42,66.42,66.44,66.46,66.48,66.49,66.50,66.44,66.41,66.43,66.39,66.47,66.45,66.36,66.28,66.27,66.27,66.29,66.34,66.35,66.21,66.12,66.10,66.09,66.03,66.03,66.10,66.26,66.60,66.58,66.57,66.57,66.27,66.15,66.17,66.32,66.58,66.57,66.59,66.86,67.40,67.78,68.03,67.82,67.20,66.28,65.27,64.66,64.32,64.16,64.23,64.23,64.14,63.95,63.60,63.04,62.41,61.97,e,e,e,e,e,e,e,e,61.37,61.39,61.36,61.32,61.31,61.34,61.27,61.28,61.28,61.28,61.35,61.49,61.68,61.86,62.00,62.10,62.21,62.30,62.33,62.34,62.31,62.26,62.21,62.20,62.20,62.22,62.25,62.27,62.24,62.27,62.29,62.29,62.29,62.28,62.26,62.22,62.15,61.84,61.69,61.53,61.31,61.16,60.90,60.50,60.10,60.01,e,e,e,e,e,e,e,e,e,e,e,e,e,e,e,e,e,e,e,e,e,62.06,62.30,62.60,62.87,63.02,63.13,63.21,63.26,63.27,63.26,63.22,63.15,63.08,63.02,63.01,63.01,63.02,63.02,62.96,62.93,62.92,62.94,62.97,62.94,62.91,62.89,62.90,62.93,62.96,63.00,63.04,63.06,63.08,63.13,63.27,63.54,64.19,65.20,66.28,67.13,66.97,66.37,65.95,66.01,66.75,67.08,66.83,66.31,65.86,65.52,65.13,64.74,64.38,64.07,63.93,63.91,63.94,63.96,63.89,63.84,63.82,63.85,63.98,64.11,64.14,64.07,63.99,63.96,63.87,63.77,63.69,63.69,63.62,63.55,63.51,63.52,63.52,63.51,63.51,63.54,63.62,63.70,63.77,63.83,63.94,63.95,63.93,63.82,63.44,63.00,62.73,62.61,62.62,62.72,62.84,62.98,63.16,63.28,63.10,62.90,62.93,63.56,63.94,63.56,63.25,63.58,63.87,63.97,64.02,64.06,64.08
66.85,66.83,66.83,66.84,66.86,66.82,66.83,66.83,66.81,66.89,66.68,66.48,66.36,66.31,66.34,66.40,66.44,66.45,66.47,66.40,66.35,66.35,66.35,66.40,66.45,66.42,66.26,66.23,66.22,66.22,66.24,66.24,66.16,66.11,66.09,66.07,66.02,65.99,65.99,66.04,66.29,66.30,66.25,66.18,66.05,66.07,66.09,66.23,66.61,66.49,66.45,66.56,66.82,67.19,67.66,67.96,67.92,67.37,66.40,65.48,64.76,64.36,64.31,64.13,64.01,63.98,63.95,63.68,63.26,62.77,62.19,e,e,e,e,e,e,e,e,61.24,61.29,61.31,61.30,61.31,61.27,61.25,61.25,61.24,61.20,61.27,61.43,61.63,61.83,61.89,62.03,62.16,62.23,62.30,62.30,62.28,62.24,62.19,62.16,62.15,62.16,62.16,62.16,62.20,62.22,62.22,62.21,62.18,62.19,62.21,62.18,61.90,61.71,61.50,61.22,61.06,60.84,60.56,60.31,60.27,60.02,e,e,e,e,e,e,e,e,e,e,e,e,e,e,e,e,e,e,e,e,e,61.43,61.71,62.17,62.57,62.96,63.13,63.20,63.21,63.15,63.05,62.98,62.92,62.88,62.87,62.89,62.90,62.91,62.84,62.81,62.84,62.91,62.95,62.91,62.91,62.93,62.96,62.97,63.02,63.08,63.11,63.06,63.04,63.07,63.18,63.33,63.65,64.44,65.52,66.66,67.04,66.56,65.89,65.41,65.62,65.55,65.20,64.83,64.72,64.71,64.49,64.25,64.06,63.96,63.82,63.72,63.68,63.69,63.74,63.78,63.85,63.97,64.18,64.30,64.28,64.14,63.98,63.90,63.83,63.77,63.68,63.67,63.66,63.62,63.54,63.51,63.54,63.52,63.47,63.45,63.54,63.63,63.71,63.79,63.88,63.93,63.91,63.79,63.47,63.01,62.70,62.58,62.65,62.71,62.79,62.89,62.97,62.93,62.79,62.71,62.70,62.74,63.46,63.46,63.27,63.33,63.68,63.84,63.94,64.00,64.05
66.82,66.80,66.77,66.76,66.76,66.71,66.72,66.72,66.70,66.75,66.54,66.38,66.30,66.25,66.29,66.37,66.41,66.40,66.47,66.41,66.34,66.29,66.30,66.33,66.43,66.45,66.25,66.19,66.17,66.16,66.15,66.22,66.18,66.13,66.10,66.06,66.02,66.00,65.97,65.95,66.07,66.09,66.05,65.97,65.91,65.99,66.03,66.15,66.41,66.25,66.20,66.26,66.44,66.79,67.17,67.59,67.91,67.90,67.28,66.47,65.63,64.88,64.49,64.24,64.04,63.90,63.93,63.94,63.77,63.38,62.80,e,e,e,e,e,e,e,e,61.19,61.27,61.25,61.24,61.26,61.22,61.22,61.23,61.22,61.16,61.17,61.25,61.40,61.60,61.66,61.81,61.95,62.06,62.17,62.21,62.23,62.23,62.20,62.16,62.13,62.12,62.11,62.09,62.13,62.16,62.16,62.15,62.11,62.13,62.17,62.18,61.93,61.69,61.43,61.16,61.00,60.76,60.53,60.38,60.42,60.20,e,e,e,e,e,e,e,e,e,e,e,e,e,e,e,e,e,e,e,e,e,61.07,61.05,61.19,61.58,61.99,62.42,62.70,62.79,62.77,62.83,62.85,62.83,62.77,62.77,62.78,62.79,62.79,62.76,62.75,62.80,62.89,62.94,62.94,62.96,63.00,63.05,63.06,63.09,63.13,63.15,63.12,63.13,63.14,63.17,63.23,63.39,63.90,64.77,65.93,66.76,66.74,66.23,65.56,65.25,65.05,64.80,64.63,64.66,64.58,64.30,64.09,64.09,64.21,64.03,63.87,63.78,63.73,63.73,63.78,63.86,63.98,64.18,64.28,64.23,64.08,63.91,63.86,63.79,63.71,63.62,63.62,63.62,63.60,63.56,63.55,63.57,63.54,63.50,63.52,63.58,63.61,63.66,63.74,63.81,63.84,63.83,63.77,63.59,63.24,62.89,62.67,62.70,62.71,62.71,62.74,62.78,62.72,62.65,62.61,62.58,62.51,63.09,63.41,63.44,63.27,63.53,63.72,63.86,63.93,64.01
66.76,66.72,66.66,66.61,66.60,66.55,66.57,66.59,66.58,66.51,66.35,66.27,66.25,66.22,66.26,66.36,66.40,66.36,66.47,66.44,66.35,66.25,66.26,66.26,66.40,66.46,66.23,66.15,66.13,66.10,66.08,66.23,66.21,66.15,66.10,66.07,66.02,66.02,66.00,65.92,65.90,65.92,65.91,65.86,65.81,65.89,65.98,66.06,66.11,65.96,65.93,66.00,66.19,66.52,66.68,67.02,67.53,68.08,67.96,67.48,66.67,65.59,64.77,64.47,64.17,63.82,63.75,63.99,64.07,63.93,63.62,62.99,e,e,e,e,e,e,e,e,e,61.14,61.16,61.20,61.15,61.17,61.20,61.20,61.18,61.13,61.12,61.20,61.34,61.43,61.57,61.72,61.86,62.00,62.08,62.15,62.19,62.19,62.18,62.14,62.10,62.08,62.03,62.07,62.10,62.10,62.09,62.04,62.06,62.12,62.15,61.95,61.64,61.35,61.13,60.95,60.68,60.47,60.39,60.52,60.44,e,e,e,e,e,e,e,e,e,e,e,e,e,e,e,e,e,e,e,e,e,e,60.03,60.13,60.41,60.75,61.45,61.98,62.18,62.24,62.54,62.72,62.75,62.67,62.68,62.68,62.68,62.69,62.70,62.73,62.80,62.87,62.94,62.99,63.03,63.08,63.16,63.17,63.18,63.18,63.19,63.21,63.27,63.25,63.20,63.20,63.27,63.49,64.06,65.08,66.28,66.85,66.71,66.04,65.26,65.03,64.96,64.99,65.06,64.78,64.33,64.12,64.27,64.58,64.38,64.20,64.08,63.95,63.81,63.80,63.87,63.95,64.09,64.15,64.10,63.95,63.80,63.82,63.74,63.63,63.56,63.56,63.55,63.55,63.57,63.61,63.60,63.56,63.55,63.65,63.66,63.62,63.62,63.69,63.74,63.73,63.73,63.74,63.72,63.54,63.17,62.84,62.76,62.71,62.63,62.59,62.62,62.60,62.60,62.56,62.53,62.55,62.77,63.34,63.64,63.32,63.38,63.59,63.76,63.86,63.95
66.77,66.73,66.67,66.58,66.47,66.47,66.52,66.61,66.65,66.40,66.32,66.29,66.29,66.26,66.40,66.45,66.43,66.38,66.47,66.50,66.42,66.26,66.22,66.19,66.25,66.28,66.16,66.12,66.08,66.06,66.09,66.24,66.16,66.10,66.10,66.09,66.03,66.02,65.99,65.92,65.90,65.87,65.84,65.82,65.80,65.79,65.83,65.87,65.85,65.84,65.87,66.10,66.48,66.64,66.65,66.72,66.95,67.47,67.92,67.91,67.49,66.73,65.61,64.84,64.39,64.13,63.76,63.71,63.85,64.02,64.05,63.55,63.42,63.01,62.12,61.29,61.13,61.11,e,e,e,e,e,e,e,61.07,61.11,61.19,61.19,61.16,61.13,61.12,61.14,61.30,61.41,61.52,61.63,61.77,61.86,61.93,62.00,62.04,62.08,62.12,62.12,62.06,62.01,62.01,62.03,62.05,62.09,62.02,61.98,61.98,62.02,61.88,61.63,61.36,61.14,61.00,60.82,60.61,60.45,60.53,60.66,60.76,60.77,60.62,e,e,e,e,e,e,e,e,e,e,e,e,e,e,e,e,e,e,e,59.63,59.71,59.94,60.32,60.80,61.17,61.36,61.47,61.86,62.22,62.45,62.50,62.51,62.58,62.63,62.65,62.70,62.76,62.84,62.93,63.01,63.05,63.10,63.19,63.33,63.35,63.32,63.29,63.28,63.25,63.29,63.24,63.16,63.16,63.26,63.37,63.68,64.33,65.48,66.40,66.74,66.46,65.68,65.20,65.00,65.00,65.09,64.96,64.67,64.44,64.38,64.53,64.67,64.77,64.73,64.41,64.01,63.84,63.82,63.87,63.95,63.94,63.92,63.88,63.74,63.68,63.64,63.60,63.55,63.53,63.54,63.58,63.63,63.65,63.59,63.54,63.53,63.60,63.63,63.60,63.58,63.61,63.66,63.67,63.67,63.67,63.67,63.61,63.40,63.10,62.78,62.66,62.64,62.67,62.71,62.73,62.69,62.62,62.55,62.52,62.59,62.94,63.32,63.51,63.22,63.28,63.49,63.73,63.86
66.82,66.75,66.66,66.53,66.38,66.38,66.43,66.50,66.53,66.35,66.33,66.36,66.39,66.36,66.46,66.48,66.45,66.42,66.51,66.60,66.57,66.43,66.31,66.26,66.25,66.22,66.11,66.08,66.04,66.05,66.13,66.28,66.18,66.11,66.10,66.10,66.04,66.01,65.97,65.91,65.88,65.83,65.80,65.80,65.77,65.73,65.75,65.77,65.72,65.75,65.81,66.06,66.45,66.61,66.68,66.65,66.67,66.96,67.57,67.89,67.88,67.51,66.52,65.54,64.84,64.41,63.96,63.70,63.74,63.93,64.11,63.88,63.67,63.27,62.62,61.84,61.47,61.31,e,e,e,e,e,e,e,60.99,61.06,61.17,61.14,61.15,61.13,61.08,61.05,61.17,61.24,61.32,61.43,61.56,61.65,61.74,61.82,61.86,61.90,61.99,62.03,61.96,61.94,61.93,61.95,61.99,62.07,61.99,61.91,61.88,61.91,61.81,61.61,61.38,61.16,61.06,60.97,60.80,60.63,60.64,60.81,60.87,60.83,60.70,e,e,e,e,e,e,e,e,e,e,e,e,e,e,e,e,e,e,e,59.43,59.50,59.65,60.01,60.36,60.62,60.77,60.88,61.23,61.64,61.98,62.11,62.23,62.43,62.58,62.63,62.72,62.79,62.90,63.01,63.09,63.14,63.21,63.30,63.42,63.43,63.40,63.36,63.33,63.30,63.30,63.22,63.12,63.10,63.22,63.30,63.43,63.77,64.72,65.81,66.54,66.72,66.17,65.52,65.13,65.01,65.08,65.06,64.90,64.73,64.60,64.55,64.71,64.85,64.82,64.50,64.09,63.87,63.79,63.80,63.82,63.78,63.78,63.79,63.67,63.61,63.60,63.59,63.54,63.52,63.55,63.59,63.64,63.65,63.57,63.51,63.51,63.60,63.65,63.63,63.58,63.55,63.57,63.59,63.60,63.60,63.60,63.60,63.53,63.33,62.99,62.73,62.67,62.70,62.75,62.76,62.71,62.63,62.55,62.51,62.50,62.66,62.96,63.32,63.24,63.15,63.30,63.63,63.76
66.89,66.75,66.62,66.48,66.31,66.29,66.30,66.27,66.22,66.34,66.39,66.48,66.57,66.52,66.45,66.45,66.46,66.45,66.59,66.75,66.81,66.75,66.52,66.49,66.41,66.27,66.07,66.02,66.01,66.07,66.20,66.34,66.28,66.18,66.10,66.09,66.03,65.99,65.95,65.90,65.84,65.81,65.80,65.79,65.72,65.71,65.74,65.76,65.71,65.71,65.75,65.88,66.12,66.46,66.75,66.81,66.69,66.56,66.90,67.43,67.86,67.93,67.50,66.57,65.53,64.66,64.35,63.96,63.74,63.68,63.79,63.97,63.91,63.79,63.62,62.96,62.14,61.54,61.21,61.20,e,e,e,e,e,e,e,e,61.05,61.09,61.10,61.10,61.09,61.05,61.06,61.12,61.24,61.35,61.45,61.56,61.64,61.64,61.63,61.74,61.83,61.78,61.82,61.84,61.86,61.92,62.02,61.94,61.86,61.81,61.81,61.72,61.59,61.41,61.21,61.14,61.11,61.04,60.94,60.85,60.89,60.94,60.95,60.85,60.49,60.17,59.99,59.94,e,e,e,e,e,e,e,e,e,e,e,e,e,e,e,e,e,59.54,59.81,60.13,60.35,60.43,60.48,60.66,60.98,61.32,61.51,61.82,62.24,62.54,62.64,62.76,62.84,62.97,63.12,63.18,63.25,63.34,63.42,63.43,63.41,63.40,63.38,63.35,63.34,63.30,63.20,63.08,63.03,63.16,63.27,63.34,63.42,63.99,65.08,66.12,66.80,66.71,65.98,65.36,65.02,65.05,65.07,65.02,64.98,64.92,64.65,64.53,64.44,64.35,64.22,64.05,63.89,63.77,63.73,63.71,63.67,63.67,63.69,63.60,63.60,63.62,63.60,63.54,63.55,63.57,63.59,63.60,63.60,63.52,63.48,63.51,63.66,63.72,63.71,63.63,63.51,63.46,63.49,63.52,63.53,63.53,63.53,63.55,63.53,63.40,62.92,62.70,62.68,62.75,62.70,62.65,62.59,62.53,62.50,62.50,62.48,62.54,62.77,63.44,63.19,63.18,63.54,63.63
66.87,66.80,66.69,66.57,66.46,66.36,66.25,66.18,66.15,66.20,66.23,66.32,66.41,66.34,66.33,66.36,66.40,66.46,66.54,66.67,66.78,66.81,66.67,66.58,66.44,66.27,66.09,66.05,66.07,66.14,66.24,66.29,66.26,66.18,66.09,66.04,66.04,65.97,65.91,65.88,65.82,65.82,65.80,65.77,65.71,65.70,65.71,65.72,65.71,65.74,65.87,66.03,66.18,66.36,66.63,66.72,66.64,66.49,66.64,66.96,67.37,67.75,67.82,67.32,66.49,65.53,64.75,64.28,63.97,63.78,63.70,63.77,63.87,63.98,64.00,63.59,62.97,62.35,61.79,61.39,61.20,61.10,61.10,e,e,e,e,e,e,e,e,e,60.97,61.00,61.02,61.07,61.14,61.22,61.31,61.41,61.50,61.52,61.51,61.55,61.59,61.58,61.61,61.62,61.64,61.68,61.75,61.71,61.66,61.61,61.58,61.48,61.40,61.30,61.18,61.13,61.08,61.05,61.02,60.98,61.03,61.05,61.04,60.98,60.69,60.36,60.12,60.01,e,e,e,e,e,e,e,e,e,e,e,e,e,e,e,e,e,e,59.67,59.94,60.20,60.39,60.51,60.60,60.75,60.92,61.03,61.27,61.75,62.24,62.58,62.67,62.75,62.89,63.06,63.14,63.18,63.23,63.30,63.38,63.51,63.50,63.41,63.29,63.25,63.26,63.20,63.10,63.06,63.12,63.20,63.27,63.34,63.64,64.47,65.49,66.42,66.80,66.38,65.75,65.20,65.00,65.01,64.99,65.02,65.07,64.96,64.82,64.63,64.37,64.06,63.89,63.77,63.70,63.69,63.69,63.70,63.71,63.70,63.65,63.66,63.65,63.62,63.58,63.61,63.62,63.61,63.59,63.53,63.51,63.51,63.54,63.65,63.70,63.73,63.68,63.55,63.45,63.44,63.45,63.46,63.49,63.50,63.54,63.57,63.52,63.08,62.78,62.64,62.62,62.62,62.62,62.58,62.53,62.50,62.50,62.48,62.52,62.71,63.43,63.49,63.35,63.27,63.51
66.84,66.82,66.76,66.67,66.61,66.41,66.22,66.13,66.15,66.14,66.15,66.22,66.28,66.20,66.24,66.27,66.32,66.41,66.44,66.53,66.67,66.78,66.72,66.58,66.41,66.23,66.08,66.09,66.14,66.19,66.23,66.21,66.20,66.15,66.08,66.05,66.06,65.98,65.89,65.85,65.83,65.83,65.80,65.75,65.71,65.69,65.69,65.70,65.72,65.79,65.97,66.14,66.23,66.28,66.50,66.60,66.56,66.46,66.49,66.60,66.90,67.41,67.83,67.80,67.31,66.45,65.36,64.68,64.24,63.96,63.75,63.64,63.80,64.01,64.14,63.96,63.68,63.16,62.49,61.86,61.38,61.17,61.11,e,e,e,e,e,e,e,e,e,60.88,60.97,61.01,61.03,61.06,61.13,61.18,61.25,61.34,61.39,61.41,61.40,61.40,61.42,61.44,61.43,61.44,61.47,61.50,61.49,61.45,61.41,61.36,61.26,61.23,61.20,61.15,61.13,61.07,61.07,61.10,61.10,61.15,61.15,61.13,61.10,60.91,60.61,60.33,60.15,e,e,e,e,e,e,e,e,e,e,e,e,e,e,e,e,e,e,59.56,59.78,60.04,60.33,60.53,60.58,60.62,60.66,60.67,60.80,61.21,61.76,62.31,62.50,62.64,62.81,62.97,63.05,63.08,63.10,63.18,63.34,63.56,63.53,63.38,63.21,63.19,63.24,63.21,63.14,63.10,63.09,63.13,63.20,63.30,63.40,63.97,64.88,65.94,66.73,66.69,66.16,65.48,65.02,64.96,64.97,65.05,65.15,65.15,65.01,64.72,64.33,63.90,63.75,63.68,63.68,63.70,63.72,63.75,63.75,63.74,63.72,63.72,63.69,63.64,63.61,63.64,63.63,63.60,63.55,63.47,63.51,63.53,63.56,63.62,63.67,63.72,63.71,63.59,63.45,63.41,63.39,63.40,63.44,63.48,63.51,63.53,63.53,63.10,62.79,62.59,62.52,62.56,62.59,62.57,62.53,62.51,62.50,62.48,62.50,62.64,63.21,63.57,63.45,63.08,63.31
66.82,66.81,66.79,66.77,66.72,66.40,66.18,66.14,66.24,66.28,66.29,66.31,66.30,66.21,66.21,66.20,66.22,66.26,66.25,66.32,66.46,66.59,66.53,66.41,66.25,66.09,65.99,66.13,66.20,66.18,66.11,66.12,66.09,66.06,66.06,66.17,66.12,66.03,65.92,65.84,65.88,65.86,65.80,65.72,65.70,65.67,65.67,65.71,65.76,65.88,66.00,66.10,66.16,66.23,66.39,66.45,66.43,66.41,66.47,66.49,66.59,66.85,67.33,67.76,67.80,67.34,66.41,65.28,64.58,64.23,64.04,63.74,63.72,63.80,63.89,63.91,64.07,63.84,63.34,62.93,61.96,61.38,61.12,61.05,61.09,e,e,e,e,e,e,e,e,e,e,e,60.99,61.09,61.07,61.08,61.14,61.22,61.31,61.34,61.34,61.34,61.38,61.35,61.33,61.34,61.34,61.30,61.27,61.23,61.16,61.09,61.11,61.13,61.13,61.16,61.16,61.20,61.25,61.23,61.21,61.22,61.22,61.17,61.10,60.94,60.69,60.38,60.05,e,e,e,e,e,e,e,e,e,e,e,e,e,e,e,e,e,e,59.65,59.82,60.13,60.43,60.54,60.61,60.64,60.58,60.55,60.65,60.97,61.56,62.23,62.54,62.75,62.87,62.88,62.94,63.01,63.12,63.31,63.47,63.37,63.20,63.10,63.21,63.28,63.25,63.17,63.13,63.05,63.04,63.13,63.28,63.35,63.67,64.37,65.38,66.42,66.83,66.60,65.96,65.20,64.97,65.00,65.10,65.15,65.06,64.83,64.46,64.04,63.71,63.65,63.68,63.75,63.82,63.81,63.80,63.79,63.79,63.82,63.80,63.75,63.69,63.63,63.63,63.58,63.52,63.46,63.43,63.49,63.55,63.59,63.61,63.63,63.68,63.70,63.62,63.45,63.39,63.37,63.35,63.37,63.43,63.42,63.39,63.35,62.86,62.60,62.50,62.51,62.55,62.58,62.58,62.56,62.53,62.51,62.45,62.41,62.46,62.60,63.12,63.32,63.12,62.94
66.67,66.70,66.68,66.63,66.58,66.31,66.14,66.13,66.28,66.35,66.40,66.43,66.43,66.36,66.33,66.28,66.21,66.14,66.14,66.19,66.28,66.36,66.32,66.24,66.12,66.02,65.97,66.07,66.10,66.08,66.01,66.05,66.03,66.02,66.03,66.13,66.06,65.99,65.92,65.86,65.90,65.86,65.79,65.72,65.70,65.67,65.68,65.71,65.75,65.94,66.04,66.06,66.06,66.15,66.30,66.36,66.36,66.36,66.40,66.42,66.45,66.57,66.85,67.33,67.69,67.75,67.27,66.20,65.24,64.59,64.38,64.07,63.90,63.84,63.84,63.82,64.03,64.03,63.80,63.40,62.78,62.09,61.51,61.16,61.11,e,e,e,e,e,e,e,e,e,e,e,60.97,61.07,61.04,61.05,61.06,61.05,61.14,61.22,61.26,61.27,61.32,61.31,61.29,61.30,61.30,61.27,61.23,61.21,61.19,61.16,61.18,61.20,61.21,61.23,61.25,61.29,61.32,61.28,61.26,61.27,61.26,61.21,61.15,61.04,60.87,60.63,60.34,e,e,e,e,e,e,e,e,e,e,e,e,e,e,e,e,e,e,59.60,59.75,60.07,60.27,60.43,60.54,60.59,60.57,60.51,60.48,60.60,60.96,61.53,62.01,62.37,62.59,62.64,62.77,62.85,62.94,63.09,63.19,63.13,63.06,63.05,63.19,63.25,63.20,63.11,63.06,62.99,62.97,63.02,63.15,63.27,63.49,63.98,64.78,65.82,66.53,66.71,66.39,65.64,65.13,65.00,65.01,65.00,64.81,64.50,64.16,63.87,63.69,63.69,63.73,63.78,63.83,63.82,63.81,63.80,63.80,63.82,63.78,63.73,63.68,63.62,63.58,63.56,63.54,63.51,63.47,63.51,63.55,63.59,63.60,63.62,63.66,63.68,63.65,63.52,63.48,63.42,63.33,63.29,63.31,63.18,63.03,62.96,62.66,62.51,62.48,62.51,62.55,62.56,62.56,62.55,62.56,62.53,62.46,62.42,62.43,62.47,62.80,63.09,63.20,63.08
66.46,66.56,66.51,66.40,66.34,66.20,66.09,66.12,66.27,66.36,66.44,66.50,66.54,66.54,66.50,66.39,66.22,66.03,66.03,66.07,66.10,66.12,66.11,66.07,66.02,65.99,65.98,65.97,65.97,65.95,65.92,65.98,65.98,65.99,66.01,66.04,65.95,65.91,65.89,65.88,65.90,65.84,65.78,65.72,65.70,65.69,65.69,65.71,65.74,65.98,66.05,66.02,65.96,66.08,66.23,66.31,66.31,66.31,66.30,66.36,66.41,66.43,66.44,66.78,67.33,67.87,67.94,67.17,66.08,65.15,64.86,64.53,64.21,63.99,63.88,63.75,63.85,64.02,64.05,63.66,63.62,62.97,62.10,61.39,61.18,61.12,61.07,61.00,e,e,e,e,e,e,e,e,e,e,e,e,61.03,60.89,60.96,61.07,61.16,61.19,61.25,61.26,61.27,61.28,61.28,61.28,61.26,61.24,61.30,61.31,61.31,61.31,61.31,61.31,61.33,61.35,61.36,61.30,61.30,61.29,61.26,61.21,61.13,61.04,60.96,60.88,60.72,60.34,60.18,e,e,e,e,e,e,e,e,e,e,e,e,e,e,e,e,e,e,e,60.10,60.29,60.43,60.52,60.57,60.53,60.46,60.43,60.47,60.74,61.31,61.82,62.17,62.31,62.55,62.67,62.74,62.82,62.87,62.90,62.94,63.02,63.15,63.20,63.13,63.01,62.96,62.92,62.89,62.90,63.00,63.19,63.36,63.66,64.19,65.11,66.04,66.64,66.73,66.17,65.39,65.03,64.90,64.81,64.53,64.17,63.91,63.78,63.74,63.77,63.79,63.80,63.80,63.80,63.80,63.79,63.78,63.78,63.73,63.70,63.67,63.61,63.54,63.56,63.60,63.60,63.54,63.54,63.56,63.59,63.60,63.63,63.65,63.67,63.69,63.62,63.60,63.51,63.35,63.23,63.17,62.90,62.63,62.56,62.51,62.47,62.48,62.52,62.55,62.55,62.54,62.53,62.58,62.54,62.49,62.45,62.45,62.51,62.55,62.82,63.24,63.40
66.28,66.40,66.36,66.23,66.09,66.04,66.05,66.06,66.07,66.09,66.10,66.10,66.18,66.44,66.53,66.31,66.02,65.82,65.81,65.85,65.89,65.90,65.90,65.96,65.99,66.00,65.99,65.99,65.99,65.95,65.87,65.87,65.83,65.92,66.04,65.97,65.83,65.80,65.82,65.83,65.83,65.77,65.74,65.71,65.65,65.64,65.67,65.75,65.88,65.97,65.94,65.90,65.94,66.15,66.25,66.31,66.33,66.29,66.19,66.36,66.54,66.55,66.45,66.55,66.83,67.27,67.82,67.69,67.27,66.75,66.30,65.23,64.56,64.19,64.01,63.88,63.90,63.92,63.96,64.06,64.00,63.63,63.01,62.25,61.60,61.27,61.11,61.04,60.94,61.03,60.99,60.93,60.99,e,e,e,e,e,e,e,e,60.79,60.84,60.90,60.97,61.03,61.10,61.13,61.16,61.21,61.21,61.24,61.25,61.27,61.31,61.34,61.35,61.35,61.35,61.35,61.35,61.35,61.34,61.27,61.27,61.24,61.16,61.04,61.03,61.03,61.02,60.98,60.91,60.67,60.45,60.27,e,e,e,e,e,e,e,e,e,e,e,e,e,e,e,e,e,e,e,60.14,60.28,60.44,60.49,60.49,60.46,60.42,60.38,60.43,60.69,60.99,61.27,61.51,62.05,62.45,62.69,62.76,62.81,62.85,62.88,62.93,63.03,63.06,63.00,62.90,62.84,62.80,62.79,62.84,62.94,63.10,63.26,63.46,63.80,64.46,65.39,66.19,66.65,66.59,65.90,65.31,64.94,64.77,64.53,64.25,64.06,63.94,63.85,63.80,63.80,63.80,63.80,63.78,63.76,63.76,63.76,63.79,63.79,63.77,63.72,63.63,63.60,63.61,63.61,63.58,63.56,63.59,63.60,63.61,63.60,63.61,63.65,63.72,63.79,63.75,63.75,63.69,63.51,63.22,63.01,62.77,62.58,62.56,62.53,62.49,62.49,62.52,62.60,62.59,62.59,62.60,62.60,62.54,62.48,62.44,62.42,62.42,62.42,62.54,62.86,63.47
66.17,66.29,66.24,66.09,65.96,66.00,66.03,66.01,65.95,65.95,65.92,65.87,65.89,66.13,66.24,66.08,65.85,65.72,65.71,65.75,65.79,65.81,65.79,65.88,65.93,65.96,65.96,65.98,65.99,65.95,65.87,65.86,65.80,65.87,65.96,65.87,65.78,65.77,65.79,65.81,65.77,65.74,65.77,65.81,65.69,65.66,65.69,65.78,65.88,65.91,65.85,65.83,65.94,66.11,66.19,66.25,66.26,66.19,66.10,66.29,66.52,66.58,66.48,66.43,66.52,66.85,67.56,67.84,67.84,67.64,67.27,66.08,65.18,64.56,64.19,64.02,63.95,63.88,63.87,64.08,64.12,64.01,63.67,63.07,62.27,61.73,61.36,61.11,60.98,61.02,60.98,60.92,60.96,e,e,e,e,e,e,e,e,60.74,60.78,60.82,60.86,60.93,60.98,61.02,61.06,61.11,61.12,61.16,61.20,61.24,61.27,61.30,61.32,61.33,61.32,61.30,61.30,61.29,61.27,61.22,61.20,61.16,61.07,60.94,60.95,60.99,61.03,61.06,61.03,60.89,60.65,60.45,e,e,e,e,e,e,e,e,e,e,e,e,e,e,e,e,e,e,e,60.04,60.14,60.25,60.36,60.42,60.44,60.42,60.35,60.30,60.36,60.49,60.66,60.87,61.38,61.89,62.30,62.58,62.73,62.80,62.82,62.85,62.92,62.94,62.88,62.80,62.75,62.71,62.73,62.78,62.87,62.99,63.15,63.32,63.53,63.93,64.74,65.63,66.38,66.77,66.37,65.70,65.12,64.77,64.60,64.44,64.32,64.20,64.02,63.88,63.81,63.78,63.77,63.75,63.73,63.74,63.76,63.78,63.81,63.83,63.83,63.78,63.75,63.69,63.63,63.58,63.56,63.59,63.61,63.64,63.72,63.80,63.81,63.82,63.87,63.86,63.87,63.80,63.64,63.39,63.05,62.76,62.59,62.59,62.55,62.52,62.51,62.53,62.58,62.56,62.56,62.58,62.60,62.54,62.49,62.44,62.39,62.40,62.40,62.52,62.84,63.46
66.12,66.22,66.14,66.00,65.95,66.06,66.03,65.95,65.90,65.90,65.87,65.77,65.67,65.63,65.67,65.70,65.70,65.70,65.72,65.76,65.81,65.83,65.77,65.82,65.86,65.88,65.88,65.94,65.97,65.96,65.92,65.95,65.87,65.82,65.79,65.73,65.78,65.80,65.81,65.82,65.74,65.74,65.86,65.99,65.80,65.74,65.76,65.78,65.78,65.80,65.77,65.81,65.94,65.97,66.07,66.12,66.10,66.01,66.01,66.15,66.36,66.53,66.55,66.41,66.38,66.59,67.20,67.67,67.86,67.88,67.84,67.08,66.05,65.09,64.42,64.17,64.02,63.89,63.80,63.77,64.01,64.14,64.11,63.85,63.18,62.46,61.78,61.23,61.06,61.02,60.95,60.90,60.90,60.83,60.86,60.88,60.84,e,e,e,e,e,e,60.81,60.83,60.87,60.91,60.94,60.97,61.00,61.01,61.05,61.11,61.16,61.19,61.20,61.22,61.24,61.23,61.19,61.19,61.18,61.17,61.14,61.09,61.05,60.98,60.90,60.90,60.92,61.00,61.10,61.09,61.02,60.89,60.71,60.50,e,e,e,e,e,e,e,e,e,e,e,e,e,e,e,e,e,e,e,e,59.96,60.20,60.33,60.40,60.41,60.38,60.34,60.30,60.29,60.31,60.37,60.58,61.01,61.62,62.30,62.65,62.74,62.75,62.77,62.83,62.82,62.77,62.70,62.67,62.66,62.69,62.73,62.79,62.87,63.04,63.22,63.39,63.51,64.07,64.96,65.93,66.73,66.82,66.18,65.40,64.82,64.72,64.71,64.67,64.54,64.26,63.99,63.83,63.74,63.71,63.71,63.71,63.73,63.76,63.75,63.80,63.88,63.97,64.05,63.98,63.81,63.67,63.58,63.55,63.56,63.59,63.68,63.94,64.18,64.11,63.96,63.93,63.97,63.95,63.86,63.75,63.72,63.26,62.87,62.66,62.66,62.58,62.56,62.55,62.53,62.51,62.46,62.46,62.50,62.57,62.54,62.51,62.45,62.36,62.43,62.48,62.73,63.15,63.38
66.10,66.06,65.97,65.91,65.97,66.00,65.96,65.92,65.90,65.90,65.87,65.79,65.67,65.61,65.63,65.66,65.69,65.70,65.73,65.77,65.79,65.79,65.73,65.80,65.84,65.85,65.84,65.90,65.94,65.95,65.93,65.91,65.85,65.81,65.78,65.72,65.84,65.90,65.91,65.87,65.77,65.83,65.96,66.04,65.87,65.80,65.77,65.75,65.73,65.73,65.69,65.75,65.91,65.95,65.99,66.01,65.98,65.86,65.95,66.10,66.24,66.33,66.50,66.40,66.36,66.47,66.70,67.18,67.47,67.66,67.87,67.50,66.72,65.90,65.18,64.44,64.17,63.97,63.82,63.78,63.81,63.90,63.98,63.95,63.72,63.19,62.62,62.07,61.46,61.17,60.99,60.90,60.88,60.84,60.87,60.91,60.91,60.88,e,e,e,e,e,e,e,e,e,60.84,60.84,60.86,60.89,60.92,60.93,60.95,61.00,61.00,61.00,60.98,60.93,60.95,60.98,61.01,61.03,61.01,60.99,60.97,60.93,60.89,60.84,60.83,60.87,60.97,61.00,60.99,60.92,60.81,60.71,e,e,e,e,e,e,e,e,e,e,e,e,e,e,e,e,e,e,e,e,e,59.81,60.08,60.26,60.36,60.39,60.36,60.31,60.29,60.30,60.32,60.40,60.54,60.79,61.18,61.76,62.24,62.55,62.68,62.69,62.72,62.71,62.67,62.62,62.62,62.65,62.69,62.74,62.79,62.90,63.05,63.20,63.34,63.67,64.33,65.22,66.18,66.69,66.52,65.94,65.24,64.88,64.85,64.89,64.86,64.64,64.29,64.00,63.80,63.71,63.71,63.71,63.72,63.74,63.74,63.81,63.92,64.02,64.09,64.10,63.96,63.78,63.64,63.64,63.72,63.79,63.89,64.09,64.19,64.12,64.01,63.98,63.99,63.93,63.81,63.70,63.70,63.43,63.11,62.85,62.72,62.71,62.64,62.58,62.56,62.50,62.47,62.48,62.51,62.50,62.47,62.47,62.49,62.52,62.52,62.62,62.98,63.49,63.69
66.08,65.94,65.85,65.85,65.97,65.95,65.92,65.90,65.90,65.90,65.87,65.79,65.70,65.64,65.65,65.68,65.70,65.72,65.74,65.77,65.77,65.74,65.71,65.79,65.84,65.85,65.83,65.87,65.91,65.93,65.92,65.85,65.82,65.79,65.76,65.70,65.86,65.96,65.97,65.91,65.82,65.93,66.02,66.01,65.89,65.83,65.78,65.73,65.70,65.68,65.65,65.69,65.82,65.89,65.87,65.88,65.87,65.75,65.90,66.03,66.11,66.17,66.34,66.34,66.36,66.40,66.34,66.73,67.03,67.36,67.86,67.77,67.29,66.60,65.81,64.88,64.41,64.11,63.93,63.86,63.70,63.72,63.83,63.91,63.99,63.74,63.35,62.86,62.15,61.61,61.20,60.95,60.85,60.84,60.86,60.90,60.93,60.90,e,e,e,e,e,e,e,e,e,60.74,60.74,60.76,60.82,60.83,60.81,60.78,60.77,60.73,60.70,60.66,60.61,60.70,60.79,60.86,60.90,60.90,60.88,60.86,60.84,60.83,60.76,60.71,60.72,60.79,60.87,60.92,60.92,60.89,60.87,e,e,e,e,e,e,e,e,e,e,e,e,e,e,e,e,e,e,e,e,e,59.54,59.91,60.16,60.29,60.31,60.31,60.29,60.28,60.28,60.28,60.30,60.26,60.24,60.33,60.88,61.53,62.07,62.40,62.51,62.62,62.65,62.62,62.58,62.59,62.62,62.66,62.71,62.75,62.81,62.91,63.04,63.20,63.38,63.82,64.56,65.55,66.39,66.66,66.38,65.70,65.09,64.95,65.01,65.08,64.96,64.57,64.21,63.93,63.76,63.73,63.73,63.74,63.77,63.79,63.88,63.98,64.06,64.10,64.14,64.02,63.85,63.72,63.77,63.89,63.97,64.05,64.16,64.17,64.12,64.06,64.02,64.01,63.92,63.79,63.67,63.68,63.58,63.36,63.07,62.80,62.79,62.68,62.59,62.57,62.50,62.49,62.53,62.56,62.52,62.50,62.52,62.58,62.66,62.62,62.77,63.18,63.71,63.90
66.06,65.89,65.82,65.84,65.92,65.91,65.92,65.92,65.91,65.90,65.86,65.79,65.72,65.71,65.73,65.75,65.76,65.76,65.76,65.75,65.74,65.71,65.69,65.79,65.86,65.89,65.87,65.88,65.90,65.89,65.86,65.78,65.78,65.75,65.69,65.64,65.80,65.92,65.96,65.92,65.87,66.02,66.02,65.88,65.83,65.81,65.80,65.77,65.72,65.69,65.67,65.65,65.63,65.69,65.66,65.71,65.79,65.72,65.86,65.90,65.96,66.08,65.95,66.18,66.39,66.43,66.26,66.39,66.56,66.98,67.84,67.86,67.69,67.09,66.14,65.64,64.78,64.34,64.23,64.04,63.77,63.70,63.70,63.68,63.77,63.94,63.82,63.45,63.36,62.54,61.72,61.10,60.81,60.81,60.81,60.83,60.86,60.95,60.86,60.80,e,e,e,e,e,e,e,e,e,e,e,e,e,e,60.51,60.34,60.25,60.22,60.26,60.46,60.64,60.75,60.80,60.80,60.78,60.71,60.66,60.68,60.62,60.55,60.51,60.54,60.70,60.78,60.86,60.91,60.91,60.92,60.89,60.78,60.61,e,e,e,e,e,e,e,e,e,e,e,e,e,e,e,e,e,e,e,e,e,60.06,60.14,60.20,60.22,60.21,60.23,60.29,60.31,60.26,60.15,60.12,60.47,61.07,61.78,62.27,62.50,62.56,62.54,62.52,62.55,62.59,62.65,62.72,62.77,62.80,62.85,62.95,63.13,63.27,63.53,64.03,64.85,65.81,66.45,66.59,66.19,65.39,65.00,64.98,65.13,65.13,64.81,64.50,64.19,63.91,63.78,63.78,63.83,63.91,63.99,64.05,64.08,64.10,64.10,64.04,63.92,63.82,63.82,63.97,64.07,64.10,64.09,64.12,64.15,64.15,64.12,64.05,64.03,63.95,63.83,63.71,63.70,63.72,63.61,63.34,62.91,62.78,62.66,62.57,62.52,62.52,62.51,62.60,62.71,62.71,62.73,62.76,62.77,62.75,62.70,62.91,63.30,63.71,63.90
65.93,65.82,65.78,65.80,65.85,65.88,65.91,65.92,65.91,65.90,65.87,65.82,65.77,65.76,65.78,65.78,65.78,65.78,65.76,65.75,65.74,65.73,65.78,65.88,65.91,65.91,65.89,65.89,65.88,65.85,65.82,65.75,65.74,65.70,65.65,65.65,65.72,65.79,65.86,65.89,65.92,65.99,65.95,65.82,65.77,65.73,65.75,65.77,65.75,65.71,65.69,65.68,65.67,65.68,65.62,65.62,65.65,65.61,65.77,65.81,65.86,65.96,65.79,66.06,66.30,66.38,66.28,66.39,66.45,66.67,67.32,67.71,67.78,67.47,66.81,66.04,65.20,64.64,64.36,64.23,64.02,63.84,63.69,63.61,63.66,63.81,63.85,63.80,63.88,63.24,62.43,61.65,61.09,60.82,60.77,60.80,60.84,60.93,60.87,60.85,e,e,e,e,e,e,e,e,e,e,e,e,e,e,60.45,60.24,60.14,60.08,60.08,60.22,60.36,60.47,60.54,60.55,60.52,60.45,60.42,60.45,60.45,60.42,60.38,60.38,60.46,60.50,60.55,60.59,60.59,60.56,60.56,60.53,60.46,e,e,e,e,e,e,e,e,e,e,e,e,e,e,e,e,e,e,e,e,e,59.81,59.93,60.03,60.09,60.11,60.16,60.22,60.25,60.22,60.10,59.95,60.03,60.36,60.91,61.52,62.02,62.33,62.47,62.50,62.55,62.58,62.63,62.69,62.76,62.80,62.84,62.91,63.05,63.19,63.35,63.67,64.25,65.17,65.99,66.50,66.52,65.88,65.27,65.03,65.06,65.10,64.91,64.73,64.50,64.19,63.94,63.89,63.94,64.05,64.12,64.14,64.14,64.12,64.10,64.05,63.95,63.90,63.91,64.03,64.11,64.12,64.11,64.13,64.17,64.15,64.09,64.05,64.06,64.02,63.92,63.78,63.73,63.75,63.73,63.51,63.01,62.79,62.68,62.61,62.57,62.64,62.63,62.70,62.81,62.84,62.84,62.82,62.78,62.75,62.67,62.77,63.08,63.52,63.83
65.78,65.77,65.75,65.75,65.78,65.85,65.89,65.91,65.90,65.90,65.90,65.86,65.82,65.81,65.81,65.81,65.80,65.80,65.74,65.75,65.75,65.75,65.89,65.96,65.96,65.93,65.91,65.90,65.85,65.81,65.78,65.73,65.70,65.66,65.64,65.69,65.66,65.67,65.75,65.86,65.95,65.94,65.88,65.80,65.73,65.65,65.68,65.74,65.76,65.73,65.71,65.73,65.78,65.72,65.64,65.57,65.51,65.50,65.66,65.72,65.75,65.80,65.70,65.93,66.15,66.26,66.29,66.47,66.43,66.40,66.69,67.42,67.70,67.73,67.50,66.42,65.68,64.99,64.46,64.40,64.28,64.02,63.75,63.61,63.61,63.60,63.74,63.99,64.07,63.75,63.09,62.27,61.51,60.92,60.78,60.80,60.83,60.89,60.88,60.87,60.87,60.87,60.84,60.72,60.63,e,e,e,e,e,e,e,e,e,e,e,e,e,59.99,60.02,60.08,60.16,60.22,60.26,60.22,60.18,60.18,60.22,60.28,60.30,60.29,60.25,60.23,60.23,60.22,60.21,60.20,60.15,60.18,60.23,60.28,60.23,60.14,60.08,e,e,e,e,e,e,e,e,e,e,e,e,e,e,e,e,e,e,59.60,59.74,59.85,59.93,59.99,60.07,60.13,60.16,60.15,60.11,59.97,59.83,59.84,60.07,60.63,61.40,62.02,62.40,62.49,62.56,62.58,62.60,62.66,62.74,62.79,62.84,62.89,62.98,63.11,63.22,63.40,63.74,64.52,65.43,66.23,66.70,66.39,65.65,65.17,64.99,65.00,64.95,64.92,64.80,64.51,64.15,64.03,64.07,64.17,64.22,64.21,64.17,64.13,64.10,64.09,64.03,63.99,64.00,64.04,64.09,64.11,64.12,64.15,64.21,64.14,64.06,64.04,64.09,64.09,64.00,63.85,63.75,63.76,63.80,63.65,63.10,62.82,62.72,62.67,62.64,62.76,62.77,62.82,62.89,62.92,62.89,62.79,62.72,62.71,62.63,62.58,62.79,63.25,63.72
65.77,65.78,65.79,65.77,65.76,65.82,65.88,65.90,65.89,65.89,65.90,65.87,65.83,65.84,65.86,65.84,65.82,65.82,65.76,65.72,65.70,65.71,65.79,65.87,65.93,65.96,65.95,65.88,65.81,65.75,65.73,65.71,65.69,65.66,65.65,65.77,65.80,65.81,65.81,65.82,65.89,65.93,65.89,65.78,65.72,65.65,65.61,65.60,65.57,65.68,65.69,65.72,65.78,65.71,65.65,65.58,65.52,65.52,65.52,65.52,65.53,65.55,65.55,65.71,65.83,65.92,66.15,66.32,66.33,66.29,66.38,66.81,67.21,67.54,67.70,67.33,66.44,65.49,64.73,64.41,64.37,64.22,63.98,63.71,63.64,63.59,63.63,63.73,63.82,63.64,63.19,62.62,62.12,61.40,61.00,60.83,60.81,60.89,60.87,60.84,60.82,60.83,60.87,60.82,60.75,60.66,60.44,60.49,60.55,e,e,e,e,e,e,e,e,e,e,e,e,e,59.95,60.00,60.00,60.01,60.05,60.11,60.16,60.21,60.23,60.23,60.24,60.23,60.21,60.19,60.15,60.09,60.07,60.06,60.05,59.96,59.90,59.85,59.80,e,e,e,e,e,e,e,e,e,e,e,e,e,e,e,e,e,e,e,59.72,59.75,59.84,59.95,60.02,60.08,60.10,60.07,59.99,59.90,59.86,59.88,60.01,60.66,61.52,62.25,62.47,62.54,62.58,62.61,62.65,62.74,62.79,62.83,62.88,62.93,63.00,63.14,63.31,63.52,63.97,64.76,65.63,66.38,66.62,66.16,65.55,65.04,64.88,64.90,64.94,64.93,64.81,64.47,64.25,64.17,64.20,64.21,64.20,64.17,64.13,64.10,64.10,64.07,64.05,64.02,64.04,64.11,64.15,64.17,64.18,64.27,64.20,64.11,64.10,64.12,64.03,63.92,63.81,63.74,63.81,63.91,63.78,63.21,62.88,62.75,62.69,62.64,62.71,62.82,62.91,62.94,62.88,62.80,62.69,62.63,62.68,62.71,62.62,62.65,62.90,63.50
65.75,65.78,65.79,65.79,65.77,65.83,65.88,65.89,65.88,65.88,65.88,65.85,65.82,65.83,65.85,65.82,65.79,65.79,65.74,65.70,65.67,65.66,65.71,65.81,65.89,65.95,65.95,65.86,65.79,65.74,65.71,65.70,65.67,65.64,65.64,65.73,65.80,65.84,65.85,65.85,65.90,65.88,65.81,65.71,65.65,65.61,65.56,65.50,65.46,65.62,65.64,65.65,65.67,65.63,65.61,65.59,65.58,65.56,65.50,65.47,65.44,65.40,65.44,65.53,65.64,65.78,66.03,66.15,66.15,66.12,66.15,66.40,66.72,67.13,67.56,67.71,67.08,66.23,65.36,64.66,64.46,64.34,64.18,63.92,63.74,63.62,63.57,63.56,63.51,63.36,63.09,62.78,62.50,61.98,61.59,61.28,61.05,60.84,60.81,60.80,60.78,60.81,60.85,60.86,60.78,60.62,60.38,60.45,60.55,e,e,e,e,e,e,e,e,e,e,e,e,e,59.83,59.89,59.90,59.94,60.00,60.06,60.11,60.17,60.20,60.21,60.24,60.14,60.10,60.10,60.10,60.07,60.04,60.01,59.97,59.86,59.81,59.77,59.74,e,e,e,e,e,e,e,e,e,e,e,e,e,e,e,e,e,e,e,59.63,59.68,59.75,59.77,59.89,59.97,60.02,60.02,59.98,59.92,59.86,59.78,59.68,60.14,61.07,62.03,62.46,62.51,62.55,62.60,62.65,62.73,62.79,62.85,62.89,62.92,62.96,63.06,63.21,63.36,63.59,64.18,65.01,65.91,66.55,66.51,66.00,65.32,64.87,64.86,64.93,64.98,64.96,64.68,64.41,64.26,64.23,64.24,64.22,64.19,64.15,64.11,64.11,64.11,64.10,64.05,64.02,64.08,64.14,64.20,64.24,64.29,64.22,64.13,64.08,64.05,63.96,63.88,63.85,63.86,63.94,64.03,63.88,63.26,62.94,62.79,62.71,62.66,62.71,62.83,62.89,62.85,62.75,62.67,62.59,62.56,62.60,62.64,62.58,62.55,62.65,63.06
65.72,65.75,65.78,65.81,65.82,65.87,65.89,65.89,65.86,65.85,65.84,65.82,65.80,65.77,65.79,65.77,65.73,65.70,65.70,65.68,65.64,65.61,65.64,65.76,65.85,65.90,65.90,65.84,65.79,65.75,65.71,65.70,65.65,65.61,65.60,65.60,65.67,65.78,65.88,65.94,65.95,65.80,65.67,65.60,65.53,65.54,65.51,65.46,65.42,65.54,65.57,65.53,65.47,65.49,65.52,65.60,65.67,65.61,65.57,65.53,65.45,65.33,65.37,65.39,65.54,65.79,65.91,65.96,65.93,65.90,65.98,66.15,66.23,66.54,67.16,67.68,67.64,67.15,66.26,65.07,64.57,64.40,64.35,64.21,63.89,63.66,63.55,63.47,63.18,62.94,62.83,62.77,62.69,62.64,62.45,62.07,61.50,60.75,60.72,60.75,60.75,60.80,60.81,60.83,60.77,60.54,60.27,60.40,60.54,60.58,60.54,60.48,60.46,e,e,e,e,e,e,e,e,e,e,e,e,e,e,e,e,e,e,e,e,59.89,59.90,59.96,60.05,60.09,60.09,60.06,60.01,59.89,59.83,59.75,59.65,59.60,e,e,e,e,e,e,e,e,e,e,e,e,e,e,e,e,e,e,e,e,e,59.55,59.73,59.85,59.92,59.95,59.96,59.91,59.84,59.77,59.58,59.80,60.66,61.76,62.46,62.45,62.51,62.58,62.65,62.73,62.80,62.88,62.94,62.95,62.95,63.00,63.11,63.26,63.34,63.68,64.37,65.33,66.25,66.72,66.49,65.77,64.95,64.84,64.88,64.97,64.98,64.82,64.53,64.34,64.27,64.30,64.26,64.22,64.18,64.14,64.12,64.15,64.15,64.08,63.97,64.01,64.09,64.21,64.34,64.29,64.22,64.12,63.99,63.92,63.87,63.87,63.93,64.09,64.12,64.16,63.96,63.27,63.01,62.83,62.72,62.69,62.75,62.82,62.78,62.65,62.54,62.51,62.51,62.51,62.50,62.45,62.46,62.48,62.49,62.45
65.72,65.75,65.79,65.83,65.86,65.89,65.87,65.84,65.81,65.84,65.82,65.81,65.79,65.78,65.78,65.76,65.75,65.74,65.74,65.71,65.68,65.66,65.66,65.71,65.74,65.78,65.83,65.80,65.76,65.71,65.67,65.66,65.65,65.64,65.64,65.63,65.65,65.72,65.77,65.79,65.80,65.74,65.67,65.60,65.53,65.52,65.48,65.45,65.45,65.49,65.46,65.40,65.33,65.38,65.40,65.51,65.63,65.57,65.61,65.54,65.44,65.35,65.34,65.39,65.47,65.62,65.92,65.80,65.71,65.74,65.97,66.18,66.25,66.38,66.66,67.17,67.55,67.52,67.05,66.18,65.25,64.67,64.39,64.32,64.12,63.81,63.61,63.48,63.08,62.84,62.78,62.76,62.64,62.59,62.55,62.49,62.34,61.89,61.74,61.51,61.22,61.07,60.96,60.92,60.86,60.66,60.43,60.45,60.50,60.51,60.57,60.55,60.56,60.59,60.58,60.52,60.56,60.59,e,e,e,e,e,e,e,e,e,e,e,e,e,e,e,e,e,e,e,e,e,e,e,e,e,e,e,e,e,e,e,59.58,e,e,e,e,e,e,e,e,e,e,e,e,e,e,e,e,e,e,e,59.71,59.72,59.80,59.84,59.83,59.81,59.80,59.72,59.78,60.42,61.42,62.41,62.48,62.55,62.61,62.66,62.74,62.80,62.86,62.93,63.01,63.01,63.02,63.06,63.17,63.25,63.42,63.86,64.61,65.58,66.32,66.55,66.26,65.48,65.00,64.87,64.89,64.92,64.90,64.75,64.56,64.38,64.28,64.23,64.20,64.18,64.16,64.25,64.31,64.31,64.22,64.09,64.08,64.14,64.25,64.35,64.24,64.12,64.01,63.95,63.92,63.92,63.97,64.06,64.15,64.05,63.92,63.65,63.17,63.04,62.94,62.84,62.76,62.74,62.75,62.71,62.63,62.55,62.52,62.52,62.52,62.51,62.46,62.47,62.47,62.45,62.46
65.71,65.74,65.78,65.84,65.90,65.89,65.84,65.80,65.80,65.82,65.80,65.79,65.79,65.78,65.77,65.77,65.77,65.77,65.76,65.73,65.71,65.69,65.67,65.67,65.67,65.70,65.75,65.74,65.71,65.67,65.64,65.62,65.64,65.65,65.65,65.64,65.65,65.67,65.68,65.66,65.69,65.70,65.67,65.61,65.54,65.51,65.48,65.47,65.51,65.49,65.43,65.35,65.28,65.31,65.33,65.46,65.63,65.62,65.60,65.50,65.40,65.36,65.33,65.41,65.43,65.46,65.76,65.60,65.54,65.66,66.01,66.23,66.30,66.30,66.34,66.68,67.25,67.61,67.59,67.10,66.04,65.15,64.57,64.38,64.26,64.03,63.80,63.56,63.15,62.90,62.82,62.76,62.53,62.53,62.64,62.77,62.83,62.55,62.33,61.98,61.57,61.36,61.16,61.09,61.01,60.83,60.63,60.58,60.59,60.62,60.69,60.71,60.73,60.74,60.72,60.64,60.67,60.74,e,e,e,e,e,e,e,e,e,e,e,e,e,e,e,e,e,e,e,e,e,e,e,e,e,e,e,e,e,e,e,59.58,e,e,e,e,e,e,e,e,e,e,e,e,e,e,e,e,e,e,e,59.54,59.58,59.70,59.72,59.73,59.76,59.78,59.77,59.73,60.16,61.05,62.27,62.48,62.59,62.64,62.69,62.76,62.81,62.86,62.93,63.03,63.04,63.02,63.02,63.08,63.17,63.24,63.48,64.01,64.90,65.81,66.41,66.54,66.02,65.31,64.96,64.85,64.86,64.94,64.91,64.76,64.53,64.32,64.24,64.21,64.22,64.23,64.37,64.43,64.41,64.31,64.18,64.12,64.15,64.23,64.29,64.15,64.03,63.95,63.95,63.95,63.98,64.02,64.05,64.05,63.87,63.64,63.38,63.10,63.08,63.03,62.94,62.82,62.74,62.71,62.67,62.63,62.58,62.54,62.53,62.53,62.51,62.47,62.47,62.46,62.45,62.48
65.67,65.71,65.73,65.80,65.93,65.88,65.81,65.80,65.83,65.79,65.78,65.79,65.80,65.80,65.80,65.79,65.79,65.79,65.75,65.72,65.70,65.69,65.65,65.66,65.68,65.68,65.66,65.69,65.66,65.63,65.61,65.60,65.61,65.62,65.62,65.62,65.66,65.66,65.61,65.56,65.64,65.68,65.67,65.61,65.59,65.54,65.50,65.53,65.63,65.60,65.53,65.45,65.38,65.33,65.35,65.49,65.68,65.82,65.52,65.37,65.32,65.32,65.37,65.44,65.42,65.33,65.31,65.33,65.45,65.72,66.13,66.32,66.39,66.36,66.29,66.24,66.65,67.26,67.74,67.67,67.00,65.97,64.99,64.35,64.24,64.36,64.19,63.73,63.47,63.20,63.03,62.80,62.34,62.50,62.75,62.86,62.73,62.36,62.17,61.93,61.70,61.65,61.46,61.35,61.25,61.08,60.89,60.83,60.92,61.07,60.98,61.00,61.09,61.15,61.09,60.96,60.96,61.01,61.08,61.12,61.10,61.10,61.12,61.14,61.24,61.41,61.43,61.17,e,e,e,e,e,e,e,60.18,60.18,60.05,59.92,59.84,e,e,e,e,e,e,e,e,e,e,59.53,e,e,e,e,e,e,e,e,e,e,e,e,e,e,e,e,e,e,e,e,e,59.59,59.61,59.65,59.68,59.70,59.60,59.86,60.63,61.96,62.43,62.60,62.67,62.74,62.80,62.85,62.89,62.94,63.00,63.03,63.01,62.99,63.00,63.07,63.17,63.33,63.62,64.25,65.16,65.98,66.49,66.53,65.83,65.22,64.86,64.82,64.94,64.96,64.89,64.74,64.46,64.30,64.28,64.32,64.36,64.47,64.47,64.40,64.28,64.20,64.11,64.07,64.08,64.10,64.01,63.98,63.98,64.02,64.01,64.04,63.97,63.82,63.71,63.51,63.33,63.20,63.09,63.14,63.11,63.01,62.87,62.75,62.71,62.68,62.65,62.61,62.57,62.54,62.52,62.50,62.46,62.47,62.47,62.47,62.49
65.74,65.75,65.75,65.77,65.84,65.81,65.76,65.75,65.78,65.78,65.79,65.81,65.83,65.82,65.80,65.80,65.80,65.79,65.75,65.71,65.70,65.69,65.67,65.66,65.65,65.64,65.62,65.63,65.60,65.57,65.59,65.63,65.62,65.60,65.61,65.72,65.76,65.74,65.68,65.60,65.63,65.68,65.72,65.74,65.62,65.51,65.48,65.52,65.64,65.61,65.57,65.53,65.46,65.37,65.35,65.41,65.52,65.65,65.42,65.31,65.31,65.37,65.42,65.44,65.41,65.33,65.26,65.37,65.54,65.80,66.15,66.35,66.44,66.40,66.26,66.19,66.34,66.75,67.26,67.62,67.48,66.82,65.83,64.77,64.36,64.38,64.24,63.91,63.73,63.52,63.25,62.83,62.21,62.28,62.37,62.41,62.35,62.19,62.08,61.95,61.83,61.82,61.71,61.64,61.57,61.44,61.33,61.30,61.40,61.52,61.43,61.54,61.88,62.20,62.15,61.98,61.91,61.90,61.94,61.96,62.05,62.16,62.25,62.28,62.40,62.50,62.48,62.32,e,e,e,e,e,e,e,60.39,60.38,60.31,60.20,60.17,e,e,e,e,e,e,e,e,e,e,59.53,e,e,e,e,e,e,e,e,e,e,e,e,e,e,e,e,e,e,e,e,e,59.55,59.48,59.48,59.53,59.57,59.51,59.68,60.30,61.60,62.36,62.62,62.69,62.76,62.80,62.85,62.90,62.94,62.97,63.00,63.00,62.98,62.98,63.03,63.10,63.20,63.38,63.77,64.54,65.39,66.15,66.60,66.27,65.64,65.05,64.78,64.93,64.94,64.89,64.81,64.66,64.47,64.37,64.34,64.33,64.39,64.40,64.37,64.31,64.21,64.12,64.06,64.05,64.07,64.06,64.05,64.07,64.15,64.25,64.31,64.25,64.01,63.58,63.35,63.30,63.29,63.19,63.14,63.06,62.95,62.84,62.75,62.71,62.69,62.67,62.63,62.59,62.55,62.51,62.47,62.46,62.48,62.49,62.49,62.49
65.84,65.82,65.77,65.73,65.74,65.72,65.71,65.71,65.72,65.77,65.80,65.84,65.86,65.85,65.81,65.80,65.80,65.80,65.75,65.72,65.70,65.70,65.70,65.65,65.62,65.60,65.60,65.59,65.54,65.52,65.57,65.65,65.64,65.59,65.61,65.81,65.84,65.83,65.76,65.66,65.65,65.69,65.78,65.85,65.63,65.48,65.44,65.49,65.59,65.58,65.59,65.58,65.52,65.41,65.34,65.32,65.36,65.43,65.35,65.29,65.32,65.44,65.47,65.45,65.41,65.36,65.32,65.48,65.66,65.88,66.14,66.36,66.46,66.41,66.25,66.23,66.16,66.27,66.65,67.30,67.69,67.52,66.73,65.41,64.61,64.36,64.22,64.06,63.96,63.82,63.42,62.82,62.14,62.04,61.95,61.92,61.97,62.04,62.02,61.98,61.95,61.95,61.91,61.90,61.88,61.84,61.78,61.80,61.87,61.94,61.88,62.07,62.63,63.17,63.20,63.04,62.90,62.85,62.89,62.89,63.07,63.26,63.42,63.46,63.59,63.62,63.57,63.47,63.46,63.27,63.03,62.68,61.91,61.29,60.88,60.67,60.65,60.61,60.52,60.44,60.37,60.30,60.17,60.08,60.03,59.99,e,e,e,e,59.56,59.55,59.54,e,e,e,e,e,e,e,e,e,e,e,e,e,e,e,e,e,e,e,e,59.30,59.33,59.38,59.44,59.42,59.53,60.07,61.29,62.30,62.62,62.70,62.78,62.80,62.85,62.90,62.94,62.94,62.98,62.99,62.98,62.97,62.99,63.02,63.08,63.19,63.39,63.96,64.77,65.67,66.46,66.58,66.07,65.35,64.81,64.91,64.89,64.85,64.84,64.85,64.66,64.50,64.39,64.33,64.31,64.33,64.34,64.32,64.21,64.13,64.08,64.06,64.11,64.17,64.17,64.21,64.34,64.56,64.63,64.57,64.29,63.56,63.28,63.31,63.40,63.26,63.11,62.97,62.86,62.80,62.74,62.72,62.71,62.69,62.63,62.61,62.56,62.50,62.44,62.46,62.48,62.50,62.50,62.50
65.93,65.87,65.77,65.69,65.66,65.67,65.69,65.72,65.75,65.79,65.82,65.85,65.87,65.88,65.83,65.81,65.80,65.80,65.79,65.75,65.71,65.70,65.70,65.67,65.63,65.61,65.60,65.57,65.52,65.50,65.54,65.63,65.61,65.59,65.60,65.69,65.78,65.80,65.76,65.70,65.72,65.75,65.78,65.77,65.62,65.48,65.41,65.40,65.46,65.50,65.57,65.59,65.51,65.39,65.33,65.36,65.43,65.45,65.35,65.32,65.36,65.47,65.49,65.52,65.46,65.35,65.37,65.58,65.76,65.92,66.11,66.38,66.41,66.35,66.27,66.16,66.17,66.16,66.24,66.61,67.24,67.56,67.35,66.48,65.22,64.57,64.26,64.17,64.16,64.00,63.38,62.63,62.20,61.99,61.91,61.91,61.92,61.96,61.99,62.01,62.03,62.03,62.02,62.02,62.08,62.21,62.10,62.13,62.20,62.24,62.15,62.29,62.64,63.06,63.37,63.45,63.31,63.17,63.15,63.13,63.19,63.30,63.42,63.43,63.54,63.59,63.60,63.64,63.63,63.43,63.20,62.98,62.57,62.17,61.56,61.01,60.90,60.76,60.68,60.62,60.55,60.49,60.42,60.35,60.27,60.16,60.14,60.04,59.92,59.85,59.75,59.68,59.62,59.54,e,e,e,e,e,e,e,e,e,e,e,e,e,e,e,e,e,e,e,e,e,e,59.29,59.25,59.31,e,e,62.29,62.53,62.69,62.76,62.79,62.85,62.91,62.95,62.91,62.95,62.97,62.96,62.93,62.93,62.94,62.97,63.04,63.18,63.53,64.15,64.97,65.91,66.45,66.39,65.89,65.16,64.83,64.78,64.81,64.86,64.92,64.83,64.74,64.67,64.61,64.43,64.35,64.28,64.20,64.11,64.13,64.15,64.17,64.22,64.33,64.41,64.53,64.72,64.92,64.84,64.70,64.46,63.81,63.29,63.19,63.24,63.12,62.98,62.89,62.84,62.80,62.75,62.75,62.74,62.70,62.63,62.60,62.56,62.50,62.43,62.43,62.46,62.49,62.50,62.50
65.89,65.83,65.74,65.67,65.63,65.66,65.69,65.73,65.77,65.80,65.82,65.83,65.85,65.88,65.84,65.81,65.80,65.80,65.80,65.76,65.72,65.70,65.70,65.67,65.64,65.61,65.60,65.58,65.52,65.49,65.54,65.61,65.58,65.57,65.58,65.60,65.70,65.72,65.70,65.68,65.74,65.76,65.75,65.70,65.58,65.46,65.38,65.35,65.38,65.44,65.51,65.53,65.47,65.41,65.33,65.36,65.43,65.39,65.34,65.33,65.38,65.49,65.53,65.55,65.46,65.32,65.39,65.62,65.85,66.03,66.13,66.36,66.36,66.28,66.21,66.14,66.15,66.10,66.07,66.21,66.72,67.26,67.50,67.17,66.08,65.14,64.52,64.26,64.23,64.11,63.60,62.97,62.58,62.14,61.95,61.90,61.91,61.95,62.01,62.05,62.08,62.11,62.13,62.15,62.23,62.41,62.29,62.31,62.36,62.38,62.31,62.36,62.53,62.81,63.21,63.59,63.49,63.33,63.32,63.25,63.18,63.25,63.39,63.42,63.67,63.71,63.70,63.78,63.77,63.60,63.38,63.16,62.89,62.66,62.03,61.35,61.14,60.98,60.87,60.79,60.71,60.65,60.60,60.54,60.47,60.35,60.25,60.12,59.99,59.90,59.84,59.78,59.72,59.67,e,e,e,e,e,e,e,e,e,e,e,e,e,e,e,e,e,e,e,e,e,e,59.22,59.18,59.16,e,e,62.29,62.46,62.60,62.71,62.76,62.82,62.88,62.91,62.90,62.92,62.93,62.93,62.91,62.91,62.91,62.92,62.97,63.08,63.28,63.68,64.34,65.25,66.07,66.42,66.27,65.65,65.02,64.82,64.80,64.88,64.95,64.90,64.83,64.75,64.66,64.43,64.32,64.25,64.18,64.17,64.23,64.30,64.36,64.38,64.49,64.59,64.71,64.85,64.93,64.79,64.65,64.44,63.83,63.27,63.08,63.07,62.98,62.89,62.86,62.85,62.83,62.78,62.76,62.74,62.69,62.63,62.59,62.55,62.50,62.44,62.45,62.47,62.49,62.50,62.50
65.74,65.73,65.69,65.65,65.63,65.67,65.71,65.75,65.78,65.80,65.80,65.80,65.82,65.87,65.84,65.81,65.80,65.80,65.80,65.76,65.72,65.70,65.70,65.67,65.64,65.61,65.60,65.60,65.53,65.51,65.57,65.60,65.55,65.53,65.53,65.54,65.61,65.61,65.60,65.63,65.72,65.74,65.71,65.63,65.51,65.44,65.37,65.33,65.35,65.41,65.43,65.42,65.41,65.45,65.33,65.34,65.39,65.26,65.33,65.33,65.37,65.52,65.58,65.55,65.42,65.28,65.39,65.62,65.94,66.18,66.18,66.30,66.30,66.21,66.10,66.16,66.11,66.08,66.06,66.00,66.14,66.72,67.34,67.61,67.10,65.96,64.95,64.35,64.21,64.17,64.00,63.67,63.20,62.43,62.04,61.90,61.91,61.98,62.05,62.09,62.12,62.19,62.25,62.28,62.34,62.48,62.41,62.40,62.40,62.41,62.38,62.33,62.33,62.46,62.83,63.55,63.51,63.37,63.43,63.27,63.07,63.12,63.33,63.42,63.92,63.94,63.83,63.89,63.88,63.78,63.56,63.25,62.97,62.89,62.36,61.69,61.37,61.26,61.08,60.94,60.86,60.78,60.72,60.69,60.65,60.55,60.40,60.25,60.10,59.97,59.89,59.85,59.84,59.85,59.75,59.63,59.58,e,e,e,e,e,e,e,e,e,e,e,e,e,e,e,e,e,e,e,e,e,e,e,e,e,62.39,62.46,62.63,62.72,62.77,62.81,62.85,62.89,62.89,62.89,62.89,62.90,62.90,62.90,62.91,62.96,63.06,63.14,63.32,63.74,64.53,65.51,66.25,66.54,66.24,65.39,64.94,64.81,64.89,64.95,64.89,64.81,64.70,64.55,64.36,64.27,64.23,64.23,64.33,64.41,64.52,64.60,64.58,64.67,64.74,64.80,64.83,64.69,64.56,64.47,64.29,63.70,63.22,62.98,62.89,62.85,62.83,62.86,62.88,62.87,62.83,62.76,62.71,62.67,62.62,62.57,62.53,62.49,62.45,62.50,62.51,62.51,62.50,62.50
65.74,65.70,65.67,65.66,65.67,65.69,65.71,65.74,65.78,65.80,65.80,65.80,65.81,65.83,65.85,65.83,65.81,65.80,65.80,65.76,65.72,65.70,65.70,65.66,65.64,65.63,65.61,65.60,65.57,65.54,65.55,65.58,65.57,65.57,65.56,65.53,65.55,65.57,65.57,65.56,65.56,65.58,65.58,65.57,65.59,65.45,65.35,65.31,65.33,65.35,65.35,65.36,65.39,65.42,65.31,65.27,65.27,65.22,65.29,65.31,65.33,65.39,65.41,65.43,65.36,65.31,65.68,65.76,65.89,66.01,66.02,66.14,66.27,66.26,66.12,66.17,66.36,66.70,67.12,67.49,66.51,66.34,66.72,67.27,67.13,66.60,65.80,64.94,64.46,64.26,64.10,63.91,63.64,63.12,62.58,62.26,62.22,62.08,62.09,62.14,62.21,62.35,62.45,62.45,62.45,62.49,62.43,62.51,62.56,62.55,62.52,62.46,62.38,62.38,62.58,63.35,63.52,63.53,63.56,63.25,63.10,63.12,63.27,63.46,63.54,63.65,63.72,63.71,63.69,63.81,63.81,63.61,63.13,62.95,62.64,62.24,61.87,61.57,61.37,61.19,61.00,60.93,60.83,60.78,60.75,60.68,60.56,60.44,60.32,60.17,60.02,59.92,59.84,59.76,59.70,59.70,59.70,59.69,e,e,e,e,e,e,e,e,e,e,e,e,e,e,e,e,e,e,e,e,e,e,e,e,e,e,62.22,62.53,62.68,62.76,62.80,62.84,62.85,62.86,62.86,62.87,62.87,62.88,62.89,62.91,62.95,63.01,63.13,63.39,63.93,64.83,65.70,66.31,66.46,65.84,65.20,64.86,64.83,64.92,64.83,64.73,64.62,64.48,64.40,64.41,64.43,64.43,64.45,64.53,64.66,64.77,64.77,64.78,64.75,64.74,64.73,64.68,64.50,64.23,63.87,63.40,63.12,62.99,62.93,62.89,62.88,62.88,62.88,62.84,62.79,62.74,62.69,62.64,62.61,62.59,62.56,62.54,62.52,62.53,62.54,62.53,62.51,62.50
65.77,65.69,65.65,65.66,65.68,65.70,65.70,65.73,65.77,65.80,65.80,65.80,65.80,65.81,65.84,65.83,65.82,65.80,65.80,65.76,65.71,65.68,65.67,65.65,65.64,65.64,65.61,65.57,65.57,65.58,65.59,65.60,65.60,65.60,65.59,65.54,65.53,65.54,65.54,65.52,65.48,65.49,65.50,65.51,65.58,65.45,65.35,65.31,65.32,65.32,65.31,65.32,65.35,65.39,65.32,65.26,65.24,65.27,65.35,65.38,65.39,65.39,65.39,65.40,65.34,65.35,65.82,65.83,65.86,65.89,65.85,66.04,66.21,66.33,66.44,66.71,67.19,67.84,68.55,69.19,67.76,67.02,66.90,67.17,66.91,66.68,66.13,65.32,64.79,64.42,64.22,64.10,63.96,63.66,63.16,62.79,62.63,62.26,62.20,62.24,62.34,62.56,62.60,62.56,62.52,62.52,62.48,62.54,62.59,62.62,62.65,62.60,62.49,62.40,62.43,63.09,63.38,63.52,63.57,63.21,63.11,63.11,63.21,63.40,63.30,63.46,63.64,63.60,63.56,63.78,63.93,63.82,63.28,63.05,62.87,62.64,62.32,61.99,61.78,61.54,61.23,61.10,60.95,60.86,60.83,60.79,60.70,60.62,60.51,60.37,60.20,60.05,59.90,59.77,59.71,59.74,59.72,59.69,e,e,e,e,e,e,e,e,e,e,e,e,e,e,e,e,e,e,e,e,e,e,e,e,e,e,61.96,62.20,62.48,62.67,62.74,62.77,62.80,62.81,62.82,62.84,62.84,62.85,62.86,62.87,62.87,62.91,63.00,63.17,63.47,64.20,65.11,65.94,66.47,66.21,65.56,65.05,64.82,64.85,64.75,64.66,64.58,64.48,64.49,64.56,64.60,64.59,64.58,64.68,64.79,64.88,64.87,64.85,64.79,64.74,64.71,64.58,64.29,63.91,63.51,63.19,63.06,63.00,62.96,62.92,62.90,62.89,62.86,62.80,62.75,62.71,62.66,62.62,62.60,62.59,62.57,62.55,62.55,62.54,62.54,62.53,62.51,62.50
65.83,65.72,65.64,65.62,65.67,65.69,65.70,65.72,65.77,65.80,65.80,65.80,65.80,65.80,65.81,65.81,65.80,65.80,65.80,65.76,65.69,65.63,65.61,65.64,65.65,65.63,65.60,65.50,65.53,65.62,65.72,65.67,65.63,65.62,65.61,65.60,65.55,65.52,65.51,65.51,65.51,65.50,65.48,65.44,65.44,65.41,65.36,65.33,65.36,65.33,65.33,65.30,65.28,65.36,65.38,65.34,65.31,65.43,65.55,65.60,65.60,65.58,65.58,65.49,65.38,65.39,65.73,65.80,65.86,65.85,65.68,66.04,66.12,66.45,67.21,68.00,68.86,69.74,70.55,71.18,70.30,69.25,68.25,67.42,66.33,65.95,65.68,65.38,65.23,64.69,64.35,64.19,64.10,63.98,63.82,63.58,63.21,62.55,62.40,62.40,62.52,62.83,62.70,62.59,62.54,62.56,62.56,62.45,62.43,62.55,62.76,62.74,62.67,62.55,62.42,62.77,63.04,63.27,63.43,63.17,63.08,63.09,63.16,63.21,63.25,63.45,63.62,63.62,63.54,63.70,63.85,63.82,63.41,63.22,63.01,62.81,62.70,62.57,62.37,62.03,61.57,61.33,61.08,60.95,60.89,60.84,60.81,60.77,60.69,60.57,60.45,60.26,60.08,59.92,59.78,59.74,59.71,59.68,59.66,e,e,e,e,e,e,e,e,e,e,e,e,e,e,e,e,e,e,e,e,e,e,e,e,e,e,61.58,62.11,62.51,62.66,62.69,62.74,62.76,62.79,62.81,62.79,62.79,62.80,62.82,62.81,62.85,62.97,63.11,63.23,63.66,64.44,65.35,66.15,66.45,66.08,65.48,64.92,64.72,64.66,64.62,64.59,64.59,64.66,64.72,64.73,64.69,64.73,64.86,64.92,64.90,64.84,64.89,64.87,64.83,64.77,64.36,63.88,63.48,63.23,63.10,63.05,63.01,62.98,62.94,62.91,62.87,62.83,62.76,62.72,62.68,62.64,62.61,62.60,62.57,62.54,62.53,62.52,62.52,62.51,62.51,62.51,62.50
65.80,65.76,65.70,65.65,65.64,65.68,65.69,65.70,65.73,65.75,65.77,65.78,65.78,65.78,65.77,65.76,65.75,65.75,65.75,65.72,65.68,65.63,65.61,65.62,65.62,65.61,65.60,65.51,65.57,65.70,65.83,65.81,65.78,65.75,65.73,65.69,65.64,65.58,65.54,65.55,65.55,65.54,65.51,65.49,65.45,65.42,65.36,65.32,65.34,65.35,65.36,65.34,65.30,65.38,65.39,65.41,65.45,65.49,65.65,65.70,65.69,65.65,65.65,65.51,65.44,65.54,65.78,65.80,65.97,66.15,66.19,66.82,67.31,67.97,68.89,69.78,70.51,71.18,71.73,72.04,71.68,70.90,69.81,68.46,66.81,66.02,65.61,65.45,65.66,65.31,64.81,64.38,64.22,64.24,64.15,63.99,63.75,63.27,62.98,62.80,62.75,62.95,62.85,62.78,62.67,62.51,62.53,62.46,62.51,62.69,62.75,62.78,62.82,62.79,62.58,62.70,62.84,63.04,63.27,63.22,63.14,63.11,63.13,63.21,63.32,63.48,63.61,63.61,63.57,63.67,63.79,63.78,63.34,63.07,62.91,62.82,62.75,62.66,62.53,62.31,62.00,61.75,61.52,61.28,61.05,60.88,60.86,60.82,60.76,60.68,60.59,60.44,60.28,60.13,59.95,59.85,59.77,59.70,59.65,59.59,e,e,e,e,e,e,e,e,e,e,e,e,e,e,e,e,e,e,e,e,e,e,e,e,e,e,61.59,61.93,62.42,62.63,62.67,62.70,62.73,62.76,62.74,62.74,62.75,62.76,62.76,62.79,62.89,63.02,63.10,63.31,63.89,64.70,65.60,66.26,66.32,65.91,65.25,64.76,64.65,64.64,64.68,64.70,64.77,64.83,64.84,64.80,64.83,64.88,64.90,64.89,64.89,64.94,64.93,64.73,64.29,63.77,63.45,63.25,63.14,63.09,63.05,63.02,62.99,62.97,62.93,62.88,62.81,62.74,62.71,62.66,62.62,62.60,62.60,62.55,62.52,62.51,62.51,62.51,62.50,62.49,62.47,62.48
65.78,65.80,65.76,65.69,65.63,65.68,65.69,65.70,65.69,65.70,65.73,65.75,65.76,65.76,65.73,65.71,65.70,65.70,65.70,65.68,65.66,65.63,65.61,65.60,65.60,65.60,65.59,65.52,65.60,65.76,65.91,65.93,65.92,65.88,65.84,65.78,65.75,65.67,65.61,65.60,65.59,65.56,65.54,65.53,65.48,65.42,65.36,65.32,65.32,65.37,65.39,65.38,65.35,65.39,65.36,65.44,65.54,65.50,65.69,65.76,65.73,65.66,65.67,65.51,65.49,65.68,65.92,65.97,66.31,66.77,67.13,67.99,68.89,69.78,70.65,71.43,71.91,72.28,72.51,72.51,72.58,72.17,71.21,69.68,67.71,66.40,65.67,65.55,66.14,66.05,65.43,64.71,64.36,64.45,64.38,64.29,64.22,63.96,63.60,63.29,63.11,63.10,63.06,63.02,62.84,62.46,62.48,62.49,62.64,62.84,62.70,62.75,62.94,63.04,62.82,62.75,62.73,62.86,63.11,63.24,63.23,63.14,63.10,63.26,63.37,63.50,63.58,63.58,63.62,63.65,63.69,63.65,63.18,62.86,62.77,62.80,62.78,62.68,62.62,62.54,62.39,62.15,61.96,61.66,61.29,61.01,60.92,60.85,60.79,60.74,60.69,60.60,60.48,60.35,60.15,60.00,59.87,59.75,59.67,59.60,e,e,e,e,e,e,e,e,e,e,e,e,e,e,e,e,e,e,e,e,e,e,e,e,e,e,60.71,61.19,61.99,62.47,62.58,62.63,62.67,62.71,62.71,62.71,62.71,62.71,62.71,62.74,62.81,62.91,62.99,63.05,63.40,64.06,64.98,65.89,66.38,66.26,65.64,64.92,64.68,64.68,64.76,64.79,64.84,64.89,64.91,64.88,64.89,64.87,64.87,64.89,64.92,64.86,64.77,64.42,63.73,63.23,63.11,63.10,63.10,63.09,63.05,63.01,62.99,62.98,62.94,62.88,62.80,62.73,62.70,62.65,62.62,62.60,62.59,62.54,62.51,62.49,62.49,62.49,62.49,62.46,62.43,62.46
65.81,65.82,65.77,65.72,65.69,65.77,65.78,65.76,65.71,65.68,65.69,65.71,65.72,65.72,65.71,65.70,65.70,65.70,65.70,65.66,65.64,65.63,65.62,65.60,65.60,65.59,65.54,65.49,65.57,65.74,65.90,65.89,65.90,65.89,65.87,65.88,65.87,65.81,65.74,65.68,65.55,65.50,65.49,65.48,65.40,65.37,65.35,65.36,65.38,65.39,65.44,65.44,65.38,65.32,65.26,65.31,65.40,65.41,65.61,65.69,65.69,65.63,65.60,65.48,65.48,65.73,66.28,66.71,67.40,68.23,69.01,69.92,70.79,71.47,71.93,72.25,72.39,72.47,72.52,72.49,72.76,72.54,71.90,70.91,69.25,67.25,65.93,65.70,66.77,66.93,66.36,65.43,64.57,64.53,64.53,64.55,64.50,64.19,64.03,63.97,63.87,63.51,63.45,63.35,63.03,62.47,62.48,62.54,62.71,62.87,62.58,62.61,62.95,63.27,63.21,63.00,62.82,62.80,62.98,63.09,63.33,63.23,63.02,63.33,63.31,63.41,63.50,63.47,63.72,63.66,63.50,63.28,62.91,62.70,62.72,62.86,62.95,62.85,62.83,62.74,62.52,62.27,62.15,61.98,61.75,61.48,61.06,60.83,60.74,60.74,60.76,60.72,60.66,60.56,60.42,60.22,60.03,59.86,59.74,59.67,59.59,59.54,e,e,e,e,e,e,e,e,e,e,e,e,e,e,e,e,e,e,e,e,e,e,e,e,59.77,60.20,61.04,61.95,62.39,62.57,62.62,62.66,62.69,62.70,62.70,62.69,62.69,62.70,62.73,62.77,62.84,62.93,63.11,63.53,64.25,65.24,66.00,66.31,66.10,65.36,64.84,64.69,64.74,64.83,64.84,64.86,64.86,64.85,64.84,64.90,64.96,64.94,64.80,64.27,63.86,63.55,63.34,63.18,63.12,63.10,63.09,63.06,63.02,62.98,62.95,62.92,62.91,62.87,62.81,62.75,62.71,62.66,62.62,62.59,62.55,62.52,62.50,62.47,62.44,62.43,62.42,62.42,62.41,62.45
65.82,65.81,65.78,65.75,65.73,65.79,65.80,65.76,65.70,65.65,65.65,65.66,65.67,65.67,65.68,65.69,65.70,65.70,65.68,65.64,65.62,65.61,65.59,65.58,65.56,65.53,65.46,65.41,65.47,65.62,65.81,65.87,65.86,65.84,65.84,65.86,65.86,65.83,65.79,65.76,65.64,65.61,65.62,65.64,65.60,65.57,65.50,65.44,65.44,65.39,65.49,65.54,65.48,65.37,65.35,65.35,65.34,65.34,65.50,65.59,65.61,65.56,65.42,65.70,66.11,66.64,67.43,68.15,68.99,69.90,70.80,71.41,71.92,72.27,72.45,72.54,72.56,72.64,72.68,72.51,72.69,72.58,72.24,71.72,70.73,67.95,66.05,65.78,66.75,67.27,67.09,66.34,65.28,64.75,64.63,64.70,64.75,64.45,64.29,64.24,64.15,63.76,63.77,63.53,63.10,62.59,62.52,62.67,62.79,62.76,62.53,62.65,62.94,63.25,63.39,63.10,62.97,62.91,62.90,63.00,63.17,63.13,63.04,63.32,63.45,63.55,63.57,63.51,63.69,63.57,63.31,63.01,62.77,62.68,62.74,62.92,63.13,62.98,62.91,62.77,62.49,62.30,62.26,62.17,62.00,61.83,61.47,61.16,60.93,60.79,60.79,60.78,60.75,60.70,60.61,60.41,60.21,60.03,59.87,59.78,59.67,59.59,e,e,e,e,e,e,e,e,e,e,e,e,e,e,e,e,e,e,e,e,e,e,e,e,59.42,59.73,60.21,61.10,61.82,62.27,62.50,62.59,62.65,62.67,62.67,62.65,62.65,62.67,62.69,62.71,62.77,62.87,62.97,63.20,63.67,64.57,65.45,66.07,66.26,65.83,65.19,64.83,64.72,64.79,64.80,64.82,64.82,64.83,64.85,64.85,64.81,64.67,64.38,63.82,63.42,63.22,63.20,63.16,63.14,63.12,63.10,63.05,63.02,62.97,62.93,62.90,62.90,62.88,62.83,62.78,62.74,62.68,62.63,62.59,62.55,62.52,62.48,62.45,62.41,62.39,62.38,62.39,62.40,62.43
65.81,65.80,65.79,65.78,65.77,65.79,65.78,65.74,65.67,65.62,65.62,65.62,65.63,65.63,65.66,65.69,65.70,65.70,65.66,65.63,65.61,65.59,65.55,65.53,65.50,65.44,65.36,65.30,65.32,65.45,65.66,65.85,65.80,65.77,65.77,65.76,65.79,65.77,65.78,65.84,65.82,65.81,65.86,65.93,65.96,65.92,65.75,65.56,65.51,65.39,65.56,65.67,65.62,65.49,65.56,65.49,65.34,65.30,65.39,65.47,65.52,65.52,65.25,66.13,67.16,68.07,69.05,69.99,70.85,71.67,72.49,72.60,72.58,72.54,72.52,72.50,72.55,72.76,72.91,72.55,72.47,72.42,72.36,72.26,72.12,68.56,66.11,65.82,66.34,67.26,67.65,67.34,66.30,65.08,64.73,64.80,64.96,64.74,64.45,64.27,64.14,63.92,64.04,63.63,63.09,62.78,62.58,62.85,62.88,62.59,62.53,62.78,62.92,63.08,63.44,63.11,63.15,63.11,62.86,62.94,62.85,62.91,63.11,63.25,63.70,63.79,63.71,63.62,63.57,63.42,63.14,62.81,62.71,62.76,62.82,62.97,63.29,63.07,62.93,62.71,62.37,62.28,62.33,62.27,62.12,62.10,62.02,61.70,61.28,60.89,60.82,60.80,60.80,60.79,60.75,60.59,60.41,60.23,60.03,59.92,59.79,59.65,59.52,59.42,e,e,e,e,e,e,e,e,e,e,e,e,e,e,e,e,e,e,e,e,e,e,e,e,59.48,60.08,61.04,61.81,62.31,62.51,62.59,62.63,62.62,62.60,62.60,62.63,62.67,62.71,62.73,62.85,62.92,63.00,63.20,63.90,64.81,65.65,66.24,66.29,65.65,65.06,64.71,64.70,64.75,64.77,64.79,64.81,64.87,64.75,64.53,64.21,63.79,63.45,63.28,63.21,63.20,63.17,63.16,63.14,63.11,63.07,63.03,62.98,62.93,62.90,62.90,62.88,62.85,62.81,62.78,62.71,62.65,62.61,62.57,62.53,62.47,62.42,62.40,62.37,62.36,62.36,62.38,62.40
65.80,65.80,65.80,65.79,65.79,65.77,65.77,65.74,65.67,65.65,65.64,65.62,65.61,65.61,65.62,65.65,65.68,65.70,65.68,65.67,65.65,65.61,65.58,65.61,65.53,65.44,65.41,65.42,65.38,65.38,65.44,65.50,65.54,65.60,65.65,65.66,65.67,65.64,65.67,65.81,65.86,65.95,66.02,66.06,66.05,66.07,66.01,65.90,65.83,65.78,65.81,65.83,65.80,65.75,65.73,65.64,65.49,65.38,65.49,65.54,65.88,66.64,67.16,68.11,69.06,69.93,70.80,71.48,71.91,72.21,72.50,72.58,72.58,72.63,72.73,72.59,72.51,72.53,72.56,72.40,72.36,72.30,72.15,71.84,71.17,68.93,66.89,65.76,65.92,66.57,67.16,67.44,67.17,66.17,65.31,64.84,64.82,64.88,64.80,64.57,64.26,64.01,64.07,63.88,63.46,62.89,62.68,62.73,62.73,62.62,62.58,62.68,62.88,63.11,63.30,63.02,63.03,63.04,62.93,62.75,62.67,62.75,62.95,63.11,63.41,63.47,63.39,63.30,63.31,63.13,62.90,62.70,62.68,62.78,62.91,63.05,63.18,63.10,62.95,62.75,62.55,62.45,62.44,62.34,62.18,62.09,62.07,61.88,61.58,61.25,61.02,60.86,60.79,60.80,60.78,60.71,60.58,60.42,60.23,60.08,59.96,59.85,59.72,59.63,59.51,59.42,e,e,e,e,e,e,e,e,e,e,e,e,e,e,e,e,e,e,e,e,e,e,e,e,60.36,60.89,61.62,62.21,62.49,62.57,62.58,62.58,62.60,62.62,62.64,62.66,62.67,62.75,62.82,62.89,62.99,63.40,64.16,65.02,65.82,66.27,66.01,65.46,64.91,64.62,64.69,64.72,64.73,64.70,64.58,64.27,63.96,63.69,63.48,63.33,63.24,63.20,63.20,63.16,63.14,63.11,63.08,63.02,62.98,62.94,62.91,62.87,62.86,62.86,62.85,62.82,62.79,62.74,62.67,62.62,62.59,62.54,62.48,62.42,62.40,62.35,62.33,62.34,62.38,62.40
65.78,65.80,65.80,65.80,65.79,65.75,65.75,65.73,65.69,65.67,65.66,65.63,65.61,65.60,65.60,65.67,65.75,65.81,65.77,65.76,65.72,65.65,65.62,65.64,65.53,65.42,65.44,65.53,65.48,65.43,65.42,65.43,65.46,65.50,65.56,65.58,65.58,65.58,65.65,65.80,65.86,65.99,66.09,66.12,66.10,66.15,66.14,66.09,66.04,66.01,65.96,65.92,65.90,65.85,65.82,65.78,65.74,65.70,66.11,66.43,67.05,68.16,69.02,69.91,70.71,71.40,72.01,72.39,72.53,72.55,72.58,72.64,72.64,72.68,72.76,72.58,72.46,72.38,72.32,72.22,72.09,71.86,71.45,70.82,69.83,68.52,67.00,65.69,65.66,66.03,66.61,67.19,67.51,66.99,66.04,65.22,64.84,64.89,64.94,64.73,64.35,64.09,64.10,64.05,63.76,63.19,62.94,62.82,62.72,62.63,62.63,62.63,62.82,63.08,63.20,62.94,62.84,62.84,62.85,62.67,62.69,62.80,62.94,63.00,63.21,63.24,63.16,63.06,63.07,62.91,62.75,62.66,62.69,62.88,63.03,63.09,63.09,63.14,63.01,62.86,62.77,62.69,62.59,62.45,62.28,62.14,62.11,61.98,61.79,61.55,61.30,61.03,60.85,60.79,60.78,60.76,60.69,60.57,60.42,60.24,60.13,60.02,59.90,59.82,59.61,59.52,e,e,e,e,e,e,e,e,e,e,e,e,e,e,e,e,e,e,e,e,e,e,e,e,59.83,60.38,61.16,61.63,62.21,62.45,62.54,62.57,62.60,62.61,62.62,62.63,62.63,62.67,62.73,62.80,62.87,63.06,63.60,64.38,65.29,66.05,66.19,65.82,65.22,64.70,64.65,64.62,64.54,64.40,64.17,63.86,63.58,63.39,63.31,63.27,63.23,63.21,63.20,63.15,63.12,63.09,63.05,62.99,62.96,62.93,62.89,62.84,62.84,62.86,62.86,62.83,62.80,62.76,62.69,62.62,62.60,62.55,62.48,62.42,62.39,62.34,62.31,62.32,62.35,62.37
65.74,65.79,65.80,65.80,65.77,65.72,65.74,65.74,65.71,65.68,65.68,65.66,65.63,65.59,65.59,65.75,65.94,66.06,65.92,65.88,65.82,65.72,65.66,65.61,65.49,65.41,65.45,65.61,65.62,65.62,65.67,65.70,65.59,65.52,65.51,65.52,65.53,65.62,65.73,65.80,65.81,65.91,66.02,66.11,66.11,66.14,66.12,66.09,66.08,66.02,65.96,65.92,65.87,65.77,65.80,65.92,66.10,66.32,67.39,68.35,69.27,70.19,70.82,71.51,72.04,72.37,72.51,72.54,72.58,72.65,72.75,72.82,72.78,72.68,72.55,72.48,72.40,72.33,72.22,72.00,71.61,71.00,70.13,69.01,68.01,67.09,66.25,65.61,65.61,65.69,65.98,66.48,67.15,67.45,66.95,66.04,65.09,64.70,64.80,64.69,64.38,64.15,64.14,64.11,63.99,63.73,63.39,63.18,62.90,62.62,62.68,62.63,62.74,62.96,63.16,62.86,62.57,62.46,62.58,62.72,62.97,63.11,63.11,62.94,63.09,63.13,63.05,62.91,62.83,62.76,62.70,62.68,62.77,63.09,63.17,63.09,63.04,63.20,63.13,63.04,63.04,63.02,62.82,62.61,62.43,62.26,62.12,61.99,61.87,61.77,61.66,61.33,61.00,60.78,60.74,60.73,60.71,60.66,60.58,60.41,60.28,60.17,60.07,59.96,59.79,59.65,59.58,e,e,e,e,e,e,e,e,e,e,e,e,e,e,e,e,e,e,e,e,e,e,e,e,e,e,60.67,61.69,62.27,62.52,62.55,62.59,62.60,62.60,62.60,62.60,62.62,62.65,62.73,62.85,62.92,63.16,63.73,64.60,65.57,66.12,66.13,65.69,64.98,64.66,64.44,64.18,63.86,63.64,63.51,63.43,63.38,63.34,63.30,63.26,63.22,63.20,63.15,63.12,63.08,63.03,62.99,62.99,62.94,62.86,62.81,62.85,62.88,62.88,62.83,62.80,62.76,62.69,62.62,62.60,62.55,62.48,62.42,62.39,62.34,62.31,62.30,62.31,62.31
65.65,65.72,65.77,65.81,65.82,65.77,65.73,65.69,65.64,65.63,65.67,65.67,65.65,65.63,65.61,65.72,65.89,66.03,65.91,65.83,65.78,65.73,65.68,65.55,65.45,65.42,65.48,65.62,65.66,65.70,65.76,65.80,65.70,65.61,65.56,65.52,65.54,65.63,65.72,65.77,65.80,65.91,66.01,66.06,66.07,66.12,66.09,66.05,66.06,65.94,65.85,65.79,65.78,65.95,66.42,67.01,67.64,68.25,69.35,70.20,70.90,71.50,71.85,72.19,72.43,72.58,72.77,72.74,72.69,72.69,72.77,72.71,72.65,72.57,72.47,72.40,72.07,71.73,71.33,70.75,70.00,69.12,68.22,67.37,66.70,66.21,65.83,65.59,65.63,65.65,65.74,65.96,66.40,67.01,67.12,66.73,65.93,65.09,64.77,64.67,64.54,64.10,64.07,64.09,64.07,63.94,63.79,63.57,63.26,62.91,62.68,62.57,62.68,62.84,62.85,62.51,62.45,62.46,62.49,62.74,63.03,63.17,63.12,62.84,62.96,62.98,62.94,62.91,62.76,62.63,62.60,62.72,62.98,63.20,63.27,63.21,63.06,63.16,63.13,63.09,63.11,63.14,63.01,62.87,62.75,62.71,62.44,62.17,61.94,61.79,61.72,61.55,61.34,61.13,60.94,60.74,60.63,60.61,60.60,60.50,60.38,60.29,60.22,60.12,59.96,59.81,59.70,59.61,e,e,e,e,e,e,e,e,e,e,e,e,e,e,e,e,e,e,e,e,e,e,e,e,e,e,e,61.99,62.20,62.52,62.56,62.59,62.60,62.60,62.62,62.63,62.63,62.67,62.77,62.84,62.92,63.28,63.96,64.94,65.75,66.14,66.03,65.43,64.85,64.50,64.17,63.81,63.56,63.48,63.44,63.41,63.37,63.33,63.29,63.26,63.21,63.15,63.11,63.08,63.03,62.97,62.95,62.92,62.88,62.85,62.88,62.87,62.84,62.78,62.75,62.71,62.66,62.61,62.60,62.52,62.46,62.40,62.36,62.32,62.30,62.29,62.29,62.29
65.61,65.66,65.72,65.78,65.84,65.79,65.71,65.62,65.56,65.59,65.66,65.69,65.69,65.68,65.65,65.69,65.79,65.93,65.86,65.76,65.72,65.72,65.67,65.49,65.42,65.44,65.52,65.61,65.66,65.71,65.78,65.82,65.77,65.69,65.62,65.54,65.57,65.63,65.69,65.73,65.81,65.94,66.01,66.01,66.02,66.07,66.02,65.95,65.96,65.89,65.80,65.71,65.74,66.37,67.38,68.42,69.40,70.23,71.14,71.72,72.11,72.41,72.53,72.62,72.65,72.68,72.89,72.87,72.76,72.68,72.74,72.60,72.51,72.41,72.25,72.01,71.38,70.74,70.04,69.09,68.19,67.27,66.53,66.08,65.77,65.63,65.59,65.60,65.66,65.66,65.60,65.58,65.75,66.40,66.97,67.15,66.77,65.73,64.96,64.70,64.66,64.17,64.08,64.09,64.10,64.06,64.10,63.91,63.63,63.27,62.82,62.54,62.54,62.61,62.46,62.20,62.38,62.53,62.44,62.70,62.97,63.11,63.06,62.75,62.80,62.80,62.83,62.91,62.71,62.55,62.56,62.77,63.17,63.24,63.30,63.29,63.07,63.12,63.16,63.17,63.17,63.21,63.17,63.08,63.02,63.09,62.80,62.42,62.06,61.82,61.75,61.70,61.63,61.51,61.25,60.92,60.69,60.59,60.59,60.54,60.45,60.38,60.34,60.25,60.11,59.97,59.82,59.65,e,e,e,e,e,e,e,e,e,e,e,e,e,e,e,e,e,e,e,e,e,e,e,e,e,e,e,61.33,61.68,62.31,62.47,62.56,62.59,62.60,62.63,62.64,62.62,62.62,62.69,62.77,62.77,62.94,63.39,64.29,65.26,65.97,66.22,65.87,65.14,64.66,64.26,63.90,63.59,63.52,63.48,63.44,63.40,63.36,63.32,63.28,63.24,63.16,63.12,63.08,63.03,62.97,62.93,62.91,62.90,62.89,62.89,62.86,62.80,62.73,62.70,62.67,62.63,62.60,62.58,62.50,62.43,62.38,62.32,62.29,62.27,62.27,62.27,62.27
65.75,65.68,65.62,65.61,65.71,65.73,65.64,65.53,65.48,65.57,65.68,65.74,65.76,65.78,65.72,65.68,65.69,65.77,65.74,65.71,65.68,65.65,65.53,65.43,65.42,65.48,65.56,65.63,65.62,65.61,65.63,65.71,65.73,65.71,65.66,65.59,65.59,65.65,65.71,65.72,65.82,65.96,66.01,65.97,65.95,65.91,65.82,65.70,65.66,66.01,66.01,65.86,65.94,67.38,68.97,70.27,71.18,71.66,72.07,72.30,72.43,72.53,72.58,72.79,72.90,72.85,72.75,72.75,72.67,72.59,72.63,72.63,72.50,72.15,71.56,70.66,69.76,68.89,67.96,66.78,66.39,66.05,65.82,65.73,65.69,65.67,65.66,65.67,65.69,65.64,65.57,65.53,65.57,65.82,66.26,66.80,67.25,66.78,65.70,64.90,64.56,64.67,64.38,64.16,64.05,64.09,64.16,64.07,63.91,63.68,63.37,62.62,62.18,62.02,61.99,62.10,62.43,62.57,62.41,62.49,62.66,62.83,62.91,62.75,62.53,62.56,62.70,62.80,62.71,62.63,62.68,62.89,63.19,63.13,63.14,63.17,63.03,63.13,63.33,63.42,63.32,63.27,63.20,63.10,63.03,63.11,63.11,62.76,62.30,62.00,61.83,61.74,61.72,61.75,61.79,61.61,61.18,60.73,60.56,60.50,60.43,60.39,60.36,60.29,60.20,60.09,59.97,59.82,59.74,59.57,59.34,59.07,e,e,e,e,e,e,e,e,e,e,e,e,e,e,e,e,e,e,e,e,e,e,e,60.22,60.68,61.60,62.21,62.46,62.56,62.59,62.60,62.60,62.60,62.61,62.63,62.71,62.77,62.84,63.03,63.61,64.58,65.45,66.05,66.20,65.59,64.95,64.43,64.08,63.73,63.55,63.47,63.44,63.40,63.37,63.33,63.30,63.25,63.18,63.14,63.09,63.05,63.01,62.95,62.91,62.88,62.87,62.87,62.84,62.79,62.73,62.68,62.66,62.63,62.58,62.54,62.49,62.42,62.35,62.29,62.24,62.22,62.22,62.22,62.22
65.92,65.83,65.70,65.59,65.58,65.57,65.56,65.54,65.53,65.60,65.70,65.76,65.78,65.79,65.73,65.67,65.65,65.67,65.66,65.67,65.66,65.62,65.46,65.41,65.45,65.52,65.59,65.66,65.63,65.57,65.56,65.70,65.73,65.72,65.68,65.64,65.64,65.67,65.73,65.80,65.89,65.97,65.93,65.81,65.75,65.69,65.81,66.08,66.46,67.14,67.57,67.20,66.34,67.25,69.56,71.24,72.08,72.33,72.48,72.56,72.64,72.75,72.73,72.82,72.85,72.79,72.67,72.68,72.63,72.50,72.34,72.05,71.56,70.85,69.95,68.99,67.89,67.11,66.53,65.80,65.67,65.62,65.66,65.78,65.84,65.78,65.74,65.74,65.71,65.67,65.60,65.53,65.47,65.54,65.89,66.44,67.01,67.18,66.48,65.58,64.85,64.70,64.43,64.22,64.12,64.14,64.10,64.14,64.07,63.88,63.73,63.09,62.38,61.85,61.77,62.13,62.42,62.49,62.36,62.47,62.60,62.67,62.68,62.67,62.37,62.35,62.47,62.60,62.74,62.79,62.87,63.00,63.06,63.03,63.04,63.06,62.99,63.07,63.30,63.42,63.32,63.23,63.22,63.18,63.16,63.32,63.35,63.12,62.74,62.35,62.05,61.89,61.87,61.94,61.98,61.96,61.61,61.13,60.80,60.59,60.45,60.36,60.32,60.28,60.25,60.19,60.10,59.98,59.83,59.67,59.47,59.24,e,e,e,e,e,e,e,e,e,e,e,e,e,e,e,e,e,e,e,e,e,e,e,59.84,60.22,60.75,61.55,62.09,62.42,62.56,62.57,62.57,62.58,62.59,62.61,62.65,62.72,62.77,62.85,63.15,63.94,64.84,65.65,66.17,65.93,65.35,64.76,64.30,63.95,63.72,63.57,63.48,63.41,63.38,63.35,63.31,63.27,63.22,63.17,63.12,63.08,63.05,62.98,62.91,62.86,62.84,62.84,62.82,62.79,62.73,62.67,62.63,62.59,62.55,62.51,62.47,62.39,62.31,62.25,62.22,62.20,62.20,62.20,62.20
66.07,66.02,65.87,65.66,65.46,65.38,65.48,65.60,65.65,65.65,65.73,65.78,65.79,65.75,65.71,65.66,65.63,65.61,65.61,65.64,65.65,65.60,65.43,65.43,65.50,65.58,65.61,65.70,65.65,65.56,65.53,65.73,65.75,65.73,65.70,65.70,65.70,65.70,65.76,65.90,65.97,65.94,65.80,65.61,65.57,65.55,66.02,66.85,67.86,68.81,69.78,69.14,66.94,66.60,69.54,71.65,72.48,72.59,72.63,72.68,72.80,72.99,72.93,72.76,72.64,72.61,72.62,72.60,72.54,72.34,71.86,71.06,70.09,69.01,67.91,67.18,65.99,65.46,65.50,65.54,65.54,65.62,65.79,66.02,66.10,65.93,65.82,65.80,65.74,65.71,65.66,65.57,65.43,65.41,65.71,66.07,66.42,67.20,67.21,66.49,65.38,64.55,64.37,64.30,64.26,64.19,63.99,64.15,64.16,63.97,63.97,63.73,62.88,61.96,61.72,62.21,62.37,62.34,62.30,62.54,62.65,62.56,62.43,62.55,62.29,62.17,62.20,62.38,62.79,62.98,63.10,63.12,62.87,62.93,62.96,62.96,62.97,62.97,63.17,63.31,63.25,63.15,63.23,63.28,63.35,63.60,63.56,63.47,63.24,62.77,62.35,62.11,62.05,62.10,62.01,62.11,61.98,61.63,61.19,60.78,60.50,60.34,60.26,60.25,60.26,60.25,60.20,60.12,59.96,59.81,59.66,59.48,59.27,e,e,e,e,e,e,e,e,e,e,e,e,e,e,e,e,e,e,e,e,e,e,e,e,59.89,60.70,61.56,62.19,62.51,62.55,62.55,62.56,62.58,62.60,62.60,62.65,62.71,62.77,62.83,63.35,64.18,65.12,65.93,66.17,65.79,65.16,64.54,64.20,63.95,63.73,63.55,63.43,63.40,63.37,63.33,63.30,63.25,63.20,63.16,63.12,63.08,63.00,62.91,62.83,62.80,62.80,62.80,62.78,62.72,62.65,62.58,62.54,62.50,62.50,62.45,62.37,62.28,62.22,62.20,62.20,62.20,62.20,62.20
