78.39,78.37,78.36,78.29,78.13,77.87,77.78,77.78,77.82,77.85,77.99,78.12,78.22,78.30,78.35,78.37,78.36,78.32,78.18,78.06,77.92,77.76,77.53,77.30,77.29,77.45,77.71,77.76,77.63,77.49,77.37,77.26,77.15,77.02,76.89,76.79,76.79,76.78,76.77,76.76,76.76,76.76,76.75,76.71,76.64,76.56,76.61,76.76,76.96,77.06,77.11,77.16,77.30,77.74,78.19,78.47,78.59,78.64,78.68,78.71,78.74,78.76,78.78,78.76,78.69,78.58,78.52,78.42,78.40,78.47,78.60,78.70,78.66,78.56,78.47,78.48,78.52,78.54,78.54,78.51,78.60,78.66,78.69,78.71,78.75,78.66,78.53,78.39,78.33,78.22,78.10,77.92,77.66,77.34,77.17,77.16,77.26,77.31,77.30,77.21,77.15,77.23,77.33,77.42,77.28,76.62,74.24,73.28,72.91,72.82,72.77,72.60,72.37,72.18,72.13,72.13,72.17,72.22,72.28,72.32,72.21,72.06,71.93,71.90,71.98,72.02,72.14,72.37,72.50,72.68,73.80,75.85,77.98,75.76,73.59,72.37,72.61,73.39,74.24,75.04,75.61,75.48,75.06,74.89,75.03,75.33,75.53,75.58,75.56,75.55,75.54,75.48,75.42,75.40,75.45,75.50,75.56,75.73,76.11,76.46,76.52,76.50,76.51,76.55,76.69,76.91,77.17,77.36,77.49,77.55,77.55,77.50,77.50,77.51,77.54,77.56,77.51,77.50,77.51,77.50,77.47,77.39,77.33,77.30,77.30,77.27,77.24,77.26,77.31,77.39,77.58,77.73,77.80,77.80,77.77,77.64,77.44,77.20,76.93,76.59,76.49,76.64,76.96,77.42,77.47,77.42,77.44,77.46,77.42,77.38,77.36,77.34,77.32,77.26,77.20,77.20,77.20,77.20,77.18,77.16,77.14,77.18,77.17,77.14,77.10,77.10,77.05,76.94,76.79,76.63,76.57,76.57,76.59,76.56,76.45,76.39,76.38,76.41,76.45,76.51,76.57,76.59,76.55,76.51,76.47,76.44,76.41,76.48,76.58,76.66,76.69,76.68,76.45,76.23,76.13,76.28
78.41,78.39,78.35,78.22,77.99,77.71,77.61,77.62,77.67,77.73,77.89,78.03,78.14,78.23,78.27,78.27,78.23,78.16,78.06,77.95,77.81,77.61,77.35,77.12,77.05,77.13,77.28,77.36,77.36,77.33,77.31,77.25,77.16,77.01,76.84,76.71,76.73,76.75,76.76,76.75,76.79,76.81,76.79,76.70,76.56,76.56,76.67,76.82,76.94,77.02,77.05,77.08,77.16,77.42,77.89,78.31,78.59,78.68,78.69,78.68,78.66,78.64,78.64,78.63,78.56,78.46,78.44,78.38,78.37,78.42,78.49,78.57,78.54,78.47,78.40,78.42,78.45,78.46,78.48,78.54,78.59,78.63,78.64,78.65,78.67,78.54,78.38,78.23,78.16,78.03,77.84,77.59,77.30,77.09,77.00,77.00,77.04,77.07,77.06,77.03,77.03,77.15,77.20,77.10,76.59,75.47,73.60,73.08,72.94,72.85,72.74,72.54,72.34,72.18,72.11,72.16,72.19,72.23,72.28,72.26,72.16,72.03,71.91,71.90,71.93,71.95,72.04,72.24,72.47,72.73,73.85,75.82,77.85,74.57,72.66,72.14,72.24,72.70,73.23,73.85,74.47,74.72,74.68,74.72,74.85,74.94,75.11,75.20,75.27,75.34,75.38,75.36,75.34,75.34,75.39,75.36,75.44,75.70,76.16,76.44,76.51,76.50,76.50,76.53,76.67,76.96,77.27,77.39,77.47,77.51,77.51,77.49,77.49,77.50,77.53,77.55,77.51,77.52,77.51,77.46,77.40,77.34,77.30,77.26,77.23,77.22,77.22,77.25,77.31,77.38,77.55,77.67,77.74,77.75,77.76,77.69,77.57,77.42,77.22,76.85,76.60,76.55,76.74,77.06,77.22,77.34,77.44,77.46,77.43,77.41,77.39,77.37,77.37,77.33,77.29,77.25,77.22,77.20,77.18,77.17,77.16,77.16,77.15,77.13,77.11,77.09,77.03,76.95,76.84,76.74,76.70,76.71,76.73,76.68,76.59,76.54,76.52,76.53,76.57,76.62,76.64,76.62,76.58,76.55,76.51,76.48,76.46,76.52,76.58,76.62,76.64,76.64,76.56,76.47,76.40,76.43
78.41,78.39,78.32,78.15,77.87,77.56,77.44,77.44,77.51,77.61,77.79,77.94,78.05,78.13,78.18,78.16,78.09,78.00,77.94,77.85,77.69,77.47,77.20,76.97,76.87,76.88,76.94,77.00,77.06,77.15,77.23,77.21,77.12,76.96,76.78,76.65,76.67,76.71,76.74,76.74,76.81,76.82,76.77,76.65,76.49,76.57,76.73,76.87,76.93,76.97,76.99,77.00,77.03,77.14,77.61,78.09,78.45,78.57,78.54,78.50,78.48,78.49,78.50,78.50,78.44,78.37,78.36,78.32,78.33,78.37,78.41,78.46,78.43,78.39,78.35,78.39,78.40,78.40,78.43,78.54,78.55,78.56,78.56,78.55,78.57,78.44,78.26,78.09,77.97,77.81,77.57,77.28,76.99,76.90,76.89,76.89,76.89,76.88,76.87,76.84,76.82,76.90,76.85,76.59,75.84,74.49,73.15,72.92,72.91,72.83,72.69,72.47,72.28,72.16,72.10,72.17,72.19,72.21,72.24,72.18,72.12,72.01,71.90,71.90,71.90,71.88,71.93,72.12,72.41,72.96,74.35,76.33,77.81,73.90,72.13,71.99,72.00,72.19,72.47,72.89,73.45,73.97,74.21,74.32,74.35,74.39,74.68,74.89,75.05,75.19,75.25,75.25,75.25,75.26,75.30,75.24,75.35,75.68,76.21,76.44,76.50,76.50,76.50,76.52,76.67,76.99,77.33,77.40,77.43,77.44,77.45,77.46,77.45,77.45,77.47,77.49,77.48,77.50,77.47,77.41,77.34,77.28,77.25,77.21,77.17,77.17,77.20,77.24,77.31,77.40,77.54,77.63,77.69,77.72,77.77,77.73,77.68,77.61,77.47,77.10,76.75,76.53,76.56,76.76,77.01,77.25,77.44,77.47,77.46,77.45,77.43,77.40,77.41,77.39,77.36,77.31,77.26,77.23,77.21,77.20,77.20,77.16,77.15,77.15,77.13,77.10,77.04,76.98,76.92,76.84,76.81,76.81,76.83,76.76,76.68,76.65,76.63,76.61,76.64,76.67,76.68,76.64,76.60,76.58,76.55,76.52,76.51,76.55,76.58,76.59,76.59,76.59,76.60,76.59,76.54,76.48
78.37,78.37,78.29,78.09,77.76,77.43,77.28,77.27,77.35,77.49,77.68,77.83,77.93,78.01,78.04,78.02,77.96,77.88,77.84,77.75,77.58,77.34,77.08,76.88,76.79,76.78,76.77,76.70,76.75,76.92,77.14,77.14,76.99,76.82,76.68,76.61,76.61,76.65,76.69,76.71,76.77,76.73,76.62,76.50,76.42,76.60,76.80,76.93,76.93,76.92,76.92,76.92,76.93,77.00,77.39,77.77,78.06,78.23,78.11,78.04,78.10,78.32,78.40,78.37,78.34,78.30,78.25,78.23,78.25,78.31,78.38,78.35,78.33,78.34,78.38,78.39,78.39,78.36,78.36,78.47,78.45,78.44,78.41,78.37,78.42,78.36,78.21,78.00,77.78,77.55,77.28,77.00,76.78,76.80,76.85,76.86,76.82,76.76,76.73,76.63,76.48,76.37,76.13,75.75,75.02,73.87,73.00,72.81,72.79,72.74,72.60,72.39,72.21,72.10,72.10,72.17,72.17,72.15,72.11,72.10,72.09,72.00,71.90,71.90,71.89,71.81,71.83,72.05,72.29,73.50,75.61,77.80,77.96,74.21,72.34,71.96,71.92,71.97,72.14,72.38,72.68,73.22,73.56,73.48,73.29,73.56,74.22,74.69,74.97,75.10,75.15,75.15,75.12,75.10,75.14,75.15,75.30,75.66,76.25,76.45,76.50,76.50,76.50,76.52,76.68,77.00,77.32,77.34,77.33,77.33,77.35,77.38,77.36,77.34,77.34,77.36,77.39,77.39,77.38,77.35,77.28,77.22,77.18,77.15,77.11,77.13,77.16,77.22,77.31,77.47,77.58,77.63,77.66,77.69,77.80,77.79,77.75,77.72,77.65,77.33,76.92,76.57,76.46,76.56,76.85,77.19,77.45,77.49,77.50,77.51,77.51,77.47,77.44,77.42,77.41,77.39,77.34,77.31,77.29,77.28,77.25,77.22,77.22,77.22,77.19,77.15,77.11,77.06,77.02,76.95,76.88,76.87,76.87,76.78,76.70,76.67,76.65,76.62,76.62,76.65,76.67,76.64,76.60,76.60,76.58,76.56,76.54,76.57,76.57,76.57,76.57,76.57,76.55,76.50,76.46,76.39
78.33,78.33,78.24,78.03,77.71,77.41,77.28,77.26,77.35,77.48,77.65,77.77,77.84,77.88,77.89,77.87,77.82,77.75,77.73,77.70,77.58,77.34,76.98,76.76,76.70,76.71,76.73,76.68,76.69,76.83,77.05,77.05,76.90,76.74,76.63,76.61,76.64,76.66,76.68,76.72,76.75,76.66,76.53,76.43,76.46,76.65,76.82,76.91,76.91,76.91,76.91,76.90,76.90,76.95,77.16,77.39,77.59,77.75,77.68,77.70,77.83,78.05,78.17,78.20,78.19,78.16,78.11,78.12,78.16,78.22,78.31,78.27,78.27,78.30,78.33,78.32,78.29,78.29,78.33,78.43,78.44,78.42,78.39,78.36,78.39,78.31,78.13,77.88,77.61,77.33,77.04,76.80,76.70,76.76,76.78,76.75,76.64,76.39,76.03,75.66,75.35,75.17,74.94,74.60,74.03,73.23,72.78,72.67,72.64,72.59,72.48,72.31,72.17,72.09,72.10,72.12,72.10,72.07,72.04,72.02,72.02,71.96,71.88,71.88,71.85,71.77,71.81,72.07,72.28,73.26,75.59,78.23,78.01,74.01,72.16,71.91,71.90,71.93,72.02,72.11,72.22,72.55,72.78,72.78,72.72,72.97,73.68,74.31,74.77,75.02,75.04,74.99,74.96,74.97,75.00,75.02,75.14,75.42,75.94,76.24,76.41,76.48,76.49,76.53,76.71,76.99,77.25,77.26,77.29,77.32,77.34,77.34,77.29,77.29,77.29,77.30,77.33,77.33,77.33,77.31,77.27,77.20,77.15,77.12,77.10,77.11,77.13,77.19,77.29,77.47,77.56,77.60,77.63,77.70,77.78,77.77,77.74,77.71,77.69,77.49,77.14,76.75,76.47,76.47,76.71,77.06,77.40,77.47,77.49,77.49,77.48,77.45,77.44,77.44,77.43,77.41,77.38,77.36,77.35,77.32,77.28,77.26,77.26,77.26,77.23,77.19,77.17,77.14,77.10,77.00,76.92,76.88,76.86,76.78,76.70,76.66,76.63,76.61,76.61,76.64,76.66,76.64,76.60,76.60,76.60,76.58,76.55,76.54,76.52,76.51,76.53,76.52,76.47,76.40,76.34,76.25
78.31,78.29,78.17,77.96,77.68,77.45,77.33,77.32,77.39,77.50,77.63,77.72,77.75,77.74,77.74,77.72,77.67,77.61,77.62,77.65,77.59,77.38,76.92,76.66,76.60,76.65,76.71,76.70,76.68,76.76,76.93,76.95,76.82,76.68,76.59,76.64,76.69,76.68,76.69,76.73,76.72,76.61,76.47,76.40,76.53,76.72,76.84,76.88,76.88,76.91,76.91,76.90,76.89,76.93,76.96,77.04,77.16,77.27,77.29,77.42,77.58,77.76,77.92,78.00,78.02,77.99,77.96,78.01,78.06,78.13,78.23,78.21,78.23,78.25,78.26,78.24,78.20,78.23,78.32,78.38,78.43,78.43,78.41,78.40,78.40,78.26,78.03,77.74,77.42,77.11,76.82,76.64,76.64,76.69,76.65,76.54,76.33,75.88,75.19,74.58,74.13,73.89,73.73,73.48,73.12,72.67,72.58,72.53,72.49,72.43,72.36,72.25,72.15,72.09,72.10,72.07,72.03,72.00,71.99,71.96,71.95,71.91,71.86,71.86,71.82,71.75,71.82,72.11,72.28,72.82,75.21,78.34,78.03,73.71,71.91,71.87,71.90,71.94,71.97,71.96,71.93,71.99,72.10,72.22,72.34,72.51,73.12,73.83,74.48,74.93,74.90,74.82,74.79,74.85,74.88,74.90,74.95,75.13,75.50,75.91,76.20,76.37,76.43,76.53,76.74,76.99,77.18,77.18,77.27,77.33,77.34,77.30,77.22,77.25,77.26,77.25,77.29,77.29,77.29,77.28,77.26,77.19,77.13,77.10,77.10,77.11,77.11,77.16,77.27,77.46,77.51,77.54,77.60,77.69,77.74,77.73,77.70,77.67,77.69,77.61,77.35,76.96,76.53,76.41,76.56,76.88,77.26,77.42,77.46,77.44,77.41,77.40,77.43,77.44,77.44,77.42,77.40,77.40,77.39,77.35,77.30,77.29,77.30,77.29,77.26,77.21,77.21,77.20,77.15,77.02,76.93,76.88,76.84,76.77,76.68,76.63,76.61,76.60,76.60,76.62,76.64,76.63,76.60,76.60,76.60,76.59,76.56,76.51,76.46,76.44,76.47,76.46,76.39,76.32,76.23,76.13
78.34,78.24,78.08,77.89,77.71,77.58,77.48,77.43,77.46,77.53,77.59,77.61,77.58,77.55,77.57,77.57,77.55,77.52,77.53,77.58,77.58,77.43,76.95,76.64,76.53,76.54,76.58,76.58,76.57,76.62,76.72,76.75,76.72,76.65,76.60,76.66,76.70,76.71,76.71,76.70,76.68,76.57,76.46,76.45,76.62,76.80,76.89,76.89,76.84,76.82,76.84,76.86,76.86,76.87,76.90,76.94,76.98,77.01,77.06,77.19,77.36,77.55,77.71,77.78,77.80,77.79,77.80,77.89,77.99,78.09,78.17,78.17,78.17,78.19,78.21,78.24,78.23,78.26,78.31,78.35,78.37,78.41,78.42,78.41,78.40,78.18,77.87,77.51,77.17,76.85,76.66,76.56,76.53,76.42,76.23,75.94,75.55,75.09,74.48,73.97,73.55,73.19,73.05,72.93,72.78,72.58,72.53,72.47,72.41,72.36,72.32,72.23,72.16,72.12,72.10,72.07,72.03,72.00,71.99,71.92,71.92,71.89,71.87,71.87,71.85,71.75,71.80,72.13,72.20,72.48,74.93,78.39,78.08,73.65,71.84,71.84,71.91,71.97,71.96,71.95,71.94,71.90,72.01,72.12,72.20,72.28,72.64,73.17,73.93,74.84,74.74,74.63,74.63,74.73,74.79,74.83,74.85,74.91,75.05,75.25,75.55,75.88,76.18,76.46,76.74,77.00,77.18,77.19,77.24,77.29,77.29,77.23,77.16,77.16,77.17,77.18,77.24,77.24,77.24,77.24,77.22,77.18,77.13,77.10,77.12,77.15,77.16,77.20,77.28,77.43,77.47,77.46,77.49,77.62,77.70,77.70,77.66,77.62,77.63,77.60,77.44,77.09,76.57,76.30,76.33,76.52,76.79,77.26,77.39,77.40,77.35,77.32,77.39,77.41,77.41,77.40,77.40,77.40,77.39,77.35,77.30,77.32,77.33,77.32,77.26,77.21,77.19,77.15,77.08,76.96,76.89,76.86,76.83,76.73,76.65,76.61,76.60,76.60,76.57,76.55,76.55,76.58,76.60,76.60,76.60,76.60,76.59,76.54,76.48,76.44,76.42,76.42,76.37,76.31,76.23,76.15
78.35,78.16,77.96,77.80,77.69,77.58,77.49,77.46,77.48,77.50,77.51,77.49,77.45,77.43,77.45,77.45,77.43,77.43,77.49,77.54,77.55,77.42,76.96,76.64,76.51,76.50,76.52,76.52,76.52,76.55,76.61,76.64,76.63,76.61,76.62,76.70,76.72,76.72,76.71,76.66,76.63,76.53,76.48,76.53,76.72,76.85,76.90,76.87,76.80,76.76,76.77,76.80,76.82,76.83,76.85,76.87,76.87,76.87,76.91,77.02,77.17,77.35,77.52,77.60,77.61,77.58,77.58,77.70,77.86,78.00,78.07,78.07,78.06,78.07,78.11,78.14,78.16,78.19,78.24,78.29,78.32,78.37,78.40,78.38,78.35,78.11,77.73,77.27,76.89,76.60,76.47,76.39,76.23,75.94,75.61,75.19,74.71,74.28,73.83,73.48,73.18,72.84,72.74,72.69,72.65,72.59,72.54,72.47,72.41,72.35,72.33,72.24,72.18,72.14,72.10,72.08,72.03,72.00,71.99,71.94,71.93,71.92,71.91,71.91,71.93,71.77,71.76,72.06,72.07,72.26,74.77,78.41,78.08,73.61,71.83,71.86,71.91,71.98,71.93,71.90,71.92,71.81,71.91,72.00,72.06,72.09,72.28,72.61,73.27,74.24,74.45,74.48,74.51,74.61,74.73,74.79,74.81,74.81,74.83,74.88,75.08,75.36,75.72,76.17,76.55,76.92,77.18,77.18,77.18,77.20,77.20,77.16,77.11,77.08,77.06,77.05,77.07,77.10,77.16,77.20,77.19,77.18,77.15,77.14,77.15,77.18,77.19,77.22,77.28,77.36,77.42,77.40,77.42,77.52,77.63,77.64,77.62,77.58,77.57,77.57,77.50,77.28,76.82,76.39,76.28,76.34,76.50,76.99,77.24,77.30,77.26,77.30,77.37,77.40,77.40,77.40,77.39,77.37,77.35,77.33,77.30,77.31,77.32,77.31,77.26,77.21,77.17,77.12,77.03,76.92,76.88,76.86,76.82,76.70,76.62,76.60,76.61,76.62,76.61,76.60,76.61,76.64,76.66,76.64,76.62,76.60,76.58,76.54,76.49,76.44,76.40,76.38,76.35,76.31,76.26,76.18
78.36,78.05,77.83,77.70,77.63,77.47,77.42,77.43,77.47,77.44,77.41,77.37,77.35,77.37,77.37,77.34,77.32,77.34,77.47,77.54,77.52,77.35,76.96,76.66,76.52,76.50,76.52,76.50,76.50,76.53,76.59,76.59,76.54,76.56,76.64,76.75,76.74,76.72,76.68,76.62,76.57,76.49,76.50,76.62,76.81,76.88,76.87,76.83,76.76,76.72,76.72,76.73,76.76,76.79,76.81,76.83,76.83,76.83,76.83,76.88,76.99,77.16,77.36,77.47,77.45,77.35,77.32,77.47,77.67,77.85,77.94,77.95,77.92,77.92,77.96,77.97,78.01,78.07,78.13,78.21,78.27,78.32,78.34,78.32,78.27,78.05,77.60,77.02,76.58,76.35,76.27,76.14,75.80,75.30,74.83,74.33,73.83,73.46,73.22,73.08,72.96,72.73,72.69,72.68,72.68,72.66,72.60,72.53,72.45,72.39,72.39,72.26,72.20,72.17,72.10,72.10,72.04,72.00,72.00,71.99,71.99,71.99,71.99,71.99,72.05,71.82,71.70,71.92,71.92,72.12,74.70,78.41,78.05,73.59,71.84,71.89,71.91,71.97,71.89,71.84,71.87,71.73,71.78,71.86,71.91,71.92,72.00,72.14,72.52,73.27,74.07,74.34,74.42,74.48,74.69,74.77,74.80,74.80,74.78,74.72,74.72,74.84,75.12,75.72,76.23,76.77,77.18,77.17,77.10,77.08,77.08,77.08,77.07,77.01,76.93,76.86,76.82,76.90,77.05,77.17,77.17,77.17,77.18,77.19,77.20,77.20,77.22,77.25,77.27,77.26,77.36,77.38,77.37,77.39,77.55,77.58,77.57,77.55,77.51,77.51,77.55,77.50,77.23,76.63,76.35,76.27,76.34,76.65,77.03,77.17,77.16,77.32,77.37,77.40,77.40,77.40,77.37,77.32,77.29,77.28,77.28,77.29,77.29,77.28,77.25,77.20,77.16,77.09,76.99,76.91,76.90,76.87,76.80,76.68,76.61,76.61,76.63,76.67,76.69,76.73,76.77,76.79,76.76,76.70,76.64,76.60,76.55,76.50,76.47,76.44,76.40,76.34,76.32,76.31,76.30,76.23
78.27,77.95,77.75,77.64,77.58,77.46,77.41,77.41,77.43,77.39,77.32,77.28,77.29,77.36,77.36,77.32,77.27,77.28,77.43,77.50,77.44,77.25,76.92,76.69,76.58,76.56,76.56,76.56,76.63,76.76,76.87,76.85,76.73,76.66,76.64,76.71,76.74,76.75,76.73,76.68,76.64,76.56,76.58,76.72,76.86,76.89,76.87,76.81,76.74,76.71,76.71,76.70,76.69,76.72,76.74,76.77,76.80,76.81,76.85,76.88,76.94,77.00,77.08,77.13,77.14,77.12,77.08,77.23,77.36,77.42,77.37,77.63,77.72,77.73,77.74,77.74,77.79,77.88,77.98,78.07,78.14,78.18,78.19,78.18,78.16,78.05,77.64,76.99,76.38,76.13,75.98,75.75,75.28,74.70,74.20,73.78,73.45,73.30,73.13,73.01,72.91,72.78,72.72,72.70,72.69,72.68,72.66,72.59,72.51,72.46,72.45,72.32,72.21,72.13,72.10,72.10,72.08,72.04,72.00,72.00,72.00,72.00,71.98,71.93,71.90,71.75,71.71,71.91,71.89,72.08,74.68,78.45,78.13,73.58,71.75,71.78,71.79,71.82,71.78,71.77,71.81,71.76,71.78,71.81,71.85,71.89,71.93,72.04,72.32,72.85,73.82,74.17,74.31,74.41,74.62,74.74,74.80,74.81,74.78,74.74,74.72,74.74,74.82,75.11,75.54,76.02,76.45,76.60,76.53,76.55,76.63,76.71,76.75,76.75,76.75,76.75,76.63,76.53,76.58,76.71,76.77,76.81,76.93,77.06,77.15,77.19,77.21,77.23,77.26,77.30,77.36,77.35,77.34,77.35,77.44,77.47,77.49,77.50,77.46,77.44,77.46,77.45,77.34,76.95,76.61,76.35,76.23,76.41,76.77,77.04,77.20,77.31,77.34,77.37,77.39,77.40,77.37,77.31,77.27,77.25,77.24,77.25,77.25,77.24,77.21,77.16,77.11,77.04,76.95,76.91,76.90,76.89,76.86,76.82,76.79,76.79,76.80,76.81,76.79,76.79,76.80,76.81,76.78,76.72,76.65,76.59,76.55,76.49,76.44,76.40,76.39,76.38,76.38,76.36,76.31,76.23
78.15,77.86,77.71,77.64,77.60,77.50,77.44,77.41,77.39,77.35,77.27,77.24,77.27,77.35,77.34,77.29,77.25,77.26,77.42,77.50,77.43,77.21,76.90,76.71,76.62,76.59,76.60,76.61,76.76,76.96,77.13,77.08,76.88,76.73,76.65,76.68,76.74,76.77,76.78,76.75,76.71,76.63,76.67,76.81,76.89,76.90,76.85,76.78,76.71,76.70,76.69,76.66,76.64,76.68,76.71,76.76,76.80,76.82,76.85,76.88,76.90,76.91,76.90,76.90,76.92,76.95,76.92,77.01,77.04,76.97,76.81,77.28,77.48,77.53,77.52,77.51,77.58,77.69,77.82,77.94,78.02,78.05,78.06,78.06,78.07,78.04,77.62,76.88,76.18,75.88,75.68,75.39,74.85,74.26,73.77,73.41,73.21,73.18,73.07,72.97,72.89,72.81,72.73,72.70,72.69,72.67,72.67,72.59,72.52,72.47,72.45,72.35,72.23,72.13,72.10,72.10,72.10,72.08,72.03,72.01,72.00,72.00,71.96,71.87,71.80,71.71,71.76,72.03,71.99,72.19,74.78,78.48,78.04,73.52,71.70,71.71,71.74,71.74,71.73,71.74,71.77,71.75,71.75,71.76,71.79,71.86,71.87,71.95,72.17,72.63,73.69,74.05,74.20,74.33,74.55,74.71,74.80,74.83,74.79,74.77,74.75,74.72,74.68,74.73,74.99,75.36,75.74,76.01,75.97,76.05,76.18,76.30,76.39,76.46,76.55,76.62,76.50,76.25,76.17,76.24,76.34,76.41,76.61,76.83,77.00,77.12,77.16,77.20,77.24,77.30,77.34,77.33,77.32,77.32,77.36,77.39,77.42,77.45,77.42,77.38,77.39,77.41,77.41,77.19,76.85,76.48,76.19,76.25,76.53,76.88,77.18,77.29,77.31,77.34,77.38,77.40,77.38,77.33,77.29,77.25,77.24,77.22,77.21,77.20,77.16,77.13,77.07,76.99,76.91,76.89,76.90,76.90,76.90,76.91,76.91,76.90,76.90,76.90,76.87,76.84,76.83,76.82,76.79,76.73,76.65,76.60,76.57,76.50,76.42,76.38,76.39,76.41,76.43,76.40,76.33,76.25
78.00,77.78,77.72,77.73,77.72,77.64,77.54,77.44,77.35,77.31,77.27,77.27,77.31,77.34,77.31,77.28,77.27,77.32,77.48,77.56,77.49,77.28,76.93,76.72,76.63,76.61,76.61,76.65,76.85,77.12,77.33,77.24,76.97,76.76,76.66,76.69,76.73,76.77,76.81,76.84,76.79,76.73,76.77,76.89,76.91,76.90,76.83,76.74,76.65,76.67,76.65,76.63,76.62,76.68,76.75,76.81,76.85,76.87,76.84,76.85,76.88,76.90,76.85,76.83,76.84,76.88,76.89,76.83,76.69,76.48,76.29,76.88,77.18,77.29,77.29,77.29,77.40,77.51,77.64,77.86,77.93,77.96,77.97,77.97,77.98,78.02,77.53,76.62,75.96,75.58,75.35,75.07,74.57,74.07,73.63,73.32,73.19,73.13,73.05,72.97,72.89,72.81,72.73,72.70,72.68,72.62,72.61,72.50,72.42,72.40,72.36,72.32,72.25,72.17,72.10,72.10,72.10,72.10,72.08,72.04,72.01,71.98,71.93,71.81,71.76,71.72,71.90,72.34,72.29,72.54,75.06,78.51,77.68,73.41,71.70,71.72,71.79,71.79,71.76,71.74,71.74,71.68,71.67,71.69,71.74,71.81,71.81,71.86,72.12,72.75,73.75,74.01,74.09,74.22,74.48,74.67,74.81,74.86,74.81,74.83,74.83,74.80,74.75,74.69,74.68,74.83,75.10,75.38,75.44,75.59,75.74,75.84,75.98,76.12,76.31,76.49,76.45,76.12,75.86,75.76,75.86,75.97,76.20,76.46,76.71,76.93,77.07,77.17,77.22,77.27,77.30,77.32,77.33,77.32,77.35,77.36,77.38,77.40,77.38,77.34,77.35,77.39,77.42,77.31,77.05,76.68,76.29,76.21,76.35,76.68,77.08,77.29,77.30,77.32,77.36,77.40,77.40,77.38,77.34,77.29,77.28,77.23,77.18,77.15,77.13,77.09,77.03,76.95,76.88,76.87,76.89,76.90,76.90,76.93,76.93,76.92,76.90,76.90,76.89,76.86,76.85,76.84,76.82,76.72,76.65,76.62,76.61,76.52,76.44,76.40,76.41,76.45,76.46,76.42,76.36,76.31
78.01,77.80,77.74,77.76,77.79,77.72,77.59,77.47,77.39,77.37,77.33,77.31,77.32,77.32,77.31,77.27,77.28,77.35,77.50,77.59,77.54,77.35,77.01,76.80,76.70,76.68,76.68,76.75,76.96,77.22,77.42,77.29,77.00,76.85,76.84,76.94,76.98,76.98,76.95,76.92,76.86,76.82,76.85,76.90,76.89,76.85,76.79,76.72,76.67,76.67,76.65,76.64,76.66,76.72,76.77,76.81,76.83,76.82,76.80,76.81,76.84,76.87,76.83,76.80,76.80,76.82,76.82,76.66,76.41,76.11,75.87,76.22,76.55,76.76,76.84,76.93,77.01,77.11,77.29,77.64,77.74,77.80,77.83,77.85,77.88,77.91,77.52,76.79,76.16,75.58,75.21,74.91,74.48,73.94,73.55,73.28,73.12,73.06,73.00,72.95,72.89,72.81,72.73,72.72,72.70,72.63,72.61,72.50,72.43,72.42,72.37,72.34,72.25,72.16,72.13,72.15,72.14,72.12,72.09,72.05,72.01,71.98,71.93,71.83,71.78,71.75,71.88,72.23,72.30,72.47,74.99,78.47,77.40,73.34,71.73,71.75,71.80,71.80,71.76,71.72,71.70,71.64,71.63,71.65,71.70,71.79,71.78,71.85,72.26,73.14,73.77,73.93,74.03,74.21,74.47,74.66,74.79,74.85,74.81,74.82,74.83,74.83,74.80,74.77,74.68,74.67,74.75,74.92,75.00,75.15,75.32,75.46,75.62,75.83,76.08,76.32,76.38,76.05,75.71,75.47,75.45,75.71,76.00,76.30,76.58,76.84,77.04,77.15,77.21,77.25,77.31,77.33,77.33,77.34,77.34,77.36,77.38,77.38,77.33,77.28,77.28,77.31,77.34,77.29,77.12,76.82,76.44,76.17,76.18,76.39,76.76,77.15,77.28,77.34,77.37,77.40,77.39,77.37,77.35,77.32,77.30,77.23,77.14,77.07,77.04,77.01,76.97,76.93,76.88,76.88,76.89,76.90,76.90,76.91,76.92,76.90,76.87,76.85,76.85,76.84,76.82,76.82,76.79,76.67,76.59,76.57,76.58,76.54,76.50,76.47,76.48,76.52,76.51,76.46,76.40,76.34
78.06,77.84,77.77,77.79,77.84,77.78,77.64,77.52,77.46,77.45,77.41,77.37,77.34,77.32,77.31,77.29,77.30,77.38,77.53,77.63,77.60,77.44,77.14,76.92,76.83,76.79,76.76,76.85,77.06,77.30,77.47,77.32,77.03,76.94,77.05,77.24,77.28,77.22,77.11,76.99,76.93,76.91,76.90,76.89,76.85,76.80,76.74,76.70,76.69,76.67,76.65,76.66,76.69,76.76,76.79,76.79,76.79,76.76,76.75,76.77,76.80,76.83,76.81,76.78,76.77,76.78,76.77,76.53,76.17,75.80,75.53,75.61,75.91,76.16,76.31,76.49,76.52,76.61,76.85,77.32,77.45,77.56,77.64,77.69,77.75,77.76,77.54,77.06,76.46,75.64,75.11,74.76,74.42,73.85,73.49,73.25,73.06,72.98,72.95,72.92,72.88,72.81,72.73,72.73,72.72,72.67,72.62,72.53,72.46,72.44,72.39,72.36,72.25,72.16,72.20,72.23,72.21,72.17,72.12,72.08,72.05,72.01,71.97,71.89,71.83,71.79,71.86,72.06,72.25,72.55,75.07,78.41,77.07,73.27,71.77,71.79,71.81,71.79,71.75,71.70,71.64,71.59,71.59,71.61,71.67,71.78,71.75,71.87,72.43,73.52,73.77,73.85,73.99,74.23,74.49,74.65,74.76,74.82,74.80,74.80,74.82,74.84,74.85,74.86,74.77,74.65,74.56,74.61,74.63,74.74,74.91,75.09,75.29,75.56,75.86,76.12,76.27,75.97,75.58,75.25,75.13,75.53,75.90,76.24,76.55,76.82,77.03,77.16,77.22,77.26,77.34,77.35,77.35,77.38,77.36,77.37,77.38,77.36,77.29,77.24,77.22,77.23,77.26,77.25,77.15,76.95,76.64,76.20,76.04,76.10,76.38,76.88,77.19,77.34,77.38,77.38,77.35,77.33,77.32,77.31,77.27,77.19,77.09,76.99,76.95,76.92,76.91,76.91,76.90,76.89,76.90,76.90,76.90,76.90,76.89,76.87,76.83,76.79,76.79,76.79,76.79,76.79,76.76,76.62,76.54,76.53,76.56,76.55,76.55,76.55,76.56,76.59,76.56,76.51,76.43,76.36
78.14,77.90,77.82,77.82,77.85,77.80,77.71,77.63,77.57,77.54,77.49,77.45,77.41,77.39,77.36,77.34,77.36,77.45,77.63,77.74,77.74,77.61,77.34,77.17,77.05,76.95,76.84,76.93,77.15,77.37,77.49,77.32,77.05,77.05,77.24,77.50,77.49,77.38,77.23,77.08,76.97,76.94,76.91,76.87,76.82,76.74,76.69,76.66,76.65,76.63,76.63,76.65,76.69,76.76,76.77,76.76,76.75,76.72,76.72,76.75,76.79,76.81,76.77,76.74,76.75,76.77,76.74,76.47,76.03,75.60,75.38,75.41,75.49,75.60,75.71,75.85,75.85,75.99,76.30,76.75,76.88,77.09,77.29,77.43,77.53,77.59,77.55,77.32,76.73,75.67,74.93,74.52,74.35,73.82,73.48,73.24,73.02,72.85,72.85,72.85,72.83,72.80,72.73,72.72,72.73,72.74,72.68,72.56,72.47,72.42,72.35,72.30,72.23,72.22,72.37,72.39,72.35,72.30,72.28,72.26,72.21,72.16,72.10,72.02,71.90,71.86,71.92,72.09,72.27,73.58,76.08,78.33,76.52,73.11,71.82,71.86,71.86,71.76,71.71,71.65,71.54,71.48,71.52,71.57,71.64,71.73,71.73,71.92,72.54,73.61,73.77,73.83,73.99,74.28,74.55,74.63,74.73,74.81,74.80,74.81,74.85,74.88,74.88,74.89,74.85,74.78,74.71,74.69,74.52,74.47,74.56,74.75,75.03,75.32,75.59,75.84,76.04,75.81,75.42,75.08,75.02,75.52,75.99,76.41,76.73,76.96,77.12,77.20,77.24,77.31,77.37,77.40,77.42,77.46,77.42,77.36,77.32,77.31,77.28,77.23,77.22,77.24,77.28,77.26,77.21,77.10,76.91,76.45,76.05,75.90,76.00,76.28,76.88,77.23,77.33,77.28,77.24,77.21,77.20,77.18,77.13,77.08,77.01,76.91,76.85,76.86,76.88,76.90,76.90,76.90,76.90,76.90,76.89,76.89,76.86,76.80,76.72,76.68,76.71,76.73,76.76,76.78,76.72,76.61,76.57,76.57,76.60,76.57,76.55,76.56,76.58,76.60,76.59,76.54,76.46,76.36
78.19,77.98,77.89,77.87,77.86,77.83,77.78,77.72,77.67,77.63,77.58,77.55,77.53,77.52,77.46,77.44,77.49,77.60,77.75,77.84,77.83,77.73,77.53,77.40,77.25,77.10,76.95,77.05,77.26,77.44,77.51,77.34,77.14,77.14,77.31,77.52,77.53,77.44,77.29,77.13,77.02,76.98,76.93,76.86,76.78,76.71,76.67,76.65,76.63,76.61,76.61,76.64,76.69,76.76,76.76,76.73,76.69,76.67,76.67,76.70,76.75,76.79,76.75,76.72,76.72,76.74,76.72,76.37,75.89,75.49,75.36,75.34,75.31,75.33,75.41,75.52,75.52,75.62,75.82,76.06,76.20,76.48,76.77,76.99,77.24,77.39,77.44,77.28,76.62,75.46,74.69,74.32,74.24,73.86,73.55,73.26,73.01,72.79,72.79,72.81,72.81,72.80,72.73,72.71,72.71,72.70,72.63,72.51,72.40,72.33,72.28,72.24,72.26,72.38,72.60,72.54,72.51,72.50,72.52,72.48,72.42,72.34,72.24,72.16,72.02,71.95,71.98,72.11,72.25,74.57,77.06,78.19,75.68,72.86,71.83,71.86,71.88,71.78,71.72,71.65,71.55,71.51,71.54,71.58,71.63,71.70,71.75,72.19,72.88,73.63,73.72,73.83,74.07,74.42,74.64,74.66,74.73,74.80,74.80,74.80,74.85,74.89,74.89,74.89,74.84,74.81,74.79,74.78,74.57,74.43,74.40,74.51,74.73,74.98,75.24,75.49,75.66,75.46,75.15,74.91,74.92,75.50,76.02,76.45,76.78,76.99,77.14,77.22,77.27,77.34,77.41,77.44,77.46,77.48,77.43,77.36,77.32,77.32,77.29,77.27,77.25,77.24,77.25,77.24,77.20,77.15,77.06,76.79,76.37,76.03,75.87,75.99,76.54,76.98,77.21,77.18,77.09,77.03,77.02,77.01,76.97,76.95,76.91,76.87,76.84,76.84,76.86,76.88,76.90,76.90,76.90,76.89,76.87,76.86,76.82,76.75,76.68,76.64,76.66,76.69,76.73,76.77,76.71,76.65,76.62,76.63,76.63,76.59,76.58,76.58,76.60,76.61,76.61,76.56,76.48,76.38
78.22,78.07,77.98,77.93,77.89,77.88,77.84,77.80,77.76,77.73,77.68,77.67,77.68,77.68,77.59,77.58,77.65,77.79,77.89,77.92,77.89,77.81,77.71,77.60,77.43,77.24,77.09,77.20,77.39,77.51,77.51,77.37,77.25,77.23,77.30,77.40,77.46,77.42,77.31,77.16,77.09,77.04,76.96,76.84,76.74,76.70,76.69,76.67,76.63,76.61,76.60,76.63,76.68,76.76,76.74,76.69,76.63,76.61,76.61,76.65,76.71,76.77,76.73,76.71,76.70,76.71,76.70,76.24,75.75,75.43,75.43,75.36,75.27,75.25,75.30,75.37,75.39,75.41,75.40,75.32,75.46,75.79,76.14,76.43,76.90,77.16,77.24,77.03,76.26,75.09,74.41,74.14,74.10,73.95,73.65,73.31,73.01,72.77,72.78,72.80,72.80,72.80,72.73,72.70,72.67,72.60,72.52,72.39,72.28,72.21,72.20,72.20,72.34,72.59,72.87,72.68,72.68,72.75,72.81,72.73,72.66,72.54,72.40,72.31,72.16,72.06,72.04,72.12,72.23,75.52,77.99,78.01,74.66,72.56,71.81,71.82,71.89,71.83,71.76,71.69,71.62,71.62,71.62,71.62,71.64,71.70,71.81,72.60,73.37,73.59,73.62,73.83,74.20,74.61,74.77,74.73,74.75,74.79,74.80,74.80,74.85,74.89,74.90,74.86,74.77,74.77,74.84,74.87,74.73,74.54,74.38,74.34,74.41,74.59,74.84,75.08,75.19,75.00,74.81,74.73,74.84,75.48,76.00,76.41,76.74,76.94,77.12,77.23,77.29,77.37,77.46,77.48,77.48,77.46,77.40,77.36,77.36,77.36,77.32,77.33,77.29,77.22,77.18,77.19,77.17,77.14,77.13,77.17,76.88,76.38,75.91,75.90,76.17,76.65,77.03,77.08,76.91,76.82,76.80,76.83,76.80,76.80,76.82,76.85,76.89,76.85,76.84,76.86,76.90,76.90,76.90,76.88,76.85,76.80,76.76,76.71,76.66,76.64,76.64,76.66,76.70,76.75,76.72,76.70,76.70,76.70,76.65,76.63,76.62,76.61,76.61,76.63,76.63,76.58,76.50,76.41
78.48,78.35,78.22,78.10,78.02,78.01,77.96,77.90,77.85,77.81,77.77,77.75,77.76,77.76,77.72,77.72,77.76,77.83,77.89,77.89,77.85,77.80,77.77,77.70,77.58,77.44,77.32,77.43,77.55,77.62,77.57,77.39,77.30,77.31,77.36,77.40,77.39,77.36,77.29,77.20,77.13,77.06,76.96,76.84,76.74,76.74,76.75,76.76,76.77,76.68,76.62,76.60,76.62,76.65,76.64,76.62,76.58,76.54,76.55,76.59,76.62,76.65,76.64,76.66,76.65,76.63,76.61,76.30,75.83,75.45,75.38,75.29,75.20,75.15,75.17,75.27,75.35,75.39,75.37,75.26,75.27,75.36,75.47,75.58,75.86,76.09,76.18,76.09,75.73,74.74,74.20,74.01,73.94,73.84,73.59,73.30,73.03,72.88,72.86,72.84,72.80,72.79,72.74,72.67,72.63,72.62,72.51,72.44,72.38,72.31,72.27,72.23,72.43,72.73,72.95,72.92,72.99,73.06,73.09,72.98,72.87,72.73,72.58,72.45,72.29,72.19,72.22,72.39,72.55,75.18,77.53,77.84,73.73,72.34,71.86,71.85,71.92,71.99,71.92,71.81,71.72,71.73,71.72,71.68,71.67,71.76,71.99,72.78,73.46,73.57,73.65,74.06,74.48,74.75,74.73,74.71,74.72,74.75,74.77,74.77,74.82,74.87,74.89,74.83,74.80,74.83,74.88,74.88,74.82,74.74,74.62,74.47,74.42,74.43,74.54,74.71,74.75,74.62,74.52,74.53,74.70,75.33,75.81,76.22,76.60,76.89,77.07,77.19,77.26,77.34,77.41,77.42,77.43,77.45,77.40,77.39,77.38,77.36,77.31,77.30,77.25,77.18,77.14,77.15,77.13,77.12,77.13,77.16,76.98,76.57,76.10,75.88,76.02,76.36,76.71,76.90,76.71,76.67,76.73,76.83,76.84,76.84,76.85,76.86,76.86,76.81,76.81,76.84,76.88,76.90,76.90,76.89,76.86,76.82,76.78,76.73,76.69,76.66,76.67,76.70,76.73,76.77,76.76,76.74,76.72,76.69,76.65,76.66,76.65,76.62,76.56,76.55,76.58,76.56,76.49,76.38
78.68,78.57,78.41,78.25,78.14,78.11,78.03,77.94,77.86,77.82,77.79,77.77,77.77,77.78,77.78,77.79,77.81,77.84,77.87,77.86,77.84,77.81,77.80,77.76,77.70,77.62,77.56,77.63,77.68,77.68,77.61,77.44,77.39,77.41,77.44,77.44,77.38,77.33,77.28,77.23,77.13,77.05,76.95,76.84,76.75,76.77,76.79,76.81,76.82,76.70,76.59,76.55,76.55,76.55,76.51,76.48,76.44,76.39,76.40,76.42,76.45,76.47,76.46,76.49,76.48,76.43,76.38,76.17,75.76,75.40,75.31,75.21,75.10,75.03,75.03,75.15,75.27,75.31,75.26,75.13,75.04,74.96,74.90,74.88,74.97,75.12,75.20,75.18,75.07,74.38,74.01,73.87,73.77,73.69,73.50,73.27,73.04,72.96,72.92,72.87,72.82,72.80,72.78,72.73,72.70,72.71,72.57,72.57,72.56,72.49,72.44,72.38,72.61,72.93,73.06,73.12,73.21,73.26,73.25,73.14,73.02,72.88,72.75,72.64,72.49,72.41,72.49,72.75,72.94,75.47,77.68,77.83,73.55,72.43,72.05,72.05,72.24,72.33,72.16,71.94,71.80,71.79,71.76,71.74,71.79,71.97,72.32,73.00,73.52,73.55,73.64,74.15,74.59,74.78,74.69,74.68,74.69,74.70,74.73,74.76,74.81,74.86,74.87,74.81,74.80,74.83,74.86,74.85,74.83,74.83,74.77,74.60,74.48,74.37,74.36,74.42,74.42,74.34,74.31,74.38,74.57,75.15,75.56,75.94,76.37,76.75,77.01,77.15,77.21,77.28,77.33,77.36,77.38,77.41,77.40,77.39,77.37,77.35,77.30,77.27,77.22,77.16,77.12,77.13,77.11,77.10,77.11,77.13,77.03,76.71,76.27,75.90,75.91,76.08,76.35,76.63,76.53,76.56,76.68,76.82,76.85,76.87,76.87,76.87,76.85,76.80,76.80,76.83,76.87,76.90,76.90,76.89,76.88,76.85,76.82,76.77,76.72,76.68,76.70,76.73,76.76,76.78,76.78,76.75,76.71,76.67,76.64,76.67,76.68,76.64,76.55,76.51,76.54,76.54,76.48,76.39
78.83,78.70,78.55,78.39,78.25,78.15,78.03,77.89,77.77,77.73,77.71,77.69,77.69,77.72,77.75,77.78,77.80,77.82,77.83,77.85,77.86,77.83,77.79,77.78,77.79,77.80,77.80,77.79,77.75,77.69,77.62,77.54,77.51,77.52,77.53,77.53,77.45,77.36,77.28,77.22,77.10,77.02,76.93,76.84,76.75,76.78,76.79,76.78,76.75,76.63,76.50,76.44,76.45,76.45,76.35,76.26,76.19,76.13,76.10,76.12,76.16,76.19,76.18,76.19,76.15,76.07,75.98,75.77,75.49,75.27,75.22,75.10,74.98,74.89,74.88,74.99,75.13,75.14,75.04,74.90,74.75,74.59,74.46,74.37,74.26,74.28,74.31,74.33,74.26,74.00,73.83,73.71,73.58,73.52,73.36,73.20,73.06,73.01,72.94,72.88,72.84,72.83,72.86,72.91,72.93,72.90,72.76,72.82,72.84,72.79,72.75,72.68,72.92,73.21,73.22,73.27,73.31,73.31,73.25,73.17,73.08,72.98,72.90,72.91,72.76,72.74,72.90,73.24,73.43,76.62,78.64,78.03,74.41,72.95,72.42,72.50,72.92,72.92,72.53,72.10,71.85,71.76,71.73,71.79,72.00,72.39,72.86,73.30,73.55,73.54,73.60,74.04,74.45,74.68,74.65,74.65,74.65,74.65,74.67,74.77,74.82,74.84,74.83,74.80,74.76,74.76,74.78,74.77,74.73,74.78,74.81,74.75,74.62,74.46,74.33,74.27,74.23,74.18,74.19,74.28,74.48,74.90,75.23,75.57,76.01,76.51,76.92,77.11,77.12,77.17,77.24,77.29,77.33,77.36,77.38,77.36,77.33,77.32,77.29,77.24,77.20,77.16,77.12,77.14,77.11,77.07,77.06,77.08,77.01,76.77,76.40,75.97,75.84,75.84,75.97,76.24,76.39,76.50,76.65,76.82,76.85,76.88,76.90,76.89,76.88,76.84,76.82,76.82,76.85,76.89,76.90,76.90,76.90,76.88,76.87,76.83,76.76,76.69,76.73,76.76,76.79,76.79,76.77,76.73,76.69,76.65,76.61,76.65,76.68,76.67,76.61,76.54,76.52,76.51,76.49,76.43
78.83,78.68,78.51,78.35,78.21,78.09,77.95,77.81,77.70,77.67,77.66,77.64,77.63,77.66,77.69,77.70,77.71,77.73,77.75,77.79,77.79,77.75,77.69,77.70,77.71,77.73,77.75,77.74,77.72,77.67,77.61,77.58,77.58,77.56,77.54,77.52,77.43,77.33,77.25,77.19,77.08,77.00,76.92,76.85,76.77,76.77,76.75,76.71,76.64,76.51,76.39,76.32,76.30,76.28,76.18,76.09,76.01,75.93,75.88,75.88,75.88,75.86,75.82,75.78,75.73,75.65,75.56,75.42,75.26,75.14,75.09,74.95,74.86,74.79,74.75,74.78,74.84,74.79,74.66,74.53,74.43,74.31,74.19,74.12,74.01,73.95,73.93,73.91,73.85,73.72,73.62,73.53,73.41,73.35,73.24,73.14,73.08,73.02,72.96,72.93,72.92,72.95,72.98,73.02,73.06,73.05,72.93,72.98,73.02,73.01,72.98,72.96,73.11,73.26,73.23,73.26,73.28,73.28,73.24,73.22,73.18,73.10,73.04,73.07,73.01,73.02,73.13,73.35,73.46,75.44,76.63,76.17,74.04,73.23,72.96,73.04,73.34,73.34,73.00,72.60,72.31,72.28,72.32,72.42,72.63,72.98,73.29,73.51,73.60,73.56,73.56,73.84,74.14,74.32,74.32,74.35,74.42,74.47,74.45,74.51,74.54,74.57,74.60,74.60,74.53,74.50,74.51,74.53,74.49,74.53,74.58,74.56,74.52,74.41,74.29,74.21,74.14,74.10,74.11,74.19,74.32,74.63,74.88,75.15,75.49,75.90,76.22,76.41,76.51,76.62,76.76,76.88,76.99,77.12,77.24,77.30,77.31,77.31,77.29,77.27,77.25,77.22,77.16,77.04,76.93,76.89,76.94,76.95,76.85,76.63,76.32,75.93,75.81,75.76,75.82,76.01,76.25,76.44,76.62,76.78,76.84,76.88,76.90,76.90,76.90,76.88,76.86,76.86,76.87,76.90,76.90,76.90,76.90,76.90,76.89,76.86,76.80,76.73,76.74,76.77,76.79,76.77,76.73,76.72,76.69,76.67,76.66,76.68,76.67,76.65,76.62,76.60,76.58,76.57,76.54,76.48
78.83,78.65,78.48,78.31,78.17,78.05,77.91,77.79,77.70,77.66,77.66,77.64,77.63,77.63,77.65,77.65,77.65,77.67,77.71,77.74,77.73,77.68,77.62,77.64,77.64,77.65,77.68,77.69,77.69,77.67,77.62,77.61,77.62,77.58,77.53,77.49,77.40,77.30,77.22,77.15,77.07,76.98,76.91,76.86,76.79,76.74,76.69,76.63,76.54,76.41,76.31,76.23,76.16,76.13,76.04,75.96,75.88,75.79,75.73,75.69,75.64,75.58,75.50,75.42,75.36,75.31,75.22,75.13,75.07,75.02,74.97,74.83,74.76,74.70,74.63,74.59,74.57,74.47,74.33,74.22,74.18,74.10,74.02,73.96,73.87,73.79,73.72,73.65,73.57,73.52,73.46,73.38,73.29,73.22,73.14,73.10,73.09,73.03,73.00,72.99,73.00,73.07,73.07,73.10,73.13,73.15,73.07,73.10,73.15,73.17,73.15,73.16,73.22,73.26,73.21,73.23,73.25,73.25,73.24,73.27,73.26,73.22,73.18,73.19,73.22,73.25,73.30,73.38,73.41,74.06,74.45,74.29,73.55,73.42,73.41,73.48,73.60,73.61,73.40,73.11,72.85,72.87,72.97,73.09,73.24,73.50,73.62,73.67,73.66,73.59,73.55,73.68,73.84,73.96,73.96,74.03,74.15,74.24,74.21,74.24,74.26,74.31,74.37,74.41,74.32,74.27,74.28,74.31,74.26,74.28,74.32,74.32,74.37,74.32,74.24,74.17,74.09,74.02,74.04,74.11,74.19,74.40,74.57,74.77,75.01,75.29,75.47,75.64,75.81,75.97,76.15,76.33,76.52,76.74,76.93,77.05,77.12,77.15,77.17,77.18,77.18,77.15,77.08,76.85,76.69,76.65,76.74,76.75,76.63,76.45,76.21,75.92,75.82,75.75,75.74,75.84,76.10,76.37,76.60,76.76,76.84,76.88,76.90,76.90,76.90,76.90,76.89,76.90,76.91,76.91,76.90,76.90,76.90,76.90,76.90,76.88,76.83,76.77,76.76,76.78,76.79,76.75,76.71,76.71,76.71,76.70,76.70,76.69,76.67,76.64,76.62,76.64,76.64,76.61,76.57,76.50
78.88,78.71,78.53,78.37,78.24,78.11,78.05,78.00,77.91,77.79,77.82,77.83,77.78,77.68,77.70,77.72,77.72,77.73,77.77,77.79,77.77,77.72,77.71,77.70,77.69,77.69,77.74,77.76,77.76,77.72,77.65,77.62,77.61,77.58,77.52,77.45,77.37,77.29,77.21,77.14,77.06,76.98,76.92,76.87,76.78,76.66,76.61,76.58,76.52,76.42,76.32,76.20,76.09,76.05,76.01,75.94,75.85,75.79,75.73,75.65,75.56,75.48,75.40,75.32,75.27,75.23,75.16,75.05,74.98,74.93,74.87,74.81,74.72,74.64,74.56,74.52,74.48,74.40,74.29,74.16,74.13,74.06,73.99,73.92,73.84,73.76,73.69,73.61,73.49,73.49,73.42,73.33,73.28,73.17,73.08,73.06,73.09,73.07,73.07,73.06,73.07,73.09,73.09,73.10,73.11,73.12,73.09,73.14,73.18,73.18,73.12,73.17,73.20,73.22,73.20,73.26,73.28,73.29,73.29,73.29,73.29,73.28,73.27,73.27,73.33,73.36,73.37,73.39,73.40,73.62,73.75,73.71,73.51,73.48,73.48,73.50,73.53,73.53,73.48,73.42,73.39,73.34,73.41,73.47,73.53,73.65,73.69,73.70,73.69,73.67,73.66,73.69,73.73,73.75,73.72,73.79,73.87,73.95,74.00,74.07,74.17,74.26,74.33,74.34,74.31,74.30,74.28,74.23,74.21,74.17,74.13,74.11,74.21,74.22,74.19,74.14,74.04,73.92,73.95,74.09,74.21,74.34,74.44,74.56,74.71,74.92,75.03,75.10,75.19,75.30,75.44,75.60,75.79,76.01,76.14,76.24,76.35,76.49,76.63,76.69,76.67,76.61,76.56,76.43,76.37,76.36,76.37,76.35,76.32,76.27,76.19,76.05,75.93,75.82,75.75,75.74,75.96,76.32,76.61,76.79,76.88,76.89,76.89,76.89,76.90,76.88,76.87,76.89,76.93,76.94,76.92,76.90,76.90,76.90,76.89,76.88,76.84,76.80,76.78,76.80,76.80,76.76,76.74,76.74,76.72,76.68,76.68,76.66,76.65,76.64,76.64,76.64,76.62,76.58,76.51,76.42
79.11,78.95,78.79,78.66,78.58,78.59,78.65,78.66,78.60,78.47,78.49,78.41,78.22,77.97,77.90,77.85,77.82,77.82,77.90,77.98,77.98,77.93,77.91,77.92,77.91,77.91,77.95,77.98,77.96,77.89,77.81,77.83,77.91,77.90,77.80,77.60,77.47,77.41,77.35,77.29,77.21,77.15,77.10,77.06,77.01,76.88,76.80,76.74,76.71,76.64,76.53,76.41,76.29,76.19,76.17,76.12,76.03,75.92,75.83,75.75,75.67,75.60,75.54,75.50,75.44,75.37,75.22,75.09,75.01,74.95,74.88,74.83,74.78,74.70,74.60,74.55,74.49,74.40,74.29,74.18,74.15,74.08,74.01,73.94,73.85,73.74,73.66,73.59,73.49,73.49,73.42,73.32,73.26,73.13,73.08,73.08,73.11,73.11,73.10,73.10,73.11,73.11,73.10,73.10,73.11,73.12,73.11,73.14,73.15,73.14,73.15,73.16,73.17,73.18,73.20,73.31,73.38,73.41,73.40,73.32,73.36,73.38,73.38,73.38,73.43,73.47,73.47,73.44,73.41,73.65,73.77,73.71,73.53,73.49,73.50,73.53,73.54,73.57,73.57,73.57,73.58,73.55,73.62,73.67,73.72,73.78,73.77,73.74,73.72,73.71,73.68,73.69,73.70,73.70,73.70,73.77,73.82,73.87,73.95,74.05,74.15,74.24,74.33,74.35,74.37,74.37,74.34,74.25,74.23,74.18,74.13,74.10,74.16,74.20,74.17,74.06,73.92,73.80,73.85,74.02,74.22,74.34,74.44,74.56,74.72,74.88,74.97,75.05,75.14,75.26,75.41,75.53,75.66,75.79,75.84,75.90,76.01,76.17,76.32,76.37,76.36,76.32,76.29,76.26,76.25,76.25,76.24,76.23,76.25,76.27,76.26,76.20,76.08,75.93,75.77,75.65,75.78,76.14,76.51,76.79,76.86,76.86,76.85,76.85,76.88,76.87,76.85,76.86,76.90,76.92,76.90,76.88,76.88,76.89,76.88,76.85,76.80,76.76,76.75,76.75,76.75,76.73,76.75,76.74,76.71,76.67,76.67,76.66,76.64,76.63,76.64,76.62,76.60,76.56,76.50,76.40
79.42,79.29,79.17,79.08,79.07,79.30,79.49,79.56,79.52,79.43,79.40,79.19,78.82,78.39,78.19,78.03,77.94,77.93,78.09,78.26,78.31,78.26,78.20,78.23,78.24,78.24,78.25,78.28,78.23,78.13,78.06,78.15,78.36,78.40,78.23,77.84,77.65,77.60,77.59,77.55,77.47,77.43,77.39,77.35,77.37,77.27,77.14,77.05,77.02,76.98,76.87,76.75,76.63,76.45,76.44,76.42,76.32,76.12,75.99,75.94,75.90,75.85,75.82,75.81,75.76,75.62,75.37,75.21,75.11,75.04,74.96,74.89,74.90,74.84,74.70,74.64,74.56,74.44,74.31,74.23,74.21,74.13,74.04,73.99,73.87,73.71,73.62,73.60,73.55,73.52,73.43,73.32,73.21,73.09,73.09,73.13,73.15,73.14,73.13,73.13,73.13,73.12,73.10,73.10,73.11,73.13,73.13,73.13,73.11,73.10,73.20,73.17,73.15,73.17,73.23,73.40,73.56,73.64,73.61,73.40,73.49,73.56,73.56,73.56,73.56,73.61,73.62,73.50,73.44,73.99,74.28,74.10,73.61,73.50,73.52,73.58,73.62,73.69,73.68,73.64,73.60,73.62,73.70,73.78,73.85,73.90,73.87,73.81,73.75,73.72,73.68,73.69,73.71,73.73,73.81,73.88,73.89,73.91,74.00,74.11,74.17,74.24,74.35,74.40,74.45,74.47,74.43,74.34,74.32,74.28,74.24,74.21,74.19,74.24,74.17,73.95,73.74,73.67,73.75,73.95,74.23,74.40,74.53,74.69,74.92,75.04,75.15,75.28,75.44,75.61,75.77,75.85,75.87,75.87,75.84,75.84,75.92,76.05,76.14,76.16,76.17,76.18,76.18,76.24,76.25,76.25,76.25,76.26,76.31,76.36,76.39,76.37,76.26,76.06,75.81,75.57,75.58,75.89,76.34,76.76,76.81,76.81,76.80,76.80,76.85,76.85,76.84,76.83,76.84,76.87,76.86,76.85,76.85,76.86,76.86,76.81,76.74,76.70,76.70,76.68,76.67,76.68,76.74,76.73,76.69,76.65,76.68,76.67,76.64,76.62,76.62,76.60,76.58,76.55,76.50,76.43
79.86,79.76,79.66,79.60,79.64,79.83,79.90,79.89,79.85,79.79,79.73,79.55,79.27,78.94,78.69,78.45,78.30,78.32,78.60,78.83,78.89,78.81,78.69,78.67,78.66,78.66,78.67,78.65,78.56,78.47,78.43,78.64,78.84,78.81,78.54,78.10,77.89,77.90,78.02,78.14,78.09,77.98,77.86,77.76,77.70,77.65,77.61,77.60,77.61,77.56,77.43,77.25,77.03,76.83,76.73,76.66,76.57,76.36,76.25,76.20,76.14,76.04,75.97,75.91,75.86,75.79,75.65,75.49,75.38,75.30,75.23,75.19,75.15,75.07,74.93,74.81,74.64,74.45,74.30,74.26,74.24,74.19,74.12,74.03,73.92,73.71,73.61,73.62,73.62,73.57,73.48,73.36,73.24,73.17,73.20,73.25,73.30,73.31,73.28,73.26,73.25,73.19,73.10,73.10,73.16,73.25,73.25,73.29,73.33,73.36,73.40,73.41,73.42,73.54,73.84,74.32,74.78,75.05,75.03,74.52,74.63,74.72,74.74,74.76,74.75,74.69,74.36,73.66,73.51,75.32,76.36,75.86,74.20,73.90,73.87,73.94,74.06,74.13,74.05,73.98,73.98,73.91,73.84,73.85,73.91,73.93,73.94,73.92,73.87,73.83,73.80,73.82,73.84,73.85,73.87,73.92,73.94,73.97,74.05,74.14,74.19,74.25,74.35,74.45,74.57,74.62,74.61,74.55,74.55,74.54,74.53,74.53,74.50,74.51,74.31,73.89,73.50,73.48,73.68,74.08,74.64,74.84,74.97,75.18,75.51,75.66,75.79,75.91,76.07,76.28,76.30,76.26,76.18,76.09,76.02,76.00,76.07,76.19,76.26,76.27,76.28,76.31,76.36,76.47,76.50,76.49,76.46,76.41,76.42,76.49,76.57,76.57,76.47,76.27,75.99,75.65,75.48,75.60,75.93,76.38,76.75,76.78,76.76,76.75,76.77,76.77,76.77,76.78,76.81,76.82,76.82,76.80,76.77,76.75,76.79,76.78,76.74,76.70,76.66,76.60,76.57,76.59,76.64,76.65,76.63,76.60,76.59,76.59,76.58,76.56,76.55,76.55,76.54,76.52,76.49,76.44
80.23,80.15,80.07,80.05,80.10,80.24,80.24,80.19,80.13,80.08,79.99,79.84,79.64,79.43,79.22,79.01,78.87,78.89,79.17,79.39,79.43,79.32,79.18,79.10,79.06,79.06,79.07,79.00,78.91,78.81,78.78,79.00,79.16,79.06,78.74,78.28,78.10,78.16,78.32,78.49,78.46,78.31,78.16,78.04,77.94,77.91,77.93,77.96,78.00,77.98,77.85,77.62,77.33,77.12,76.95,76.84,76.73,76.54,76.43,76.38,76.31,76.19,76.07,75.98,75.92,75.87,75.81,75.66,75.55,75.47,75.41,75.37,75.32,75.23,75.09,74.92,74.69,74.48,74.32,74.30,74.29,74.25,74.18,74.07,73.95,73.72,73.60,73.62,73.64,73.59,73.50,73.40,73.28,73.23,73.25,73.32,73.40,73.45,73.43,73.41,73.36,73.24,73.14,73.15,73.25,73.39,73.40,73.49,73.60,73.68,73.70,73.74,73.84,74.10,74.58,75.16,75.77,76.15,76.15,75.65,75.73,75.82,75.84,75.86,75.82,75.54,74.84,73.79,73.99,76.51,77.95,77.32,74.87,74.43,74.35,74.40,74.49,74.49,74.36,74.28,74.29,74.17,74.02,73.97,74.01,74.00,74.00,73.99,73.96,73.91,73.90,73.95,73.99,73.99,73.98,74.01,74.03,74.07,74.14,74.21,74.27,74.33,74.41,74.53,74.67,74.74,74.73,74.70,74.73,74.75,74.75,74.73,74.70,74.65,74.33,73.77,73.26,73.30,73.67,74.30,75.09,75.31,75.43,75.63,75.97,76.12,76.24,76.36,76.51,76.73,76.68,76.58,76.44,76.30,76.22,76.18,76.23,76.34,76.40,76.41,76.43,76.49,76.58,76.68,76.72,76.71,76.65,76.55,76.53,76.60,76.70,76.71,76.64,76.50,76.25,75.89,75.56,75.47,75.63,76.01,76.54,76.70,76.73,76.71,76.72,76.71,76.71,76.73,76.77,76.78,76.79,76.77,76.72,76.67,76.72,76.75,76.74,76.68,76.61,76.54,76.50,76.51,76.53,76.56,76.56,76.55,76.54,76.54,76.52,76.50,76.49,76.50,76.49,76.48,76.46,76.43
80.52,80.42,80.39,80.39,80.42,80.51,80.51,80.45,80.34,80.27,80.17,80.05,79.93,79.85,79.80,79.74,79.69,79.68,79.81,79.92,79.90,79.79,79.64,79.50,79.44,79.43,79.44,79.34,79.25,79.15,79.08,79.19,79.29,79.13,78.78,78.38,78.30,78.36,78.47,78.55,78.51,78.38,78.25,78.15,78.07,78.04,78.05,78.08,78.14,78.21,78.08,77.82,77.51,77.28,77.09,76.92,76.77,76.64,76.49,76.45,76.41,76.30,76.13,76.00,75.91,75.85,75.81,75.70,75.61,75.54,75.50,75.44,75.39,75.30,75.17,74.98,74.74,74.52,74.38,74.35,74.35,74.31,74.23,74.11,73.97,73.74,73.61,73.60,73.60,73.55,73.50,73.43,73.32,73.24,73.25,73.33,73.44,73.55,73.58,73.56,73.47,73.29,73.23,73.26,73.37,73.54,73.59,73.75,73.93,74.06,74.12,74.19,74.45,74.89,75.48,75.91,76.49,76.87,76.91,76.79,76.81,76.84,76.85,76.83,76.76,76.11,75.02,73.89,74.97,77.51,78.96,78.41,75.65,75.11,74.98,74.98,74.92,74.75,74.61,74.54,74.54,74.41,74.24,74.15,74.13,74.12,74.03,74.03,74.02,73.93,73.97,74.09,74.16,74.15,74.14,74.14,74.19,74.24,74.27,74.35,74.41,74.48,74.56,74.65,74.75,74.79,74.79,74.78,74.85,74.90,74.88,74.79,74.78,74.65,74.22,73.56,73.04,73.16,73.74,74.63,75.62,75.82,75.91,76.04,76.27,76.37,76.47,76.59,76.74,76.90,76.90,76.80,76.65,76.50,76.43,76.39,76.42,76.50,76.55,76.58,76.64,76.73,76.83,76.86,76.88,76.89,76.84,76.67,76.64,76.70,76.79,76.79,76.77,76.73,76.60,76.33,75.84,75.52,75.44,75.64,76.15,76.55,76.70,76.70,76.70,76.67,76.66,76.67,76.71,76.74,76.78,76.77,76.70,76.61,76.67,76.72,76.73,76.66,76.55,76.48,76.46,76.46,76.42,76.45,76.48,76.51,76.50,76.50,76.48,76.44,76.41,76.44,76.45,76.43,76.41,76.40
80.64,80.55,80.53,80.54,80.55,80.60,80.60,80.54,80.44,80.38,80.30,80.20,80.11,80.06,80.08,80.12,80.17,80.20,80.19,80.17,80.12,80.01,79.84,79.69,79.64,79.64,79.64,79.54,79.44,79.33,79.26,79.33,79.37,79.21,78.89,78.54,78.49,78.52,78.55,78.56,78.54,78.44,78.34,78.26,78.19,78.16,78.18,78.22,78.29,78.33,78.18,77.94,77.67,77.45,77.24,77.08,76.98,76.89,76.75,76.72,76.68,76.56,76.40,76.29,76.15,75.96,75.80,75.68,75.59,75.51,75.46,75.43,75.42,75.37,75.23,75.01,74.78,74.59,74.45,74.39,74.38,74.36,74.28,74.16,74.01,73.78,73.65,73.63,73.64,73.61,73.59,73.52,73.38,73.26,73.28,73.38,73.50,73.55,73.59,73.59,73.54,73.44,73.42,73.41,73.48,73.65,73.97,74.19,74.33,74.41,74.48,74.55,74.87,75.37,75.94,76.35,76.77,77.03,77.06,77.03,77.07,77.08,77.04,76.99,76.91,76.52,75.68,74.67,76.18,78.14,79.15,78.62,76.19,75.61,75.41,75.34,75.29,74.92,74.69,74.59,74.59,74.52,74.37,74.27,74.21,74.17,74.16,74.20,74.16,73.97,74.04,74.10,74.14,74.15,74.18,74.22,74.29,74.36,74.40,74.44,74.47,74.51,74.56,74.68,74.76,74.80,74.81,74.83,74.80,74.80,74.79,74.75,74.73,74.61,74.26,73.69,73.00,73.19,73.93,74.93,75.82,76.05,76.13,76.21,76.35,76.50,76.58,76.65,76.72,76.87,76.90,76.86,76.77,76.67,76.60,76.56,76.58,76.67,76.76,76.83,76.93,77.02,77.06,76.98,76.95,76.92,76.87,76.74,76.70,76.74,76.80,76.80,76.81,76.83,76.79,76.60,76.09,75.63,75.38,75.42,75.79,76.30,76.59,76.69,76.72,76.71,76.69,76.68,76.70,76.73,76.78,76.78,76.74,76.70,76.73,76.76,76.75,76.68,76.58,76.53,76.50,76.48,76.46,76.47,76.50,76.53,76.55,76.53,76.49,76.44,76.39,76.37,76.37,76.37,76.37,76.36
80.72,80.65,80.66,80.67,80.65,80.67,80.66,80.60,80.51,80.46,80.41,80.33,80.25,80.23,80.29,80.40,80.50,80.55,80.43,80.33,80.24,80.14,79.95,79.82,79.78,79.79,79.79,79.71,79.58,79.47,79.40,79.45,79.45,79.28,79.00,78.70,78.66,78.66,78.65,78.60,78.58,78.51,78.44,78.37,78.32,78.29,78.31,78.35,78.41,78.40,78.24,78.03,77.81,77.59,77.38,77.27,77.23,77.19,77.07,77.04,76.99,76.87,76.72,76.63,76.43,76.12,75.85,75.73,75.61,75.50,75.44,75.41,75.41,75.38,75.26,75.03,74.84,74.67,74.54,74.44,74.41,74.39,74.32,74.20,74.05,73.83,73.70,73.69,73.71,73.72,73.71,73.64,73.46,73.30,73.32,73.42,73.54,73.55,73.60,73.63,73.61,73.59,73.59,73.56,73.59,73.76,74.30,74.54,74.65,74.71,74.82,74.91,75.23,75.72,76.22,76.64,76.94,77.09,77.10,77.10,77.16,77.16,77.09,77.01,76.93,76.80,76.20,75.21,77.07,78.56,79.18,78.64,76.58,76.02,75.76,75.64,75.58,75.02,74.73,74.61,74.60,74.59,74.46,74.36,74.29,74.22,74.31,74.37,74.29,74.03,74.07,74.09,74.10,74.13,74.20,74.28,74.35,74.42,74.48,74.48,74.48,74.48,74.52,74.66,74.75,74.77,74.77,74.82,74.70,74.66,74.66,74.67,74.65,74.48,74.15,73.66,72.95,73.19,74.02,75.04,75.83,76.08,76.17,76.23,76.35,76.57,76.65,76.66,76.69,76.82,76.88,76.89,76.86,76.80,76.75,76.71,76.74,76.83,76.95,77.05,77.16,77.24,77.22,77.07,76.99,76.94,76.87,76.79,76.75,76.77,76.80,76.80,76.82,76.88,76.90,76.80,76.36,75.84,75.45,75.30,75.47,75.99,76.40,76.64,76.73,76.74,76.73,76.71,76.71,76.74,76.77,76.78,76.77,76.78,76.79,76.79,76.76,76.70,76.62,76.59,76.56,76.52,76.51,76.50,76.53,76.56,76.60,76.57,76.52,76.45,76.39,76.33,76.32,76.34,76.35,76.33
80.77,80.77,80.80,80.81,80.78,80.76,80.71,80.64,80.57,80.52,80.46,80.39,80.35,80.37,80.44,80.51,80.55,80.55,80.46,80.35,80.23,80.09,79.95,79.86,79.83,79.86,79.90,79.84,79.69,79.56,79.51,79.55,79.55,79.37,79.08,78.80,78.79,78.81,78.81,78.76,78.70,78.63,78.55,78.48,78.45,78.43,78.44,78.45,78.43,78.37,78.27,78.12,77.91,77.65,77.50,77.50,77.56,77.54,77.47,77.42,77.35,77.22,77.11,76.99,76.75,76.41,76.11,75.98,75.80,75.62,75.50,75.40,75.32,75.24,75.15,75.04,74.93,74.81,74.66,74.52,74.45,74.37,74.30,74.21,74.07,73.90,73.81,73.80,73.84,73.90,73.90,73.80,73.60,73.44,73.39,73.43,73.52,73.63,73.71,73.73,73.70,73.68,73.69,73.68,73.73,73.90,74.39,74.60,74.74,74.90,75.14,75.26,75.50,75.84,76.24,76.70,77.00,77.13,77.12,77.12,77.17,77.16,77.09,77.01,76.92,76.84,76.11,74.76,77.01,78.57,79.15,78.56,76.65,76.23,76.02,75.86,75.66,74.99,74.74,74.66,74.63,74.60,74.49,74.41,74.36,74.30,74.43,74.48,74.38,74.13,74.03,74.05,74.09,74.13,74.20,74.26,74.33,74.39,74.40,74.38,74.38,74.40,74.46,74.57,74.66,74.65,74.60,74.64,74.56,74.53,74.53,74.54,74.52,74.09,73.54,73.03,72.76,73.04,73.77,74.68,75.41,75.65,75.82,76.00,76.23,76.48,76.60,76.65,76.70,76.82,76.90,76.91,76.89,76.88,76.86,76.86,76.88,76.94,77.03,77.12,77.22,77.28,77.25,77.11,77.01,76.95,76.89,76.79,76.77,76.79,76.82,76.79,76.80,76.85,76.89,76.84,76.67,76.30,75.83,75.40,75.28,75.58,76.04,76.49,76.74,76.74,76.75,76.75,76.76,76.76,76.78,76.76,76.74,76.75,76.77,76.77,76.74,76.69,76.63,76.62,76.60,76.56,76.53,76.52,76.54,76.58,76.62,76.60,76.55,76.49,76.43,76.38,76.37,76.37,76.37,76.33
80.79,80.80,80.82,80.83,80.82,80.79,80.75,80.69,80.61,80.57,80.52,80.47,80.44,80.47,80.53,80.57,80.58,80.53,80.45,80.37,80.27,80.15,80.02,79.94,79.91,79.93,79.94,79.86,79.72,79.62,79.59,79.60,79.56,79.38,79.12,78.91,78.91,78.89,78.85,78.77,78.71,78.66,78.61,78.55,78.49,78.48,78.47,78.46,78.42,78.37,78.31,78.18,77.97,77.68,77.57,77.60,77.68,77.70,77.64,77.61,77.55,77.46,77.37,77.23,76.99,76.69,76.43,76.29,76.11,75.94,75.81,75.66,75.55,75.42,75.27,75.11,75.01,74.88,74.76,74.65,74.55,74.45,74.35,74.28,74.17,74.06,74.01,74.02,74.02,74.06,74.05,73.93,73.70,73.53,73.45,73.46,73.54,73.66,73.75,73.80,73.80,73.77,73.80,73.81,73.87,74.03,74.43,74.62,74.78,74.99,75.29,75.48,75.67,75.90,76.20,76.68,76.99,77.13,77.16,77.19,77.20,77.17,77.11,77.03,76.85,76.65,75.93,74.83,77.41,78.78,79.19,78.65,76.96,76.59,76.43,76.17,75.56,74.94,74.74,74.70,74.68,74.61,74.54,74.47,74.42,74.40,74.53,74.57,74.45,74.17,73.99,74.01,74.06,74.10,74.18,74.22,74.27,74.30,74.29,74.19,74.17,74.23,74.35,74.44,74.49,74.46,74.40,74.42,74.35,74.29,74.25,74.23,74.23,73.69,73.07,72.61,72.57,72.94,73.66,74.48,75.08,75.31,75.51,75.73,76.01,76.30,76.49,76.59,76.66,76.81,76.92,76.92,76.90,76.91,76.92,76.93,76.97,77.02,77.10,77.17,77.25,77.29,77.26,77.17,77.09,77.02,76.93,76.82,76.80,76.82,76.83,76.78,76.79,76.85,76.89,76.86,76.81,76.60,76.22,75.71,75.29,75.36,75.70,76.18,76.65,76.73,76.76,76.77,76.77,76.77,76.76,76.75,76.73,76.74,76.78,76.77,76.74,76.69,76.65,76.65,76.64,76.60,76.55,76.53,76.55,76.59,76.63,76.64,76.59,76.53,76.46,76.43,76.41,76.40,76.38,76.34
80.80,80.80,80.80,80.80,80.80,80.80,80.77,80.72,80.65,80.61,80.57,80.53,80.52,80.55,80.59,80.61,80.59,80.52,80.44,80.40,80.34,80.25,80.12,80.04,80.02,80.00,79.96,79.85,79.73,79.66,79.65,79.63,79.53,79.35,79.16,79.02,79.01,78.95,78.84,78.72,78.69,78.67,78.64,78.59,78.50,78.48,78.45,78.42,78.39,78.38,78.35,78.23,78.01,77.71,77.62,77.64,77.70,77.77,77.71,77.69,77.68,77.63,77.54,77.39,77.19,76.96,76.78,76.62,76.47,76.33,76.23,76.05,75.94,75.76,75.50,75.23,75.08,74.95,74.83,74.79,74.69,74.57,74.45,74.38,74.30,74.26,74.26,74.27,74.22,74.21,74.17,74.05,73.77,73.61,73.50,73.50,73.59,73.67,73.77,73.86,73.91,73.86,73.91,73.95,74.02,74.15,74.45,74.62,74.80,75.04,75.36,75.64,75.80,75.93,76.14,76.64,76.95,77.12,77.21,77.28,77.24,77.19,77.13,77.05,76.76,76.37,75.74,75.17,78.01,79.07,79.28,78.81,77.38,76.99,76.89,76.53,75.44,74.94,74.78,74.76,74.74,74.62,74.60,74.54,74.46,74.49,74.61,74.64,74.51,74.20,73.96,73.96,74.02,74.07,74.14,74.15,74.17,74.17,74.14,73.92,73.87,73.97,74.18,74.26,74.28,74.24,74.19,74.18,74.13,74.01,73.89,73.83,73.84,73.27,72.67,72.31,72.41,72.89,73.64,74.37,74.80,75.04,75.24,75.47,75.76,76.08,76.37,76.52,76.60,76.78,76.92,76.93,76.90,76.91,76.96,76.98,77.03,77.10,77.17,77.21,77.26,77.29,77.27,77.23,77.19,77.11,76.97,76.86,76.84,76.85,76.85,76.78,76.78,76.86,76.91,76.86,76.85,76.80,76.58,76.12,75.40,75.23,75.38,75.81,76.48,76.69,76.77,76.79,76.78,76.77,76.74,76.72,76.72,76.74,76.78,76.78,76.74,76.69,76.69,76.69,76.67,76.63,76.57,76.55,76.57,76.61,76.65,76.68,76.63,76.56,76.49,76.48,76.46,76.43,76.39,76.35
80.83,80.83,80.80,80.77,80.74,80.76,80.76,80.73,80.69,80.64,80.61,80.58,80.56,80.57,80.63,80.66,80.66,80.63,80.58,80.53,80.46,80.37,80.23,80.14,80.10,80.09,80.07,79.98,79.83,79.72,79.66,79.62,79.54,79.42,79.28,79.14,79.10,79.06,78.99,78.87,78.79,78.75,78.69,78.62,78.53,78.49,78.44,78.39,78.34,78.32,78.28,78.19,78.03,77.79,77.70,77.69,77.73,77.76,77.76,77.75,77.71,77.64,77.55,77.41,77.27,77.14,77.00,76.83,76.68,76.57,76.48,76.34,76.24,76.07,75.80,75.54,75.35,75.11,74.90,74.89,74.85,74.76,74.66,74.55,74.46,74.42,74.40,74.37,74.34,74.28,74.22,74.12,73.94,73.74,73.60,73.57,73.63,73.73,73.84,73.94,73.99,73.97,74.02,74.08,74.16,74.26,74.45,74.64,74.86,75.11,75.41,75.70,75.91,76.05,76.18,76.63,76.95,77.15,77.24,77.29,77.24,77.17,77.11,77.04,76.70,76.24,75.72,75.53,78.39,79.22,79.33,78.93,77.48,77.16,77.03,76.79,76.20,75.66,75.48,75.22,74.75,74.66,74.64,74.57,74.50,74.56,74.58,74.59,74.51,74.29,73.94,73.92,73.98,74.03,74.06,74.03,73.99,73.89,73.65,73.29,73.15,73.26,73.59,73.83,74.04,74.11,74.08,74.08,74.05,73.92,73.68,73.35,73.28,72.86,72.46,72.26,72.39,73.14,73.92,74.52,74.79,75.05,75.25,75.48,75.80,76.16,76.40,76.51,76.56,76.68,76.76,76.80,76.83,76.92,77.07,77.13,77.16,77.18,77.23,77.22,77.23,77.27,77.29,77.27,77.24,77.16,77.03,76.92,76.85,76.86,76.87,76.81,76.79,76.88,76.96,76.92,76.89,76.86,76.70,76.30,75.57,75.21,75.17,75.40,75.90,76.51,76.72,76.77,76.78,76.77,76.73,76.71,76.71,76.71,76.73,76.74,76.75,76.76,76.75,76.74,76.70,76.64,76.59,76.58,76.60,76.65,76.71,76.71,76.63,76.54,76.50,76.49,76.49,76.46,76.42,76.39
80.89,80.89,80.84,80.78,80.73,80.75,80.75,80.74,80.70,80.65,80.63,80.61,80.60,80.61,80.66,80.68,80.68,80.66,80.63,80.59,80.53,80.44,80.32,80.23,80.19,80.17,80.16,80.08,79.93,79.80,79.73,79.70,79.63,79.53,79.42,79.28,79.25,79.23,79.17,79.05,78.93,78.85,78.77,78.68,78.57,78.51,78.45,78.42,78.40,78.37,78.29,78.18,78.04,77.87,77.76,77.72,77.72,77.71,77.72,77.71,77.67,77.60,77.52,77.42,77.33,77.25,77.13,76.95,76.82,76.73,76.66,76.53,76.44,76.30,76.07,75.83,75.59,75.27,75.00,74.97,74.93,74.87,74.77,74.66,74.60,74.58,74.55,74.49,74.44,74.34,74.26,74.17,74.05,73.84,73.69,73.64,73.71,73.82,73.94,74.04,74.10,74.11,74.15,74.21,74.29,74.39,74.54,74.77,75.01,75.26,75.51,75.78,75.99,76.13,76.21,76.62,76.96,77.18,77.27,77.30,77.24,77.17,77.09,77.01,76.66,76.23,75.83,75.87,78.65,79.32,79.35,78.96,77.46,77.19,77.09,76.97,76.73,76.34,76.10,75.58,74.79,74.72,74.67,74.58,74.49,74.46,74.37,74.30,74.22,74.07,73.71,73.80,73.92,73.97,73.96,73.91,73.75,73.45,73.03,72.60,72.38,72.46,72.81,73.22,73.63,73.84,73.90,73.96,73.95,73.84,73.48,72.86,72.75,72.49,72.29,72.24,72.50,73.40,74.14,74.60,74.74,75.02,75.27,75.55,75.86,76.25,76.44,76.51,76.54,76.62,76.66,76.71,76.79,76.91,77.12,77.21,77.23,77.22,77.26,77.24,77.24,77.27,77.30,77.29,77.26,77.18,77.05,76.94,76.86,76.87,76.91,76.88,76.85,76.93,77.01,76.99,76.94,76.93,76.84,76.57,75.98,75.47,75.18,75.17,75.50,76.22,76.59,76.74,76.77,76.75,76.71,76.71,76.73,76.75,76.74,76.75,76.78,76.82,76.81,76.77,76.71,76.65,76.61,76.62,76.64,76.66,76.68,76.66,76.60,76.54,76.53,76.52,76.51,76.49,76.46,76.43
80.98,80.99,80.93,80.83,80.77,80.78,80.76,80.73,80.69,80.65,80.65,80.65,80.65,80.66,80.69,80.68,80.66,80.62,80.61,80.58,80.53,80.45,80.38,80.33,80.29,80.26,80.24,80.16,80.02,79.91,79.87,79.87,79.80,79.70,79.58,79.46,79.46,79.46,79.40,79.26,79.11,79.00,78.89,78.76,78.63,78.53,78.49,78.50,78.58,78.53,78.37,78.19,78.04,77.93,77.81,77.74,77.68,77.62,77.58,77.57,77.55,77.50,77.45,77.41,77.36,77.29,77.16,77.00,76.87,76.80,76.76,76.64,76.54,76.43,76.30,76.09,75.80,75.43,75.11,75.00,74.94,74.87,74.79,74.72,74.72,74.74,74.71,74.63,74.51,74.38,74.28,74.19,74.10,73.90,73.76,73.73,73.83,73.93,74.05,74.16,74.24,74.30,74.28,74.32,74.40,74.53,74.72,75.00,75.27,75.49,75.69,75.87,76.05,76.17,76.22,76.62,76.97,77.20,77.29,77.30,77.24,77.17,77.07,76.94,76.64,76.34,76.08,76.18,78.80,79.36,79.33,78.89,77.31,77.08,77.07,77.07,76.99,76.96,76.61,75.85,74.87,74.79,74.67,74.56,74.42,74.18,73.97,73.77,73.61,73.50,73.27,73.59,73.85,73.89,73.83,73.79,73.43,72.86,72.27,71.83,71.56,71.55,71.83,72.42,73.03,73.43,73.63,73.81,73.83,73.77,73.31,72.35,72.26,72.17,72.14,72.27,72.74,73.68,74.32,74.61,74.66,74.94,75.31,75.67,75.96,76.35,76.47,76.51,76.54,76.60,76.62,76.68,76.77,76.89,77.10,77.22,77.25,77.23,77.28,77.28,77.28,77.29,77.30,77.29,77.27,77.18,77.04,76.91,76.86,76.88,76.94,76.97,76.95,76.99,77.04,77.06,77.01,77.00,76.99,76.93,76.68,76.03,75.43,75.11,75.29,75.83,76.36,76.69,76.75,76.71,76.70,76.73,76.79,76.85,76.81,76.81,76.84,76.88,76.85,76.78,76.71,76.65,76.62,76.68,76.69,76.65,76.55,76.55,76.55,76.56,76.59,76.55,76.52,76.50,76.49,76.48
81.00,81.00,80.93,80.85,80.81,80.83,80.82,80.79,80.75,80.68,80.64,80.63,80.63,80.64,80.65,80.64,80.63,80.61,80.60,80.57,80.52,80.44,80.37,80.34,80.31,80.28,80.23,80.13,80.03,79.97,79.96,79.93,79.82,79.71,79.62,79.54,79.56,79.57,79.51,79.38,79.25,79.15,79.03,78.87,78.69,78.56,78.54,78.59,78.69,78.68,78.50,78.27,78.07,77.95,77.84,77.76,77.70,77.65,77.58,77.52,77.48,77.44,77.39,77.34,77.28,77.21,77.14,77.00,76.89,76.81,76.75,76.65,76.56,76.47,76.37,76.20,75.95,75.63,75.30,75.10,74.98,74.88,74.81,74.77,74.77,74.76,74.71,74.62,74.49,74.34,74.21,74.11,74.09,73.94,73.85,73.83,73.88,74.01,74.14,74.32,74.48,74.58,74.57,74.57,74.58,74.64,74.76,75.02,75.28,75.53,75.77,75.92,76.07,76.18,76.22,76.58,76.89,77.12,77.26,77.24,77.21,77.18,77.10,76.89,76.67,76.46,76.30,76.47,78.91,79.40,79.18,78.54,77.27,77.10,77.08,77.09,77.06,77.07,76.66,75.87,74.96,74.91,74.79,74.58,74.24,73.71,73.21,72.80,72.50,72.30,72.06,72.26,72.70,73.13,73.08,73.01,72.60,72.03,71.56,71.33,71.18,71.16,71.32,71.78,72.44,72.77,72.82,72.91,72.94,72.90,72.66,72.16,72.06,71.96,71.95,72.19,73.02,73.94,74.44,74.62,74.70,75.09,75.55,75.91,76.12,76.37,76.44,76.47,76.52,76.57,76.59,76.65,76.76,76.92,77.05,77.14,77.20,77.22,77.25,77.24,77.24,77.25,77.26,77.25,77.24,77.19,77.07,76.98,76.93,76.94,77.00,77.04,77.04,77.06,77.08,77.08,77.04,77.03,77.03,77.01,76.89,76.42,75.80,75.27,75.08,75.37,75.85,76.32,76.61,76.69,76.70,76.73,76.78,76.85,76.81,76.81,76.84,76.87,76.83,76.76,76.70,76.66,76.66,76.72,76.72,76.65,76.53,76.53,76.54,76.57,76.61,76.57,76.52,76.50,76.49,76.47
81.02,80.99,80.93,80.87,80.84,80.86,80.86,80.84,80.80,80.74,80.67,80.63,80.62,80.62,80.62,80.61,80.61,80.60,80.60,80.57,80.50,80.42,80.35,80.33,80.32,80.29,80.22,80.11,80.03,80.01,80.00,79.95,79.83,79.73,79.66,79.62,79.64,79.65,79.60,79.49,79.39,79.30,79.17,79.00,78.79,78.64,78.61,78.68,78.77,78.80,78.63,78.37,78.12,78.00,77.94,77.87,77.81,77.79,77.69,77.59,77.52,77.49,77.46,77.40,77.32,77.23,77.16,77.03,76.91,76.82,76.73,76.63,76.55,76.47,76.38,76.23,76.04,75.77,75.47,75.19,75.03,74.92,74.85,74.83,74.82,74.76,74.69,74.61,74.50,74.35,74.21,74.12,74.13,74.03,74.00,74.02,74.07,74.15,74.26,74.46,74.68,74.80,74.82,74.80,74.77,74.77,74.81,75.04,75.30,75.56,75.83,75.95,76.08,76.17,76.23,76.53,76.78,76.99,77.17,77.16,77.17,77.19,77.14,76.91,76.78,76.65,76.56,76.78,79.00,79.44,79.04,78.22,77.25,77.11,77.09,77.09,77.09,77.07,76.56,75.79,75.04,75.02,74.89,74.54,73.97,73.22,72.48,71.94,71.56,71.31,71.08,71.13,71.58,72.18,72.15,72.10,71.77,71.34,71.05,70.99,70.95,70.94,70.99,71.28,71.97,72.26,72.19,72.18,72.19,72.16,72.09,71.98,71.88,71.77,71.79,72.17,73.42,74.19,74.53,74.64,74.76,75.29,75.81,76.15,76.27,76.38,76.41,76.45,76.49,76.52,76.54,76.62,76.77,76.95,77.01,77.08,77.16,77.22,77.22,77.21,77.21,77.21,77.22,77.22,77.23,77.19,77.11,77.04,76.99,77.01,77.07,77.11,77.12,77.11,77.10,77.09,77.05,77.03,77.03,77.04,77.01,76.75,76.20,75.53,74.98,75.02,75.37,75.87,76.36,76.61,76.68,76.72,76.76,76.82,76.80,76.81,76.83,76.85,76.82,76.75,76.70,76.67,76.68,76.72,76.71,76.64,76.52,76.53,76.54,76.56,76.60,76.58,76.53,76.50,76.49,76.45
81.05,80.99,80.93,80.89,80.89,80.87,80.83,80.82,80.84,80.86,80.80,80.71,80.63,80.60,80.60,80.60,80.60,80.60,80.60,80.57,80.49,80.39,80.31,80.34,80.34,80.31,80.24,80.12,80.04,79.99,79.96,79.91,79.83,79.77,79.73,79.72,79.70,79.69,79.66,79.60,79.51,79.43,79.33,79.19,78.99,78.81,78.75,78.76,78.81,78.85,78.71,78.48,78.23,78.17,78.18,78.15,78.11,78.12,78.04,77.92,77.84,77.83,77.84,77.80,77.70,77.53,77.34,77.13,76.98,76.85,76.71,76.56,76.48,76.40,76.29,76.11,75.97,75.80,75.57,75.25,75.14,75.04,74.97,74.92,74.87,74.76,74.67,74.63,74.64,74.51,74.41,74.35,74.30,74.24,74.28,74.42,74.58,74.49,74.45,74.57,74.76,74.89,74.92,74.95,74.97,74.94,74.93,75.13,75.39,75.66,75.85,75.97,76.07,76.16,76.27,76.46,76.64,76.80,76.94,77.03,77.10,77.16,77.17,77.09,77.05,76.98,76.93,77.11,79.07,79.48,79.00,78.06,77.26,77.09,77.05,77.04,77.04,76.95,76.24,75.51,75.11,75.06,74.92,74.37,73.55,72.76,71.91,71.43,71.18,71.03,70.92,70.82,70.87,71.02,70.95,71.09,71.11,71.05,70.98,70.95,70.95,70.95,70.97,71.07,71.81,72.18,72.14,72.09,72.03,71.93,71.83,71.73,71.70,71.61,71.72,72.34,74.12,74.46,74.58,74.67,74.86,75.58,76.07,76.32,76.37,76.40,76.44,76.46,76.47,76.42,76.44,76.58,76.78,76.96,77.01,77.09,77.17,77.24,77.24,77.22,77.22,77.22,77.18,77.21,77.23,77.21,77.13,77.02,77.02,77.08,77.15,77.18,77.17,77.13,77.10,77.09,77.04,77.00,77.00,77.04,77.08,76.99,76.62,75.96,75.12,74.95,75.03,75.36,75.90,76.42,76.63,76.71,76.73,76.76,76.77,76.79,76.82,76.85,76.84,76.78,76.72,76.66,76.63,76.64,76.63,76.59,76.54,76.55,76.53,76.53,76.56,76.54,76.51,76.50,76.49,76.43
81.08,81.02,80.96,80.91,80.89,80.86,80.82,80.82,80.85,80.90,80.86,80.78,80.73,80.73,80.72,80.66,80.61,80.59,80.59,80.56,80.48,80.38,80.30,80.32,80.34,80.34,80.29,80.18,80.06,79.99,79.96,79.94,79.86,79.81,79.78,79.77,79.73,79.70,79.66,79.61,79.55,79.47,79.38,79.27,79.13,78.98,78.90,78.90,78.92,78.92,78.77,78.56,78.38,78.43,78.53,78.53,78.46,78.41,78.34,78.23,78.15,78.13,78.12,78.11,78.03,77.87,77.66,77.44,77.26,77.10,76.91,76.71,76.60,76.51,76.40,76.19,76.02,75.86,75.69,75.43,75.35,75.29,75.28,75.33,75.27,75.14,75.09,75.13,75.17,74.98,74.85,74.77,74.70,74.67,74.75,74.88,74.99,74.86,74.78,74.80,74.89,75.01,75.04,75.10,75.14,75.12,75.08,75.24,75.46,75.69,75.86,75.98,76.08,76.18,76.29,76.44,76.61,76.77,76.91,77.04,77.14,77.19,77.21,77.19,77.20,77.19,77.21,77.46,79.13,79.52,78.94,77.86,77.20,77.01,76.92,76.87,76.86,76.63,75.94,75.38,75.20,75.07,74.70,74.04,73.23,72.57,71.67,71.20,71.01,70.93,70.84,70.74,70.70,70.69,70.56,70.69,70.81,70.89,70.93,70.94,70.93,70.94,70.96,70.98,71.61,71.97,71.98,71.90,71.82,71.75,71.68,71.59,71.54,71.49,71.68,72.42,74.33,74.56,74.61,74.76,75.10,75.83,76.24,76.41,76.43,76.42,76.46,76.48,76.47,76.38,76.35,76.49,76.70,76.88,76.95,77.05,77.15,77.24,77.23,77.24,77.24,77.22,77.15,77.18,77.21,77.21,77.16,77.07,77.06,77.10,77.15,77.16,77.15,77.13,77.11,77.12,77.07,77.03,77.02,77.04,77.11,77.09,76.86,76.36,75.53,74.97,74.84,75.02,75.41,76.10,76.55,76.73,76.72,76.71,76.70,76.71,76.74,76.75,76.75,76.72,76.68,76.64,76.59,76.57,76.56,76.54,76.51,76.51,76.50,76.49,76.49,76.49,76.51,76.51,76.49,76.42
81.10,81.05,80.98,80.92,80.88,80.85,80.82,80.82,80.85,80.90,80.88,80.85,80.84,80.89,80.87,80.74,80.62,80.58,80.59,80.55,80.47,80.37,80.30,80.31,80.33,80.35,80.35,80.24,80.10,80.01,79.99,79.99,79.92,79.85,79.81,79.80,79.74,79.69,79.64,79.58,79.54,79.47,79.39,79.32,79.25,79.13,79.06,79.04,79.05,78.99,78.81,78.64,78.55,78.72,78.90,78.92,78.81,78.68,78.61,78.52,78.45,78.40,78.35,78.36,78.32,78.22,78.03,77.84,77.65,77.44,77.20,76.97,76.83,76.73,76.62,76.38,76.14,75.97,75.84,75.67,75.63,75.62,75.70,75.86,75.81,75.69,75.69,75.79,75.81,75.55,75.36,75.25,75.18,75.18,75.26,75.34,75.35,75.23,75.16,75.10,75.07,75.14,75.19,75.25,75.30,75.31,75.24,75.35,75.52,75.70,75.86,75.98,76.10,76.21,76.30,76.44,76.62,76.81,76.98,77.12,77.21,77.26,77.26,77.26,77.30,77.33,77.44,77.78,79.20,79.56,78.91,77.70,77.12,76.91,76.76,76.65,76.62,76.23,75.67,75.33,75.29,75.03,74.37,73.63,72.96,72.49,71.56,71.08,70.91,70.88,70.81,70.77,70.76,70.71,70.52,70.55,70.67,70.81,70.90,70.92,70.91,70.92,70.96,70.96,71.39,71.68,71.75,71.66,71.59,71.57,71.56,71.49,71.39,71.37,71.67,72.50,74.32,74.55,74.63,74.84,75.34,75.99,76.31,76.42,76.42,76.40,76.46,76.49,76.46,76.35,76.26,76.37,76.57,76.76,76.86,76.99,77.12,77.21,77.22,77.26,77.27,77.22,77.12,77.15,77.19,77.21,77.18,77.14,77.11,77.11,77.13,77.13,77.12,77.12,77.13,77.16,77.10,77.07,77.05,77.05,77.12,77.12,77.01,76.69,76.03,75.09,74.77,74.77,74.96,75.74,76.44,76.76,76.73,76.67,76.64,76.62,76.63,76.63,76.63,76.62,76.61,76.60,76.56,76.52,76.51,76.51,76.48,76.47,76.47,76.45,76.42,76.45,76.51,76.53,76.49,76.41
81.12,81.01,80.90,80.83,80.85,80.82,80.81,80.84,80.88,80.92,80.90,80.88,80.87,80.88,80.86,80.78,80.69,80.62,80.57,80.51,80.43,80.35,80.30,80.33,80.34,80.33,80.28,80.20,80.13,80.09,80.08,80.08,80.02,79.94,79.86,79.80,79.72,79.65,79.59,79.58,79.56,79.50,79.43,79.35,79.29,79.23,79.17,79.14,79.11,79.01,78.86,78.73,78.69,78.87,79.09,79.14,79.03,78.86,78.79,78.73,78.66,78.55,78.46,78.48,78.49,78.45,78.36,78.21,78.04,77.83,77.56,77.35,77.18,77.05,76.94,76.75,76.49,76.30,76.17,76.09,76.14,76.21,76.31,76.40,76.32,76.22,76.19,76.18,76.09,75.83,75.66,75.58,75.58,75.60,75.59,75.60,75.62,75.55,75.55,75.49,75.39,75.30,75.34,75.41,75.46,75.46,75.36,75.47,75.60,75.72,75.90,75.98,76.09,76.20,76.30,76.44,76.66,76.90,77.10,77.21,77.30,77.36,77.38,77.35,77.33,77.33,77.48,77.97,79.28,79.55,79.07,78.11,77.20,76.91,76.69,76.50,76.32,75.97,75.62,75.41,75.30,74.84,73.85,73.18,72.79,72.37,71.45,70.97,70.79,70.78,70.75,70.77,70.76,70.70,70.57,70.54,70.63,70.76,70.85,70.90,70.91,70.93,70.97,70.93,71.13,71.29,71.37,71.36,71.26,71.23,71.26,71.29,71.17,71.29,71.85,72.86,74.14,74.37,74.50,74.70,75.06,75.53,75.84,76.02,76.11,76.17,76.30,76.36,76.33,76.23,76.14,76.22,76.42,76.62,76.76,76.90,77.04,77.16,77.20,77.22,77.22,77.18,77.12,77.17,77.19,77.17,77.13,77.13,77.17,77.21,77.24,77.23,77.18,77.15,77.15,77.17,77.12,77.10,77.09,77.08,77.09,77.03,76.90,76.69,76.35,75.65,75.03,74.71,74.82,75.38,76.16,76.61,76.70,76.68,76.65,76.62,76.60,76.61,76.61,76.61,76.60,76.57,76.56,76.57,76.57,76.56,76.56,76.59,76.56,76.51,76.47,76.48,76.50,76.51,76.48,76.43
81.12,80.97,80.83,80.76,80.79,80.78,80.80,80.84,80.88,80.90,80.89,80.88,80.87,80.85,80.84,80.79,80.72,80.64,80.56,80.49,80.43,80.38,80.34,80.34,80.33,80.31,80.25,80.21,80.20,80.19,80.18,80.17,80.11,80.00,79.89,79.80,79.71,79.63,79.58,79.58,79.56,79.50,79.44,79.38,79.33,79.31,79.27,79.22,79.16,79.03,78.89,78.80,78.80,78.98,79.22,79.30,79.24,79.10,79.05,79.00,78.90,78.71,78.58,78.60,78.63,78.63,78.62,78.53,78.40,78.22,77.96,77.71,77.48,77.30,77.17,77.03,76.81,76.63,76.53,76.52,76.60,76.70,76.78,76.81,76.73,76.64,76.56,76.46,76.32,76.15,76.04,75.98,75.99,76.01,75.94,75.89,75.91,75.84,75.84,75.77,75.62,75.44,75.49,75.54,75.58,75.56,75.48,75.56,75.66,75.76,75.93,76.00,76.10,76.21,76.32,76.45,76.67,76.91,77.11,77.23,77.31,77.40,77.45,77.40,77.36,77.33,77.65,78.50,79.45,79.63,79.10,78.07,77.13,76.81,76.57,76.33,76.09,75.79,75.60,75.49,75.32,74.54,73.49,72.85,72.52,72.10,71.32,70.89,70.72,70.72,70.71,70.76,70.76,70.67,70.56,70.52,70.59,70.70,70.78,70.83,70.86,70.91,70.96,70.92,70.99,71.07,71.12,71.14,71.03,71.00,71.03,71.07,71.00,71.21,72.03,73.27,74.09,74.26,74.38,74.53,74.76,75.04,75.29,75.47,75.58,75.68,75.88,76.02,76.08,76.10,76.07,76.16,76.34,76.55,76.71,76.85,76.99,77.10,77.19,77.20,77.19,77.17,77.13,77.19,77.20,77.17,77.14,77.15,77.21,77.28,77.34,77.36,77.32,77.28,77.27,77.29,77.27,77.22,77.16,77.10,77.08,76.99,76.86,76.71,76.56,76.07,75.37,74.84,74.72,75.07,75.75,76.27,76.53,76.61,76.62,76.61,76.59,76.61,76.62,76.62,76.61,76.57,76.58,76.62,76.62,76.62,76.63,76.65,76.61,76.54,76.48,76.48,76.48,76.47,76.44,76.41
81.11,80.92,80.77,80.70,80.72,80.72,80.78,80.83,80.85,80.85,80.86,80.86,80.85,80.81,80.82,80.78,80.72,80.64,80.56,80.51,80.47,80.44,80.41,80.34,80.30,80.27,80.25,80.26,80.31,80.32,80.29,80.24,80.17,80.05,79.91,79.80,79.71,79.63,79.59,79.58,79.55,79.48,79.42,79.40,79.39,79.38,79.34,79.29,79.21,79.05,78.91,78.84,78.88,79.05,79.27,79.40,79.43,79.40,79.38,79.32,79.16,78.89,78.73,78.73,78.75,78.78,78.82,78.78,78.74,78.63,78.39,78.05,77.74,77.48,77.31,77.21,77.10,76.97,76.90,76.94,77.01,77.08,77.11,77.08,77.04,76.95,76.80,76.62,76.49,76.53,76.50,76.44,76.42,76.42,76.30,76.21,76.21,76.11,76.03,75.92,75.76,75.54,75.62,75.66,75.66,75.61,75.59,75.64,75.72,75.81,75.96,76.05,76.13,76.24,76.37,76.47,76.65,76.84,77.01,77.16,77.26,77.38,77.46,77.41,77.40,77.35,77.92,79.38,79.71,79.78,78.99,77.61,76.91,76.62,76.38,76.16,75.92,75.69,75.61,75.57,75.32,74.13,73.29,72.65,72.14,71.68,71.16,70.84,70.70,70.70,70.70,70.76,70.74,70.64,70.51,70.49,70.55,70.63,70.70,70.72,70.77,70.85,70.91,70.91,70.96,71.00,70.99,70.97,70.92,70.89,70.87,70.83,70.88,71.15,72.21,73.73,74.16,74.21,74.25,74.33,74.44,74.53,74.66,74.77,74.84,74.96,75.20,75.46,75.72,75.95,76.08,76.19,76.33,76.53,76.71,76.84,76.95,77.05,77.18,77.21,77.20,77.17,77.15,77.20,77.22,77.22,77.21,77.20,77.23,77.32,77.44,77.50,77.53,77.52,77.49,77.50,77.55,77.44,77.26,77.11,77.10,77.01,76.89,76.77,76.67,76.38,75.78,75.13,74.66,74.81,75.22,75.75,76.24,76.45,76.55,76.58,76.59,76.63,76.65,76.66,76.64,76.60,76.63,76.67,76.68,76.68,76.69,76.67,76.61,76.53,76.47,76.45,76.45,76.42,76.37,76.34
81.06,80.84,80.73,80.69,80.68,80.69,80.74,80.75,80.72,80.72,80.74,80.77,80.80,80.80,80.81,80.78,80.71,80.62,80.56,80.53,80.51,80.47,80.43,80.38,80.34,80.30,80.25,80.26,80.31,80.34,80.32,80.25,80.20,80.08,79.92,79.74,79.66,79.63,79.63,79.65,79.60,79.53,79.48,79.45,79.42,79.40,79.36,79.30,79.22,79.05,78.91,78.88,78.97,79.21,79.38,79.47,79.49,79.51,79.52,79.49,79.40,79.21,79.00,78.90,78.84,78.82,78.86,78.88,78.85,78.72,78.44,78.16,77.84,77.58,77.44,77.39,77.32,77.19,77.07,77.05,77.08,77.10,77.12,77.10,77.09,77.00,76.84,76.65,76.56,76.55,76.54,76.54,76.58,76.60,76.47,76.34,76.27,76.16,76.10,76.00,75.85,75.67,75.72,75.76,75.77,75.74,75.70,75.74,75.81,75.89,75.99,76.07,76.15,76.25,76.39,76.53,76.69,76.84,76.96,77.10,77.22,77.36,77.46,77.40,77.31,77.22,77.88,79.54,79.79,79.82,78.89,77.33,76.75,76.55,76.39,76.21,75.96,75.76,75.69,75.65,75.41,74.16,73.47,72.94,72.45,71.90,71.16,70.80,70.69,70.68,70.68,70.69,70.64,70.53,70.43,70.44,70.52,70.61,70.64,70.68,70.75,70.83,70.89,70.90,70.93,70.93,70.91,70.89,70.85,70.84,70.82,70.78,70.80,71.10,72.02,73.32,73.97,74.10,74.15,74.22,74.36,74.41,74.49,74.55,74.63,74.89,75.24,75.50,75.70,75.95,76.07,76.21,76.40,76.67,76.76,76.82,76.90,76.99,77.13,77.21,77.23,77.22,77.21,77.25,77.27,77.26,77.26,77.22,77.23,77.32,77.45,77.53,77.53,77.53,77.54,77.55,77.61,77.51,77.32,77.15,77.19,77.09,76.98,76.86,76.77,76.63,76.20,75.56,74.85,74.67,74.79,75.15,75.65,76.11,76.44,76.61,76.67,76.70,76.71,76.69,76.65,76.63,76.64,76.66,76.67,76.67,76.70,76.68,76.63,76.57,76.50,76.46,76.42,76.37,76.32,76.30
80.99,80.76,80.68,80.67,80.65,80.66,80.68,80.66,80.61,80.61,80.64,80.69,80.74,80.79,80.79,80.76,80.70,80.60,80.56,80.54,80.52,80.49,80.45,80.40,80.36,80.32,80.26,80.26,80.31,80.35,80.34,80.26,80.22,80.10,79.92,79.72,79.65,79.65,79.68,79.70,79.65,79.59,79.53,79.49,79.44,79.41,79.37,79.30,79.21,79.06,78.94,78.94,79.10,79.37,79.50,79.55,79.56,79.59,79.60,79.60,79.56,79.45,79.23,79.06,78.94,78.88,78.89,78.97,78.95,78.80,78.51,78.29,77.95,77.69,77.58,77.56,77.48,77.33,77.17,77.10,77.10,77.10,77.10,77.10,77.11,77.04,76.87,76.68,76.61,76.55,76.53,76.58,76.66,76.71,76.57,76.42,76.30,76.21,76.16,76.07,75.94,75.79,75.81,75.87,75.90,75.89,75.82,75.85,75.91,75.98,76.03,76.11,76.20,76.30,76.43,76.62,76.78,76.90,76.98,77.10,77.21,77.36,77.46,77.37,77.21,77.08,77.76,79.51,79.79,79.84,78.81,77.11,76.63,76.52,76.43,76.27,76.01,75.85,75.78,75.71,75.44,74.20,73.58,73.11,72.61,71.97,71.12,70.76,70.68,70.64,70.64,70.61,70.53,70.42,70.36,70.39,70.49,70.59,70.60,70.64,70.73,70.80,70.85,70.87,70.87,70.85,70.83,70.82,70.80,70.79,70.77,70.74,70.73,71.07,71.82,72.85,73.65,73.91,74.01,74.09,74.26,74.31,74.35,74.39,74.50,74.92,75.38,75.62,75.72,75.93,76.04,76.24,76.49,76.76,76.78,76.81,76.86,76.95,77.08,77.21,77.26,77.25,77.25,77.27,77.28,77.28,77.26,77.21,77.21,77.30,77.44,77.51,77.50,77.51,77.53,77.56,77.61,77.53,77.35,77.18,77.26,77.17,77.06,76.96,76.87,76.82,76.55,75.97,75.13,74.63,74.52,74.70,75.13,75.75,76.30,76.63,76.77,76.78,76.76,76.72,76.68,76.64,76.63,76.64,76.64,76.65,76.70,76.70,76.66,76.60,76.53,76.47,76.40,76.35,76.31,76.29
80.89,80.69,80.62,80.61,80.60,80.60,80.59,80.57,80.56,80.59,80.61,80.63,80.68,80.74,80.75,80.71,80.65,80.59,80.56,80.52,80.50,80.49,80.43,80.35,80.33,80.32,80.30,80.27,80.33,80.36,80.34,80.28,80.23,80.10,79.93,79.78,79.74,79.71,79.70,79.70,79.67,79.62,79.56,79.49,79.43,79.41,79.35,79.26,79.15,79.06,79.01,79.08,79.28,79.53,79.64,79.69,79.68,79.65,79.63,79.60,79.55,79.47,79.34,79.19,79.06,78.97,78.96,79.05,79.04,78.91,78.69,78.48,78.12,77.84,77.73,77.68,77.53,77.33,77.16,77.10,77.12,77.12,77.11,77.10,77.12,77.10,76.94,76.70,76.63,76.56,76.52,76.54,76.63,76.71,76.58,76.42,76.32,76.30,76.24,76.14,76.01,75.86,75.89,75.98,76.06,76.05,75.95,75.98,76.03,76.07,76.11,76.21,76.32,76.44,76.52,76.75,76.95,77.08,77.14,77.20,77.26,77.37,77.44,77.30,77.12,76.95,77.55,79.19,79.68,79.84,78.77,76.98,76.60,76.52,76.46,76.33,76.02,75.94,75.87,75.73,75.35,74.19,73.50,72.92,72.34,71.62,70.98,70.71,70.63,70.56,70.56,70.51,70.43,70.35,70.32,70.35,70.45,70.56,70.60,70.61,70.67,70.73,70.77,70.80,70.77,70.75,70.77,70.79,70.76,70.75,70.72,70.66,70.69,71.05,71.67,72.43,73.08,73.52,73.78,73.92,74.07,74.14,74.19,74.25,74.41,75.01,75.57,75.79,75.78,75.83,75.99,76.29,76.58,76.74,76.75,76.80,76.86,76.94,77.06,77.21,77.27,77.26,77.22,77.20,77.21,77.21,77.18,77.17,77.20,77.27,77.37,77.41,77.44,77.45,77.46,77.48,77.54,77.47,77.32,77.19,77.28,77.21,77.13,77.05,76.95,76.91,76.74,76.31,75.58,74.81,74.56,74.58,74.83,75.36,76.12,76.62,76.86,76.86,76.83,76.77,76.71,76.65,76.62,76.62,76.62,76.63,76.69,76.73,76.69,76.62,76.55,76.47,76.41,76.38,76.37,76.36
80.84,80.66,80.60,80.59,80.58,80.59,80.57,80.55,80.54,80.56,80.59,80.61,80.64,80.68,80.70,80.67,80.62,80.57,80.53,80.51,80.50,80.48,80.45,80.40,80.38,80.36,80.33,80.31,80.36,80.36,80.31,80.24,80.20,80.08,79.93,79.82,79.80,79.75,79.73,79.73,79.72,79.67,79.59,79.51,79.46,79.43,79.36,79.25,79.13,79.06,79.06,79.17,79.39,79.60,79.70,79.76,79.76,79.72,79.69,79.65,79.61,79.55,79.46,79.32,79.21,79.13,79.10,79.15,79.14,79.06,78.93,78.75,78.35,77.99,77.80,77.72,77.55,77.34,77.17,77.10,77.12,77.12,77.11,77.10,77.14,77.14,76.99,76.76,76.67,76.57,76.54,76.56,76.62,76.69,76.61,76.48,76.38,76.39,76.32,76.23,76.11,75.95,75.97,76.08,76.17,76.17,76.05,76.06,76.11,76.16,76.19,76.28,76.42,76.54,76.61,76.83,77.08,77.24,77.28,77.30,77.33,77.38,77.38,77.22,77.02,76.84,77.33,78.75,79.59,79.71,78.58,76.84,76.60,76.56,76.51,76.37,76.06,76.02,75.99,75.82,75.33,74.12,73.29,72.58,71.92,71.25,70.85,70.69,70.63,70.56,70.53,70.46,70.38,70.32,70.30,70.30,70.39,70.52,70.60,70.57,70.59,70.64,70.69,70.70,70.68,70.67,70.69,70.71,70.69,70.68,70.65,70.59,70.66,71.01,71.52,72.10,72.63,73.12,73.46,73.67,73.82,73.92,74.00,74.15,74.46,75.29,75.72,75.82,75.76,75.80,76.09,76.37,76.58,76.69,76.72,76.76,76.81,76.88,76.94,77.04,77.08,77.08,77.09,77.09,77.11,77.11,77.09,77.11,77.17,77.24,77.30,77.35,77.37,77.39,77.40,77.40,77.46,77.40,77.29,77.18,77.27,77.21,77.15,77.09,77.03,77.00,76.88,76.61,76.15,75.46,74.84,74.53,74.58,74.96,75.80,76.45,76.82,76.88,76.87,76.83,76.76,76.68,76.63,76.64,76.64,76.64,76.65,76.67,76.65,76.61,76.55,76.50,76.48,76.45,76.43,76.42
80.81,80.66,80.61,80.59,80.57,80.59,80.57,80.55,80.53,80.54,80.58,80.60,80.60,80.62,80.64,80.63,80.60,80.55,80.50,80.50,80.49,80.48,80.48,80.47,80.45,80.41,80.35,80.35,80.39,80.37,80.27,80.19,80.16,80.06,79.94,79.85,79.83,79.78,79.75,79.75,79.76,79.70,79.61,79.53,79.50,79.45,79.36,79.25,79.13,79.06,79.10,79.26,79.50,79.66,79.74,79.80,79.82,79.80,79.77,79.73,79.69,79.65,79.58,79.44,79.34,79.28,79.24,79.23,79.22,79.20,79.14,79.01,78.56,78.12,77.84,77.73,77.58,77.38,77.20,77.12,77.14,77.13,77.12,77.11,77.16,77.17,77.04,76.83,76.73,76.61,76.58,76.60,76.62,76.66,76.64,76.56,76.47,76.47,76.40,76.32,76.21,76.04,76.06,76.16,76.25,76.27,76.14,76.12,76.17,76.24,76.27,76.36,76.50,76.62,76.68,76.89,77.17,77.36,77.40,77.40,77.40,77.38,77.30,77.13,76.91,76.73,77.08,78.19,79.27,79.33,78.24,76.71,76.61,76.61,76.56,76.40,76.11,76.09,76.12,75.94,75.38,74.08,73.11,72.25,71.51,70.94,70.76,70.69,70.66,70.59,70.52,70.44,70.36,70.30,70.30,70.25,70.32,70.46,70.59,70.53,70.52,70.55,70.61,70.61,70.60,70.60,70.61,70.61,70.61,70.60,70.58,70.53,70.63,70.95,71.37,71.83,72.26,72.72,73.10,73.38,73.53,73.67,73.79,74.03,74.52,75.53,75.80,75.80,75.72,75.80,76.22,76.44,76.54,76.62,76.67,76.71,76.75,76.80,76.81,76.82,76.83,76.87,76.93,76.99,77.01,77.01,77.01,77.05,77.14,77.21,77.24,77.30,77.32,77.35,77.35,77.33,77.38,77.34,77.25,77.17,77.25,77.20,77.14,77.11,77.10,77.08,76.99,76.86,76.70,76.24,75.23,74.56,74.39,74.59,75.41,76.16,76.66,76.85,76.89,76.87,76.81,76.71,76.64,76.67,76.67,76.64,76.60,76.60,76.60,76.58,76.55,76.54,76.56,76.53,76.49,76.49
80.78,80.67,80.63,80.61,80.59,80.59,80.57,80.55,80.55,80.57,80.58,80.57,80.56,80.57,80.57,80.57,80.55,80.53,80.49,80.47,80.48,80.47,80.44,80.42,80.41,80.40,80.37,80.39,80.42,80.40,80.31,80.22,80.19,80.11,79.99,79.89,79.85,79.79,79.73,79.70,79.69,79.64,79.57,79.51,79.47,79.43,79.35,79.25,79.13,79.06,79.20,79.44,79.68,79.78,79.82,79.83,79.84,79.84,79.84,79.81,79.76,79.73,79.61,79.45,79.33,79.26,79.25,79.24,79.20,79.15,79.07,78.93,78.50,78.10,77.88,77.83,77.76,77.60,77.41,77.29,77.25,77.23,77.20,77.18,77.19,77.16,77.06,76.90,76.83,76.71,76.64,76.63,76.65,76.65,76.65,76.63,76.56,76.55,76.49,76.42,76.32,76.16,76.15,76.24,76.33,76.34,76.22,76.18,76.23,76.33,76.35,76.46,76.55,76.63,76.74,76.87,77.09,77.28,77.38,77.40,77.40,77.34,77.20,76.95,76.76,76.62,76.71,77.09,77.51,77.68,77.32,76.67,76.66,76.67,76.56,76.38,76.18,76.17,76.21,76.14,75.73,74.40,73.32,72.30,71.47,71.06,70.85,70.73,70.71,70.72,70.54,70.44,70.36,70.30,70.30,70.24,70.27,70.39,70.53,70.50,70.50,70.51,70.53,70.53,70.52,70.52,70.53,70.53,70.53,70.53,70.52,70.52,70.61,70.86,71.20,71.61,72.01,72.41,72.75,73.02,73.22,73.37,73.53,73.80,74.27,75.14,75.64,75.76,75.68,75.73,76.14,76.35,76.42,76.48,76.56,76.65,76.71,76.73,76.73,76.75,76.78,76.82,76.87,76.97,77.00,77.01,77.02,77.07,77.12,77.18,77.24,77.30,77.31,77.31,77.32,77.31,77.34,77.33,77.25,77.14,77.15,77.16,77.16,77.15,77.11,77.10,77.05,76.99,76.89,76.64,75.86,75.04,74.46,74.46,74.90,75.51,76.12,76.58,76.82,76.85,76.78,76.68,76.62,76.63,76.64,76.63,76.61,76.60,76.58,76.56,76.52,76.55,76.58,76.60,76.61,76.63
80.74,80.66,80.63,80.61,80.60,80.59,80.57,80.55,80.55,80.58,80.57,80.55,80.53,80.53,80.53,80.53,80.52,80.51,80.48,80.47,80.47,80.46,80.40,80.38,80.38,80.38,80.37,80.40,80.42,80.40,80.31,80.21,80.18,80.11,80.00,79.88,79.84,79.79,79.73,79.68,79.66,79.61,79.56,79.51,79.46,79.41,79.33,79.24,79.16,79.09,79.28,79.57,79.82,79.87,79.87,79.87,79.86,79.87,79.88,79.86,79.83,79.81,79.70,79.51,79.35,79.27,79.27,79.24,79.19,79.12,79.03,78.87,78.48,78.13,77.92,77.91,77.88,77.75,77.57,77.41,77.33,77.27,77.24,77.21,77.20,77.16,77.08,76.99,76.93,76.81,76.73,76.70,76.72,76.72,76.72,76.70,76.64,76.60,76.52,76.45,76.37,76.25,76.23,76.30,76.37,76.39,76.28,76.23,76.29,76.41,76.46,76.58,76.64,76.69,76.81,76.93,77.11,77.27,77.39,77.40,77.41,77.34,77.18,76.87,76.67,76.56,76.59,76.76,76.83,76.94,76.85,76.64,76.69,76.67,76.53,76.36,76.25,76.27,76.35,76.32,75.95,74.54,73.34,72.25,71.43,71.16,70.98,70.86,70.81,70.82,70.58,70.49,70.42,70.37,70.37,70.30,70.27,70.31,70.45,70.42,70.43,70.44,70.45,70.43,70.44,70.45,70.46,70.46,70.46,70.46,70.47,70.50,70.58,70.78,71.07,71.42,71.77,72.11,72.42,72.69,72.92,73.09,73.30,73.61,74.08,74.83,75.38,75.60,75.59,75.66,75.99,76.18,76.30,76.40,76.50,76.60,76.66,76.67,76.70,76.71,76.74,76.78,76.84,76.97,77.00,77.01,77.02,77.07,77.11,77.17,77.25,77.30,77.30,77.30,77.30,77.30,77.32,77.32,77.26,77.14,77.12,77.15,77.18,77.18,77.14,77.11,77.09,77.05,76.99,76.87,76.31,75.50,74.69,74.38,74.55,74.99,75.57,76.18,76.65,76.80,76.78,76.69,76.62,76.63,76.65,76.66,76.63,76.61,76.58,76.55,76.53,76.56,76.61,76.65,76.67,76.67
80.69,80.63,80.61,80.60,80.60,80.59,80.57,80.55,80.55,80.59,80.57,80.53,80.50,80.50,80.50,80.50,80.50,80.50,80.49,80.49,80.48,80.44,80.37,80.35,80.36,80.36,80.35,80.39,80.41,80.37,80.29,80.17,80.13,80.06,79.97,79.85,79.81,79.77,79.73,79.69,79.65,79.61,79.57,79.52,79.45,79.38,79.30,79.24,79.19,79.15,79.35,79.65,79.91,79.93,79.91,79.90,79.90,79.90,79.90,79.90,79.90,79.89,79.84,79.60,79.40,79.30,79.30,79.25,79.18,79.10,79.02,78.84,78.50,78.18,77.97,77.97,77.94,77.84,77.68,77.48,77.36,77.28,77.22,77.20,77.20,77.16,77.12,77.09,77.03,76.90,76.83,76.80,76.81,76.86,76.84,76.78,76.69,76.61,76.49,76.42,76.37,76.31,76.30,76.35,76.40,76.40,76.34,76.27,76.33,76.48,76.59,76.72,76.75,76.78,76.90,77.05,77.21,77.34,77.42,77.42,77.42,77.38,77.23,76.89,76.63,76.54,76.70,77.09,77.09,76.97,76.79,76.63,76.69,76.62,76.47,76.34,76.32,76.39,76.53,76.51,76.06,74.53,73.20,72.11,71.40,71.23,71.16,71.05,70.96,70.90,70.63,70.58,70.54,70.49,70.49,70.41,70.29,70.24,70.34,70.29,70.32,70.35,70.37,70.31,70.35,70.39,70.40,70.40,70.40,70.39,70.41,70.48,70.55,70.73,70.97,71.25,71.55,71.82,72.10,72.37,72.61,72.80,73.08,73.45,73.95,74.59,75.05,75.32,75.47,75.60,75.77,75.97,76.17,76.37,76.47,76.56,76.61,76.63,76.69,76.70,76.71,76.75,76.84,76.97,77.00,77.00,77.02,77.05,77.11,77.18,77.27,77.30,77.30,77.30,77.30,77.30,77.32,77.32,77.27,77.19,77.13,77.18,77.20,77.19,77.17,77.12,77.09,77.06,77.02,76.94,76.61,75.95,75.07,74.32,74.34,74.57,75.02,75.68,76.38,76.71,76.80,76.73,76.66,76.67,76.71,76.71,76.66,76.61,76.59,76.57,76.55,76.58,76.64,76.67,76.67,76.63
80.64,80.60,80.57,80.57,80.60,80.60,80.59,80.58,80.58,80.58,80.54,80.50,80.47,80.47,80.49,80.50,80.51,80.52,80.53,80.49,80.45,80.41,80.36,80.34,80.32,80.31,80.32,80.36,80.35,80.31,80.25,80.16,80.10,80.02,79.94,79.86,79.80,79.72,79.66,79.63,79.61,79.59,79.55,79.50,79.44,79.37,79.31,79.26,79.21,79.20,79.39,79.65,79.89,79.95,79.92,79.88,79.85,79.86,79.90,79.90,79.88,79.86,79.73,79.52,79.36,79.28,79.26,79.22,79.18,79.12,79.04,78.93,78.62,78.30,78.10,78.07,77.98,77.83,77.66,77.53,77.45,77.38,77.32,77.29,77.28,77.24,77.19,77.14,77.05,76.94,76.87,76.83,76.83,76.84,76.79,76.71,76.61,76.51,76.44,76.39,76.33,76.27,76.30,76.38,76.46,76.46,76.41,76.39,76.45,76.58,76.73,76.82,76.89,76.96,77.06,77.21,77.35,77.46,77.52,77.50,77.48,77.42,77.28,76.97,76.69,76.59,77.22,78.69,78.74,78.36,77.59,76.76,76.70,76.59,76.48,76.40,76.39,76.49,76.60,76.52,76.02,74.56,72.98,71.90,71.37,71.27,71.22,71.13,71.02,70.90,70.74,70.73,70.72,70.66,70.59,70.49,70.36,70.29,70.37,70.35,70.30,70.28,70.32,70.25,70.26,70.28,70.31,70.33,70.33,70.32,70.32,70.39,70.53,70.68,70.86,71.05,71.24,71.46,71.68,71.91,72.17,72.59,72.98,73.38,73.83,74.40,74.83,75.16,75.39,75.52,75.71,75.94,76.18,76.40,76.47,76.53,76.57,76.60,76.66,76.67,76.69,76.75,76.84,76.94,76.99,77.02,77.04,77.05,77.10,77.18,77.27,77.31,77.33,77.34,77.32,77.30,77.31,77.30,77.26,77.20,77.16,77.18,77.17,77.16,77.15,77.14,77.12,77.08,77.00,76.93,76.75,76.33,75.65,74.74,74.37,74.35,74.63,75.16,75.96,76.48,76.72,76.74,76.73,76.74,76.75,76.73,76.68,76.63,76.58,76.55,76.55,76.59,76.65,76.70,76.70,76.64
80.62,80.60,80.57,80.56,80.59,80.59,80.59,80.59,80.58,80.56,80.53,80.49,80.47,80.46,80.49,80.50,80.51,80.53,80.53,80.48,80.43,80.40,80.37,80.34,80.31,80.29,80.32,80.35,80.32,80.27,80.22,80.16,80.08,79.99,79.91,79.84,79.77,79.68,79.60,79.57,79.58,79.57,79.54,79.49,79.42,79.36,79.32,79.29,79.24,79.25,79.41,79.63,79.82,79.89,79.87,79.82,79.78,79.80,79.86,79.86,79.83,79.79,79.63,79.45,79.33,79.27,79.24,79.22,79.19,79.15,79.09,79.03,78.74,78.44,78.24,78.23,78.11,77.94,77.78,77.69,77.63,77.55,77.49,77.45,77.42,77.35,77.27,77.16,77.05,76.97,76.90,76.84,76.81,76.77,76.71,76.63,76.54,76.44,76.41,76.38,76.34,76.30,76.34,76.44,76.53,76.53,76.49,76.50,76.57,76.70,76.88,76.95,77.03,77.12,77.21,77.35,77.48,77.56,77.60,77.57,77.52,77.43,77.29,77.04,76.75,76.68,77.64,79.80,79.94,79.41,78.23,76.89,76.73,76.59,76.51,76.47,76.47,76.58,76.64,76.52,76.01,74.54,72.82,71.76,71.36,71.30,71.24,71.14,71.02,70.88,70.83,70.83,70.82,70.76,70.61,70.51,70.41,70.37,70.44,70.43,70.34,70.29,70.32,70.23,70.23,70.24,70.26,70.30,70.29,70.26,70.26,70.32,70.51,70.63,70.75,70.87,70.99,71.13,71.29,71.48,71.73,72.33,72.83,73.28,73.73,74.27,74.71,75.06,75.32,75.45,75.64,75.88,76.13,76.37,76.46,76.50,76.53,76.56,76.61,76.62,76.67,76.75,76.84,76.91,76.96,77.00,77.03,77.03,77.11,77.20,77.28,77.34,77.38,77.38,77.35,77.31,77.30,77.29,77.25,77.20,77.19,77.18,77.15,77.13,77.13,77.15,77.13,77.07,76.96,76.88,76.81,76.60,76.15,75.26,74.52,74.24,74.33,74.70,75.50,76.15,76.53,76.63,76.71,76.76,76.77,76.73,76.69,76.65,76.59,76.55,76.56,76.59,76.66,76.71,76.72,76.63
80.68,80.65,80.61,80.58,80.57,80.57,80.57,80.57,80.56,80.55,80.55,80.53,80.51,80.49,80.50,80.50,80.50,80.50,80.49,80.45,80.43,80.42,80.41,80.39,80.36,80.34,80.35,80.38,80.33,80.26,80.21,80.16,80.08,79.98,79.87,79.76,79.69,79.63,79.58,79.55,79.55,79.56,79.54,79.48,79.40,79.34,79.33,79.34,79.34,79.33,79.43,79.57,79.69,79.73,79.72,79.70,79.69,79.70,79.75,79.74,79.71,79.69,79.57,79.43,79.32,79.27,79.25,79.24,79.24,79.22,79.19,79.12,78.87,78.60,78.42,78.47,78.41,78.29,78.15,78.05,77.95,77.83,77.75,77.72,77.66,77.52,77.34,77.16,77.04,76.98,76.92,76.83,76.72,76.66,76.63,76.57,76.49,76.42,76.40,76.42,76.44,76.44,76.47,76.55,76.61,76.61,76.60,76.61,76.70,76.85,77.07,77.11,77.17,77.24,77.32,77.47,77.58,77.64,77.64,77.61,77.51,77.38,77.23,77.06,76.79,76.85,77.85,79.87,80.15,79.69,78.47,77.02,76.79,76.63,76.56,76.55,76.55,76.65,76.61,76.49,76.09,74.41,72.76,71.75,71.37,71.30,71.19,71.05,70.92,70.82,70.85,70.84,70.80,70.70,70.48,70.43,70.43,70.48,70.57,70.52,70.47,70.44,70.40,70.27,70.33,70.32,70.27,70.34,70.29,70.24,70.24,70.31,70.48,70.58,70.65,70.72,70.84,70.90,70.98,71.11,71.30,71.99,72.59,73.13,73.66,74.27,74.77,75.09,75.26,75.37,75.54,75.73,75.97,76.26,76.45,76.46,76.47,76.51,76.53,76.55,76.65,76.77,76.86,76.85,76.89,76.93,76.95,76.98,77.12,77.24,77.32,77.39,77.44,77.42,77.38,77.36,77.31,77.28,77.25,77.20,77.20,77.18,77.14,77.10,77.11,77.12,77.08,77.00,76.88,76.80,76.74,76.68,76.49,75.90,74.86,74.31,74.18,74.37,74.98,75.66,76.11,76.30,76.51,76.69,76.74,76.71,76.70,76.69,76.66,76.62,76.59,76.60,76.66,76.70,76.70,76.58
80.69,80.66,80.63,80.59,80.55,80.54,80.53,80.52,80.52,80.54,80.53,80.51,80.49,80.49,80.50,80.50,80.50,80.51,80.50,80.48,80.46,80.46,80.45,80.42,80.39,80.37,80.39,80.41,80.35,80.28,80.21,80.16,80.09,80.00,79.90,79.80,79.73,79.67,79.62,79.58,79.57,79.55,79.53,79.49,79.44,79.40,79.40,79.43,79.45,79.46,79.53,79.60,79.64,79.67,79.69,79.69,79.68,79.70,79.74,79.73,79.70,79.68,79.61,79.48,79.37,79.29,79.27,79.27,79.27,79.27,79.25,79.17,78.96,78.73,78.55,78.54,78.50,78.39,78.25,78.13,78.02,77.89,77.79,77.74,77.64,77.49,77.32,77.14,77.01,76.98,77.00,77.00,76.92,76.77,76.68,76.63,76.60,76.59,76.55,76.57,76.61,76.59,76.59,76.65,76.69,76.70,76.70,76.71,76.79,76.95,77.20,77.27,77.32,77.37,77.44,77.54,77.66,77.73,77.72,77.66,77.54,77.40,77.24,77.09,76.84,76.99,78.00,79.90,80.21,79.73,78.50,77.05,76.78,76.64,76.57,76.57,76.63,76.75,76.68,76.47,75.93,74.31,72.68,71.71,71.35,71.30,71.16,70.99,70.84,70.76,70.75,70.74,70.70,70.63,70.43,70.40,70.44,70.51,70.55,70.56,70.53,70.49,70.46,70.38,70.45,70.44,70.38,70.42,70.42,70.30,70.22,70.27,70.43,70.52,70.59,70.66,70.76,70.81,70.86,70.97,71.18,71.74,72.27,72.83,73.47,74.39,75.00,75.31,75.42,75.47,75.57,75.69,75.85,76.06,76.30,76.35,76.38,76.42,76.46,76.51,76.61,76.73,76.83,76.82,76.87,76.92,76.96,76.98,77.12,77.26,77.37,77.44,77.47,77.46,77.42,77.38,77.34,77.29,77.24,77.20,77.20,77.18,77.14,77.10,77.09,77.05,77.00,76.92,76.84,76.78,76.74,76.73,76.68,76.41,75.55,74.72,74.18,74.14,74.50,75.07,75.55,75.84,76.18,76.50,76.69,76.76,76.77,76.74,76.72,76.67,76.60,76.61,76.71,76.76,76.72,76.59
80.68,80.66,80.64,80.60,80.53,80.51,80.50,80.49,80.50,80.53,80.51,80.49,80.47,80.47,80.50,80.51,80.52,80.53,80.54,80.52,80.50,80.50,80.48,80.44,80.40,80.39,80.42,80.44,80.38,80.29,80.21,80.16,80.10,80.02,79.93,79.86,79.80,79.73,79.67,79.63,79.60,79.56,79.53,79.51,79.50,79.49,79.50,79.53,79.56,79.60,79.64,79.65,79.64,79.65,79.70,79.71,79.72,79.74,79.77,79.76,79.73,79.70,79.65,79.53,79.40,79.32,79.30,79.30,79.30,79.29,79.29,79.20,79.03,78.84,78.67,78.58,78.52,78.41,78.27,78.12,78.01,77.90,77.79,77.70,77.56,77.43,77.29,77.14,77.00,77.01,77.11,77.21,77.19,76.94,76.79,76.74,76.77,76.82,76.77,76.78,76.81,76.74,76.71,76.74,76.78,76.80,76.80,76.80,76.87,77.05,77.32,77.44,77.50,77.54,77.60,77.63,77.76,77.83,77.80,77.73,77.60,77.45,77.29,77.13,76.91,77.19,78.23,79.94,80.23,79.71,78.51,77.13,76.76,76.65,76.58,76.57,76.70,76.84,76.76,76.41,75.69,74.23,72.65,71.69,71.34,71.31,71.16,70.96,70.79,70.72,70.64,70.61,70.60,70.56,70.42,70.41,70.46,70.51,70.51,70.57,70.54,70.50,70.49,70.49,70.55,70.54,70.50,70.51,70.53,70.36,70.19,70.22,70.38,70.46,70.53,70.61,70.69,70.76,70.81,70.90,71.14,71.51,71.95,72.50,73.25,74.48,75.21,75.56,75.62,75.63,75.64,75.69,75.77,75.88,76.11,76.22,76.28,76.31,76.39,76.47,76.56,76.67,76.78,76.79,76.85,76.92,76.98,77.00,77.11,77.26,77.41,77.47,77.49,77.48,77.44,77.39,77.36,77.29,77.23,77.20,77.20,77.18,77.14,77.09,77.07,76.99,76.92,76.86,76.82,76.79,76.75,76.76,76.79,76.79,76.24,75.23,74.31,74.00,74.09,74.51,74.97,75.36,75.81,76.27,76.61,76.81,76.83,76.79,76.75,76.69,76.61,76.64,76.77,76.82,76.75,76.62
80.67,80.66,80.65,80.63,80.57,80.56,80.55,80.54,80.54,80.56,80.54,80.50,80.48,80.49,80.53,80.57,80.59,80.57,80.57,80.55,80.52,80.50,80.49,80.44,80.39,80.37,80.41,80.44,80.40,80.32,80.22,80.16,80.09,80.00,79.91,79.86,79.83,79.77,79.71,79.67,79.66,79.65,79.62,79.60,79.62,79.66,79.67,79.65,79.62,79.64,79.69,79.72,79.71,79.69,79.73,79.76,79.78,79.82,79.82,79.80,79.76,79.71,79.59,79.45,79.35,79.31,79.30,79.30,79.28,79.26,79.28,79.23,79.10,78.95,78.78,78.65,78.56,78.44,78.30,78.15,78.04,78.00,77.94,77.82,77.61,77.44,77.30,77.20,77.14,77.18,77.26,77.33,77.33,77.05,76.94,76.93,77.00,77.11,77.10,77.04,76.97,76.88,76.82,76.83,76.88,76.93,76.95,76.91,76.99,77.21,77.47,77.63,77.76,77.85,77.88,77.89,77.89,77.89,77.87,77.85,77.74,77.60,77.43,77.23,77.01,77.75,78.96,80.09,80.27,79.84,78.81,77.51,76.82,76.70,76.63,76.64,76.78,76.86,76.66,76.15,75.32,74.25,72.83,71.87,71.45,71.37,71.19,71.01,70.88,70.79,70.65,70.60,70.56,70.51,70.49,70.49,70.53,70.57,70.56,70.53,70.51,70.48,70.44,70.44,70.47,70.47,70.46,70.49,70.39,70.23,70.14,70.21,70.39,70.42,70.45,70.53,70.61,70.68,70.75,70.85,71.00,71.31,71.66,72.21,73.05,74.22,75.07,75.54,75.71,75.77,75.76,75.77,75.80,75.86,75.99,76.10,76.18,76.24,76.31,76.40,76.50,76.61,76.70,76.72,76.78,76.85,76.91,76.95,77.06,77.19,77.31,77.38,77.43,77.44,77.41,77.35,77.29,77.24,77.21,77.20,77.19,77.16,77.13,77.09,77.07,76.99,76.93,76.89,76.87,76.83,76.76,76.74,76.77,76.75,76.45,75.72,74.82,74.07,74.03,74.24,74.57,74.97,75.47,76.01,76.46,76.74,76.80,76.76,76.71,76.66,76.62,76.69,76.79,76.80,76.73,76.63
80.65,80.64,80.64,80.65,80.63,80.62,80.62,80.61,80.61,80.61,80.57,80.52,80.49,80.51,80.57,80.62,80.63,80.59,80.59,80.58,80.55,80.53,80.51,80.43,80.37,80.36,80.39,80.42,80.41,80.34,80.25,80.19,80.12,80.03,79.93,79.86,79.84,79.78,79.73,79.70,79.70,79.69,79.67,79.66,79.70,79.76,79.76,79.71,79.67,79.68,79.73,79.77,79.78,79.76,79.79,79.82,79.86,79.90,79.90,79.89,79.87,79.82,79.61,79.43,79.33,79.30,79.30,79.29,79.26,79.24,79.24,79.24,79.16,79.04,78.89,78.77,78.72,78.65,78.55,78.41,78.30,78.25,78.20,78.10,77.92,77.67,77.47,77.36,77.34,77.37,77.42,77.46,77.43,77.15,77.05,77.07,77.14,77.27,77.28,77.25,77.18,77.09,76.99,76.97,77.00,77.04,77.05,77.02,77.09,77.29,77.60,77.79,77.93,78.02,78.02,78.01,77.97,77.94,77.91,77.90,77.84,77.73,77.58,77.39,77.18,78.29,79.59,80.21,80.31,79.84,78.81,77.54,76.81,76.69,76.67,76.72,76.88,76.89,76.75,76.33,75.60,74.77,73.44,72.25,71.48,71.39,71.21,71.08,70.99,70.91,70.73,70.63,70.55,70.51,70.55,70.55,70.57,70.58,70.55,70.50,70.49,70.48,70.43,70.43,70.46,70.47,70.46,70.47,70.28,70.12,70.07,70.16,70.32,70.33,70.36,70.45,70.53,70.59,70.68,70.79,70.94,71.18,71.46,71.92,72.61,73.50,74.35,74.99,75.45,75.84,75.84,75.83,75.84,75.89,75.97,76.06,76.14,76.20,76.27,76.34,76.44,76.53,76.61,76.64,76.70,76.77,76.85,76.92,77.02,77.12,77.20,77.28,77.33,77.35,77.34,77.31,77.23,77.21,77.20,77.19,77.17,77.14,77.12,77.10,77.06,76.99,76.94,76.91,76.89,76.83,76.75,76.72,76.74,76.73,76.60,76.16,75.39,74.41,74.02,74.03,74.24,74.60,75.15,75.76,76.30,76.67,76.79,76.76,76.72,76.68,76.67,76.75,76.82,76.81,76.75,76.67
80.60,80.60,80.62,80.66,80.70,80.70,80.70,80.70,80.69,80.66,80.59,80.53,80.51,80.54,80.62,80.65,80.64,80.60,80.60,80.60,80.60,80.58,80.52,80.40,80.35,80.34,80.35,80.38,80.40,80.36,80.29,80.25,80.19,80.09,79.97,79.86,79.82,79.78,79.74,79.71,79.71,79.70,79.70,79.71,79.75,79.79,79.78,79.75,79.71,79.71,79.75,79.81,79.87,79.86,79.87,79.91,79.97,80.00,80.00,80.02,80.04,79.99,79.71,79.46,79.32,79.29,79.29,79.28,79.26,79.22,79.20,79.24,79.21,79.11,78.99,78.94,78.98,79.00,78.97,78.86,78.71,78.60,78.53,78.52,78.42,78.05,77.75,77.60,77.59,77.58,77.59,77.58,77.50,77.23,77.15,77.16,77.21,77.33,77.37,77.42,77.44,77.34,77.22,77.15,77.13,77.13,77.13,77.13,77.16,77.30,77.71,77.91,78.04,78.09,78.05,78.02,78.00,77.98,77.94,77.91,77.90,77.85,77.75,77.60,77.42,78.80,80.14,80.30,80.34,79.74,78.60,77.30,76.74,76.66,76.68,76.80,77.00,76.94,76.98,76.84,76.36,75.65,74.37,72.77,71.46,71.36,71.25,71.17,71.12,71.06,70.87,70.68,70.57,70.54,70.59,70.60,70.58,70.55,70.50,70.47,70.48,70.48,70.45,70.46,70.52,70.53,70.49,70.44,70.19,70.03,69.99,70.07,70.18,70.21,70.27,70.38,70.45,70.49,70.59,70.73,70.92,71.13,71.34,71.61,71.98,72.45,73.20,74.04,74.93,75.86,75.90,75.88,75.89,75.96,76.01,76.07,76.13,76.18,76.25,76.30,76.37,76.44,76.50,76.55,76.62,76.70,76.80,76.90,76.98,77.03,77.08,77.15,77.18,77.22,77.25,77.26,77.17,77.18,77.19,77.17,77.14,77.12,77.12,77.11,77.03,77.00,76.96,76.92,76.87,76.80,76.73,76.70,76.70,76.70,76.71,76.55,76.01,74.96,74.04,73.87,73.98,74.24,74.83,75.51,76.15,76.62,76.80,76.79,76.76,76.73,76.73,76.81,76.85,76.85,76.81,76.73
80.61,80.61,80.63,80.66,80.70,80.70,80.70,80.70,80.69,80.66,80.58,80.51,80.50,80.57,80.63,80.65,80.64,80.64,80.63,80.61,80.61,80.60,80.54,80.41,80.33,80.30,80.32,80.33,80.32,80.30,80.26,80.22,80.17,80.09,79.99,79.91,79.89,79.84,79.80,79.78,79.77,79.74,79.72,79.72,79.76,79.82,79.83,79.80,79.75,79.76,79.80,79.86,79.91,79.92,79.93,79.94,79.97,79.99,79.99,79.99,80.00,79.97,79.77,79.54,79.42,79.38,79.34,79.33,79.33,79.32,79.28,79.27,79.26,79.21,79.12,79.09,79.12,79.11,79.03,78.89,78.79,78.68,78.58,78.50,78.38,78.08,77.84,77.69,77.61,77.56,77.59,77.63,77.64,77.38,77.24,77.22,77.28,77.38,77.40,77.45,77.51,77.48,77.41,77.32,77.26,77.23,77.23,77.24,77.25,77.34,77.67,77.90,78.08,78.16,78.10,78.05,78.02,78.00,77.97,77.94,77.94,77.92,77.86,77.72,77.51,78.87,80.20,80.37,80.39,79.37,78.13,77.10,76.77,76.67,76.72,76.86,77.05,77.06,77.12,77.10,76.89,76.25,74.69,72.87,71.45,71.29,71.22,71.19,71.17,71.14,71.00,70.78,70.64,70.58,70.53,70.52,70.50,70.50,70.54,70.52,70.50,70.50,70.49,70.43,70.46,70.47,70.44,70.37,70.12,70.00,70.00,70.07,70.13,70.14,70.22,70.33,70.37,70.40,70.50,70.68,70.93,71.15,71.33,71.50,71.69,71.93,72.34,73.00,74.04,75.71,75.88,75.90,75.92,75.99,76.05,76.09,76.15,76.22,76.29,76.38,76.46,76.51,76.54,76.57,76.63,76.70,76.76,76.86,76.93,76.99,77.03,77.08,77.13,77.18,77.22,77.21,77.14,77.14,77.15,77.13,77.11,77.12,77.13,77.11,77.01,76.99,76.95,76.91,76.87,76.81,76.76,76.72,76.70,76.70,76.69,76.62,76.34,75.70,74.64,74.06,73.88,74.03,74.51,75.26,75.93,76.43,76.71,76.81,76.80,76.76,76.75,76.79,76.86,76.88,76.86,76.81
80.63,80.63,80.65,80.68,80.70,80.70,80.70,80.70,80.69,80.66,80.58,80.52,80.52,80.62,80.65,80.64,80.63,80.65,80.64,80.63,80.63,80.61,80.55,80.42,80.32,80.28,80.30,80.28,80.25,80.23,80.20,80.17,80.13,80.07,79.99,79.94,79.93,79.90,79.86,79.83,79.81,79.77,79.75,79.74,79.78,79.83,79.85,79.83,79.78,79.79,79.84,79.89,79.93,79.94,79.95,79.95,79.95,79.96,79.96,79.95,79.94,79.94,79.82,79.65,79.57,79.54,79.47,79.45,79.47,79.46,79.38,79.34,79.34,79.31,79.24,79.20,79.23,79.19,79.09,78.95,78.88,78.78,78.66,78.52,78.35,78.08,77.87,77.75,77.64,77.57,77.60,77.67,77.70,77.49,77.33,77.29,77.36,77.44,77.45,77.51,77.59,77.63,77.60,77.51,77.42,77.37,77.37,77.37,77.36,77.40,77.64,77.90,78.10,78.20,78.14,78.10,78.06,78.04,78.03,78.00,78.00,78.01,77.96,77.81,77.59,78.92,80.24,80.44,80.45,79.08,77.76,76.96,76.78,76.70,76.77,76.92,77.08,77.15,77.20,77.25,77.22,76.70,74.95,73.00,71.51,71.22,71.20,71.20,71.20,71.19,71.08,70.83,70.66,70.58,70.46,70.45,70.44,70.46,70.56,70.55,70.52,70.52,70.53,70.44,70.44,70.43,70.39,70.25,70.05,69.97,69.99,70.06,70.08,70.11,70.19,70.28,70.30,70.33,70.44,70.63,70.88,71.09,71.26,71.39,71.51,71.63,71.81,72.31,73.40,75.48,75.82,75.91,75.94,76.02,76.07,76.11,76.16,76.24,76.32,76.43,76.52,76.59,76.61,76.62,76.66,76.71,76.75,76.82,76.90,76.95,76.99,77.03,77.09,77.14,77.17,77.16,77.09,77.10,77.12,77.12,77.10,77.10,77.11,77.09,76.99,76.97,76.94,76.90,76.85,76.79,76.76,76.73,76.70,76.70,76.67,76.67,76.58,76.28,75.28,74.38,73.88,73.87,74.19,74.89,75.53,76.05,76.43,76.66,76.77,76.79,76.78,76.80,76.86,76.90,76.89,76.85
