66.06,66.08,66.07,66.02,65.91,65.48,65.43,65.44,65.42,65.42,65.41,65.43,65.45,65.42,65.36,65.35,65.32,65.23,65.15,65.06,64.95,64.78,64.50,64.55,64.60,64.62,64.62,64.62,64.67,64.70,64.71,64.78,64.77,64.78,64.78,64.74,64.67,64.68,64.70,64.67,64.56,64.51,64.50,64.50,64.51,64.47,64.45,64.45,64.43,64.51,64.56,64.54,64.43,64.25,64.21,64.17,64.11,64.00,63.99,63.91,63.77,63.62,63.66,63.67,63.66,63.65,63.67,63.67,63.67,63.66,63.66,63.69,63.70,63.71,63.73,63.69,63.67,63.65,63.64,63.68,63.75,63.80,63.83,63.89,63.91,63.93,63.96,64.00,64.01,63.98,63.94,63.87,63.81,63.75,63.71,63.67,63.66,63.72,63.84,63.92,63.95,63.95,63.96,63.95,63.87,63.74,63.70,63.69,63.65,63.55,63.36,63.34,63.38,63.48,63.61,63.68,63.71,63.72,63.72,63.74,63.77,63.72,63.59,63.37,63.14,62.92,62.79,62.77,62.83,62.85,62.85,62.82,62.78,62.76,62.75,62.74,62.74,62.76,62.75,62.80,62.92,62.92,62.83,62.78,62.81,62.85,62.92,62.96,62.94,62.88,62.74,62.61,62.49,62.38,62.23,62.19,62.26,62.39,62.50,62.56,62.63,62.70,62.76,62.82,62.73,62.64,62.62,62.80,62.92,63.00,63.06,63.10,63.10,63.10,63.10,63.10,63.10,63.10,63.10,63.10,63.10,63.10,63.10,63.10,63.10,63.10,63.10,63.10,63.10,63.10,63.10,63.10,63.10,63.10,63.10,63.10,63.10,63.10,63.10,63.10,63.10,63.10,63.10,63.10,63.10,63.10,63.10,63.10,63.10,63.10,63.10,63.10,63.10,63.10,63.10,63.10,63.13,63.18,63.23,63.27,63.30,63.30,63.29,63.29,63.30,63.17,63.00,62.84,62.74,62.74,62.45,62.28,e,e,e,e,62.39,63.09,63.85,63.66,62.75,61.51,60.99,60.74,60.38,59.87,59.31,58.91,59.12,59.52,59.76,59.75,59.69,59.61,59.53,59.53
66.01,66.01,66.00,65.96,65.87,65.29,65.20,65.28,65.37,65.38,65.34,65.36,65.41,65.41,65.33,65.31,65.28,65.22,65.18,65.11,64.99,64.81,64.54,64.58,64.61,64.62,64.62,64.60,64.64,64.68,64.68,64.70,64.70,64.73,64.75,64.74,64.67,64.66,64.66,64.63,64.52,64.49,64.48,64.47,64.46,64.40,64.37,64.34,64.29,64.36,64.40,64.37,64.27,64.15,64.08,64.02,63.94,63.83,63.83,63.78,63.71,63.64,63.67,63.67,63.67,63.68,63.71,63.71,63.71,63.71,63.72,63.74,63.73,63.74,63.77,63.74,63.74,63.75,63.76,63.82,63.90,63.94,63.97,63.99,64.02,64.05,64.07,64.08,64.08,64.06,64.02,63.95,63.87,63.78,63.69,63.63,63.61,63.66,63.78,63.88,63.92,63.93,63.95,63.92,63.83,63.71,63.72,63.73,63.68,63.55,63.35,63.34,63.44,63.59,63.75,63.78,63.75,63.72,63.69,63.72,63.77,63.77,63.71,63.54,63.28,63.03,62.84,62.74,62.74,62.74,62.73,62.71,62.72,62.77,62.78,62.78,62.77,62.79,62.78,62.80,62.88,62.87,62.80,62.78,62.80,62.83,62.86,62.88,62.88,62.84,62.72,62.63,62.56,62.47,62.30,62.18,62.21,62.34,62.44,62.51,62.56,62.60,62.61,62.64,62.59,62.58,62.68,62.95,63.06,63.10,63.10,63.10,63.10,63.10,63.10,63.10,63.10,63.10,63.10,63.10,63.10,63.10,63.10,63.10,63.10,63.10,63.10,63.10,63.10,63.10,63.10,63.10,63.10,63.10,63.10,63.10,63.10,63.10,63.10,63.10,63.10,63.10,63.10,63.10,63.10,63.10,63.10,63.10,63.10,63.10,63.10,63.10,63.10,63.10,63.10,63.10,63.10,63.13,63.17,63.21,63.26,63.28,63.25,63.21,63.22,62.97,62.83,62.72,62.61,62.67,62.57,62.47,e,e,e,e,62.16,62.56,63.51,63.83,63.34,62.16,61.20,60.95,60.57,59.99,59.30,58.80,58.78,59.14,59.69,59.75,59.68,59.59,59.50,59.42
65.93,65.93,65.93,65.92,65.87,65.33,65.20,65.25,65.32,65.33,65.31,65.32,65.33,65.33,65.26,65.23,65.22,65.20,65.20,65.13,65.01,64.82,64.59,64.59,64.64,64.68,64.67,64.61,64.61,64.62,64.62,64.62,64.62,64.63,64.66,64.71,64.64,64.61,64.58,64.51,64.39,64.40,64.42,64.42,64.40,64.29,64.22,64.15,64.00,64.06,64.03,64.00,63.97,63.93,63.81,63.72,63.66,63.65,63.70,63.71,63.71,63.71,63.77,63.78,63.78,63.78,63.79,63.79,63.79,63.79,63.79,63.78,63.75,63.75,63.80,63.81,63.87,63.94,64.00,64.06,64.09,64.11,64.09,64.03,64.08,64.09,64.10,64.10,64.10,64.10,64.08,64.02,63.92,63.77,63.66,63.59,63.58,63.61,63.76,63.88,63.95,63.99,63.98,63.91,63.81,63.72,63.75,63.75,63.69,63.56,63.40,63.37,63.44,63.59,63.73,63.76,63.73,63.67,63.63,63.67,63.73,63.76,63.73,63.56,63.36,63.18,63.00,62.80,62.72,62.71,62.70,62.71,62.77,62.85,62.86,62.84,62.80,62.80,62.79,62.78,62.77,62.74,62.71,62.72,62.76,62.76,62.78,62.76,62.72,62.65,62.64,62.60,62.56,62.52,62.44,62.27,62.25,62.34,62.41,62.44,62.52,62.58,62.61,62.60,62.57,62.60,62.74,62.97,63.07,63.10,63.10,63.10,63.10,63.10,63.10,63.10,63.10,63.10,63.10,63.10,63.10,63.10,63.10,63.10,63.10,63.10,63.10,63.10,63.10,63.10,63.10,63.10,63.10,63.10,63.10,63.10,63.10,63.10,63.10,63.10,63.10,63.10,63.10,63.10,63.10,63.10,63.10,63.10,63.10,63.10,63.10,63.10,63.10,63.10,63.10,63.10,63.10,63.10,63.11,63.13,63.19,63.24,63.16,63.04,63.03,62.69,62.56,62.55,62.60,62.65,62.61,62.47,62.28,e,e,e,e,62.27,63.04,63.72,63.78,63.02,61.58,61.06,60.76,60.34,59.49,59.05,58.58,58.69,59.63,59.73,59.66,59.60,59.55,59.38
65.75,65.75,65.75,65.75,65.72,65.35,65.26,65.27,65.30,65.26,65.25,65.25,65.25,65.25,65.21,65.17,65.15,65.14,65.10,65.06,64.96,64.79,64.61,64.60,64.64,64.69,64.68,64.61,64.60,64.60,64.59,64.59,64.56,64.55,64.54,64.54,64.54,64.51,64.46,64.41,64.29,64.28,64.27,64.23,64.19,64.13,64.09,64.04,63.93,63.92,63.90,63.88,63.88,63.86,63.80,63.76,63.75,63.78,63.81,63.81,63.81,63.82,63.85,63.85,63.85,63.84,63.84,63.80,63.81,63.83,63.85,63.88,63.90,63.93,63.97,63.99,64.02,64.07,64.12,64.14,64.13,64.12,64.10,64.07,64.11,64.09,64.07,64.06,64.08,64.08,64.06,64.00,63.90,63.74,63.62,63.55,63.56,63.58,63.72,63.86,63.96,64.03,64.04,63.98,63.89,63.82,63.82,63.78,63.71,63.63,63.49,63.43,63.47,63.58,63.67,63.67,63.66,63.66,63.68,63.73,63.75,63.70,63.59,63.36,63.19,63.04,62.91,62.77,62.71,62.69,62.68,62.69,62.74,62.82,62.86,62.86,62.83,62.81,62.77,62.73,62.68,62.66,62.65,62.69,62.74,62.80,62.85,62.79,62.69,62.61,62.61,62.54,62.49,62.46,62.41,62.27,62.21,62.21,62.25,62.34,62.46,62.58,62.64,62.66,62.59,62.56,62.65,62.93,63.06,63.10,63.10,63.10,63.10,63.10,63.10,63.10,63.10,63.10,63.10,63.10,63.10,63.10,63.10,63.10,63.10,63.10,63.10,63.10,63.10,63.10,63.10,63.10,63.10,63.10,63.10,63.10,63.10,63.10,63.10,63.10,63.10,63.10,63.10,63.10,63.10,63.10,63.10,63.10,63.10,63.10,63.10,63.10,63.10,63.10,63.10,63.10,63.10,63.10,63.10,63.11,63.14,63.05,62.93,62.83,62.81,62.64,62.53,62.52,62.63,62.66,62.62,62.52,62.40,e,e,e,e,e,62.62,63.33,63.79,63.55,62.29,61.33,60.84,60.56,59.99,59.36,58.78,58.73,59.40,59.57,59.58,59.56,59.51,59.31
65.57,65.56,65.56,65.56,65.54,65.36,65.30,65.29,65.27,65.20,65.19,65.18,65.17,65.17,65.15,65.10,65.06,65.05,64.99,64.97,64.90,64.77,64.64,64.61,64.64,64.68,64.68,64.60,64.58,64.57,64.54,64.55,64.50,64.47,64.44,64.38,64.43,64.40,64.35,64.33,64.21,64.18,64.15,64.09,64.03,64.02,64.00,63.98,63.93,63.87,63.86,63.86,63.86,63.86,63.84,63.85,63.88,63.93,63.92,63.91,63.90,63.90,63.91,63.91,63.90,63.89,63.90,63.85,63.86,63.89,63.93,64.00,64.07,64.11,64.13,64.14,64.15,64.17,64.18,64.14,64.08,64.05,64.05,64.07,64.11,64.07,64.02,64.01,64.04,64.04,64.01,63.95,63.86,63.71,63.58,63.52,63.53,63.55,63.68,63.83,63.98,64.06,64.08,64.03,63.97,63.92,63.89,63.80,63.73,63.68,63.57,63.48,63.49,63.56,63.61,63.61,63.63,63.68,63.75,63.79,63.75,63.62,63.40,63.14,62.98,62.88,62.81,62.76,62.71,62.67,62.65,62.65,62.68,62.76,62.84,62.87,62.85,62.81,62.75,62.67,62.61,62.60,62.61,62.65,62.73,62.86,62.91,62.81,62.67,62.60,62.57,62.47,62.40,62.38,62.35,62.27,62.19,62.13,62.12,62.24,62.39,62.54,62.66,62.72,62.62,62.53,62.56,62.83,63.01,63.09,63.10,63.10,63.10,63.10,63.10,63.10,63.10,63.10,63.10,63.10,63.10,63.10,63.10,63.10,63.10,63.10,63.10,63.10,63.10,63.10,63.10,63.10,63.10,63.10,63.10,63.10,63.10,63.10,63.10,63.10,63.10,63.10,63.10,63.10,63.10,63.10,63.10,63.10,63.10,63.10,63.10,63.10,63.10,63.10,63.10,63.10,63.10,63.10,63.10,63.10,63.10,62.92,62.76,62.66,62.63,62.64,62.55,62.52,62.65,62.68,62.61,62.53,62.45,e,e,e,e,e,62.23,62.95,63.62,63.91,63.05,61.73,60.99,60.72,60.46,59.70,59.09,58.88,59.18,59.39,59.50,59.53,59.48,59.30
65.47,65.41,65.41,65.41,65.37,65.32,65.27,65.24,65.21,65.15,65.13,65.10,65.07,65.07,65.00,64.97,64.96,64.94,64.92,64.89,64.84,64.78,64.71,64.65,64.63,64.64,64.64,64.56,64.54,64.50,64.42,64.46,64.45,64.42,64.38,64.35,64.36,64.32,64.28,64.25,64.19,64.17,64.15,64.12,64.10,64.07,64.04,64.02,64.01,64.00,63.99,63.99,63.99,63.96,63.93,63.92,63.94,63.95,63.95,63.94,63.92,63.91,63.93,63.93,63.93,63.95,64.01,64.04,64.03,64.03,64.07,64.14,64.19,64.20,64.18,64.18,64.19,64.19,64.13,63.97,63.86,63.82,63.86,63.95,64.03,63.99,63.94,63.93,63.93,63.92,63.90,63.85,63.79,63.67,63.55,63.48,63.48,63.52,63.63,63.81,63.99,64.07,64.05,64.02,63.99,63.96,63.91,63.82,63.74,63.66,63.55,63.49,63.50,63.55,63.60,63.66,63.71,63.76,63.79,63.80,63.68,63.47,63.20,62.97,62.82,62.80,62.82,62.83,62.74,62.67,62.62,62.59,62.59,62.69,62.81,62.87,62.85,62.81,62.71,62.61,62.56,62.57,62.57,62.61,62.72,62.90,62.87,62.73,62.60,62.55,62.47,62.37,62.29,62.27,62.30,62.31,62.31,62.27,62.13,62.15,62.25,62.42,62.62,62.70,62.65,62.58,62.54,62.61,62.87,63.03,63.10,63.10,63.10,63.10,63.10,63.10,63.10,63.10,63.10,63.10,63.10,63.10,63.10,63.10,63.10,63.10,63.10,63.10,63.10,63.10,63.10,63.10,63.10,63.10,63.10,63.10,63.10,63.10,63.10,63.10,63.10,63.10,63.10,63.10,63.10,63.10,63.10,63.10,63.10,63.10,63.10,63.10,63.10,63.10,63.10,63.10,63.10,63.10,63.10,63.10,63.10,63.04,62.88,62.69,62.62,62.61,62.59,62.58,62.62,62.68,62.54,62.39,62.29,62.38,61.43,61.05,e,e,e,62.72,63.22,63.96,63.75,62.44,61.36,60.78,60.71,60.12,59.52,59.14,59.12,59.24,59.49,59.58,59.50,59.50
65.47,65.42,65.40,65.39,65.35,65.33,65.30,65.26,65.22,65.18,65.15,65.11,65.08,65.08,65.00,64.98,64.96,64.92,64.92,64.89,64.87,64.83,64.76,64.70,64.68,64.68,64.68,64.62,64.59,64.54,64.47,64.48,64.48,64.46,64.42,64.39,64.38,64.35,64.31,64.28,64.25,64.23,64.21,64.18,64.16,64.13,64.11,64.08,64.06,64.06,64.06,64.05,64.04,64.02,64.00,63.99,64.00,64.02,64.01,64.01,64.01,63.98,63.97,63.98,64.03,64.11,64.17,64.18,64.16,64.14,64.18,64.23,64.26,64.24,64.18,64.17,64.10,64.01,63.90,63.74,63.62,63.59,63.67,63.84,63.93,63.91,63.88,63.86,63.85,63.83,63.82,63.81,63.78,63.68,63.55,63.47,63.45,63.49,63.56,63.70,63.86,63.94,63.89,63.86,63.83,63.82,63.78,63.72,63.66,63.59,63.51,63.50,63.53,63.57,63.63,63.71,63.76,63.77,63.77,63.70,63.52,63.31,63.10,62.89,62.76,62.76,62.83,62.89,62.84,62.75,62.64,62.56,62.53,62.61,62.68,62.71,62.68,62.66,62.59,62.52,62.49,62.50,62.48,62.50,62.56,62.68,62.63,62.54,62.46,62.42,62.34,62.29,62.29,62.33,62.40,62.41,62.37,62.31,62.21,62.13,62.17,62.31,62.49,62.65,62.68,62.72,62.77,62.70,62.76,62.90,63.04,63.10,63.10,63.10,63.10,63.10,63.10,63.10,63.10,63.10,63.10,63.10,63.10,63.10,63.10,63.10,63.10,63.10,63.10,63.10,63.10,63.10,63.10,63.10,63.10,63.10,63.10,63.10,63.10,63.10,63.10,63.10,63.10,63.10,63.10,63.10,63.10,63.10,63.10,63.10,63.10,63.10,63.10,63.10,63.10,63.10,63.10,63.10,63.10,63.10,63.10,63.09,62.98,62.81,62.65,62.60,62.59,62.57,62.54,62.56,62.44,62.30,62.22,62.30,61.63,61.37,e,e,e,62.38,62.79,63.62,63.98,63.09,61.93,61.00,60.84,60.44,59.89,59.35,58.99,59.14,59.30,59.42,59.51,59.64
65.53,65.50,65.47,65.44,65.40,65.36,65.35,65.31,65.26,65.25,65.22,65.18,65.15,65.15,65.08,65.05,65.02,64.96,64.95,64.95,64.93,64.89,64.81,64.76,64.75,64.76,64.75,64.72,64.68,64.64,64.60,64.56,64.56,64.53,64.49,64.46,64.46,64.43,64.39,64.36,64.36,64.32,64.29,64.25,64.21,64.20,64.18,64.15,64.11,64.11,64.10,64.08,64.05,64.07,64.07,64.06,64.06,64.11,64.11,64.12,64.12,64.08,64.01,64.04,64.16,64.32,64.33,64.30,64.27,64.25,64.25,64.28,64.30,64.25,64.14,64.12,63.93,63.74,63.59,63.51,63.39,63.38,63.51,63.74,63.82,63.83,63.81,63.80,63.78,63.76,63.77,63.80,63.79,63.71,63.56,63.45,63.43,63.46,63.47,63.55,63.66,63.72,63.66,63.61,63.59,63.58,63.57,63.55,63.52,63.48,63.45,63.51,63.56,63.62,63.69,63.77,63.77,63.76,63.73,63.56,63.31,63.16,63.06,62.87,62.74,62.75,62.84,62.94,62.97,62.86,62.70,62.54,62.50,62.52,62.51,62.48,62.44,62.43,62.42,62.41,62.41,62.41,62.38,62.35,62.33,62.33,62.32,62.32,62.30,62.25,62.22,62.24,62.34,62.49,62.58,62.51,62.39,62.29,62.32,62.14,62.12,62.19,62.32,62.57,62.68,62.89,63.10,62.95,62.67,62.73,62.94,63.10,63.10,63.10,63.10,63.10,63.10,63.10,63.10,63.10,63.10,63.10,63.10,63.10,63.10,63.10,63.10,63.10,63.10,63.10,63.10,63.10,63.10,63.10,63.10,63.10,63.10,63.10,63.10,63.10,63.10,63.10,63.10,63.10,63.10,63.10,63.10,63.10,63.10,63.10,63.10,63.10,63.10,63.10,63.10,63.10,63.10,63.10,63.10,63.10,63.10,63.10,63.07,62.96,62.72,62.60,62.56,62.52,62.45,62.39,62.32,62.25,62.20,62.18,61.94,61.82,e,e,e,62.07,62.38,63.07,63.93,63.68,62.59,61.33,60.91,60.71,60.23,59.55,58.85,59.06,59.04,59.19,59.52,59.73
65.52,65.48,65.47,65.45,65.42,65.36,65.31,65.27,65.24,65.24,65.23,65.18,65.14,65.14,65.06,65.03,65.02,64.98,64.94,64.90,64.88,64.86,64.80,64.75,64.73,64.73,64.73,64.72,64.67,64.63,64.61,64.54,64.53,64.52,64.50,64.49,64.45,64.42,64.40,64.39,64.39,64.37,64.33,64.28,64.25,64.26,64.25,64.23,64.22,64.26,64.23,64.20,64.19,64.20,64.21,64.21,64.22,64.27,64.24,64.23,64.20,64.13,64.02,64.05,64.22,64.43,64.42,64.34,64.32,64.31,64.27,64.24,64.22,64.12,63.93,63.82,63.71,63.61,63.50,63.44,63.38,63.38,63.48,63.70,63.79,63.81,63.80,63.80,63.79,63.79,63.79,63.80,63.79,63.70,63.53,63.42,63.41,63.42,63.41,63.42,63.45,63.49,63.44,63.42,63.40,63.40,63.44,63.40,63.28,63.15,63.25,63.46,63.61,63.69,63.76,63.79,63.78,63.75,63.72,63.53,63.25,63.09,63.02,62.87,62.75,62.77,62.87,62.98,62.97,62.89,62.75,62.59,62.52,62.61,62.64,62.61,62.52,62.46,62.42,62.41,62.45,62.48,62.49,62.47,62.43,62.37,62.34,62.34,62.33,62.31,62.33,62.39,62.46,62.53,62.57,62.49,62.43,62.38,62.32,62.13,62.03,62.05,62.18,62.37,62.52,62.70,62.87,62.92,62.71,62.68,62.80,63.02,63.08,63.10,63.10,63.10,63.10,63.10,63.10,63.10,63.10,63.10,63.10,63.10,63.10,63.10,63.10,63.10,63.10,63.10,63.10,63.10,63.10,63.10,63.10,63.10,63.10,63.10,63.10,63.10,63.10,63.10,63.10,63.10,63.10,63.10,63.10,63.10,63.10,63.10,63.10,63.10,63.10,63.10,63.10,63.10,63.10,63.10,63.10,63.10,63.10,63.10,63.09,63.02,62.80,62.58,62.41,62.35,62.39,62.34,62.29,62.24,62.19,62.16,62.08,61.75,61.30,e,e,e,e,62.57,63.50,63.76,63.17,62.07,61.05,60.84,60.61,60.05,59.11,59.08,59.18,59.33,59.52,59.76
65.48,65.44,65.43,65.43,65.39,65.34,65.28,65.24,65.22,65.20,65.19,65.15,65.09,65.09,65.04,65.00,64.98,64.96,64.90,64.86,64.82,64.80,64.77,64.73,64.72,64.72,64.74,64.75,64.72,64.68,64.64,64.61,64.61,64.60,64.58,64.56,64.54,64.53,64.51,64.49,64.49,64.48,64.44,64.39,64.38,64.38,64.38,64.36,64.35,64.39,64.37,64.34,64.34,64.37,64.35,64.34,64.35,64.37,64.33,64.31,64.27,64.19,64.05,64.04,64.19,64.42,64.47,64.41,64.37,64.34,64.25,64.17,64.12,64.00,63.80,63.64,63.59,63.53,63.45,63.38,63.36,63.36,63.44,63.63,63.76,63.80,63.80,63.79,63.77,63.76,63.75,63.72,63.67,63.57,63.47,63.40,63.39,63.39,63.38,63.37,63.35,63.36,63.38,63.39,63.38,63.35,63.41,63.38,63.26,63.14,63.26,63.42,63.54,63.64,63.80,63.79,63.78,63.76,63.71,63.48,63.16,62.99,62.94,62.84,62.75,62.78,62.89,63.02,63.00,62.94,62.82,62.68,62.60,62.70,62.74,62.70,62.59,62.48,62.41,62.41,62.49,62.55,62.57,62.56,62.51,62.43,62.38,62.37,62.37,62.35,62.39,62.45,62.52,62.57,62.57,62.50,62.47,62.44,62.33,62.19,62.04,61.99,62.08,62.22,62.40,62.57,62.71,62.84,62.72,62.64,62.69,62.90,63.04,63.09,63.10,63.10,63.10,63.10,63.10,63.10,63.10,63.10,63.10,63.10,63.10,63.10,63.10,63.10,63.10,63.10,63.10,63.10,63.10,63.10,63.10,63.10,63.10,63.10,63.10,63.10,63.10,63.10,63.10,63.10,63.10,63.10,63.10,63.10,63.10,63.10,63.10,63.10,63.10,63.10,63.10,63.10,63.10,63.10,63.10,63.10,63.10,63.10,63.10,63.05,62.88,62.53,62.28,62.21,62.32,62.31,62.28,62.24,62.20,62.19,62.16,61.84,61.51,e,e,e,e,62.20,62.97,63.66,63.59,62.77,61.41,60.98,60.82,60.43,59.56,59.13,59.35,59.51,59.55,59.93
65.42,65.36,65.36,65.37,65.32,65.31,65.25,65.21,65.19,65.13,65.11,65.07,65.02,65.01,65.00,64.96,64.92,64.90,64.82,64.81,64.77,64.72,64.71,64.70,64.71,64.73,64.79,64.81,64.85,64.82,64.72,64.79,64.79,64.79,64.77,64.70,64.77,64.78,64.75,64.69,64.69,64.68,64.65,64.59,64.59,64.59,64.58,64.55,64.49,64.50,64.50,64.50,64.51,64.56,64.50,64.47,64.46,64.40,64.39,64.38,64.33,64.25,64.10,64.00,64.07,64.28,64.48,64.51,64.44,64.32,64.19,64.05,63.99,63.91,63.76,63.61,63.57,63.52,63.43,63.32,63.31,63.33,63.40,63.55,63.74,63.79,63.79,63.77,63.71,63.67,63.63,63.55,63.38,63.30,63.36,63.41,63.38,63.37,63.40,63.39,63.37,63.37,63.52,63.58,63.55,63.46,63.50,63.50,63.49,63.50,63.51,63.38,63.33,63.45,63.79,63.78,63.77,63.76,63.70,63.41,63.05,62.85,62.81,62.79,62.75,62.80,62.91,63.05,63.06,63.02,62.93,62.81,62.76,62.79,62.80,62.75,62.66,62.50,62.40,62.41,62.53,62.62,62.62,62.60,62.56,62.52,62.45,62.41,62.39,62.37,62.38,62.43,62.52,62.61,62.57,62.54,62.52,62.47,62.36,62.33,62.18,62.05,62.02,62.13,62.32,62.50,62.63,62.70,62.70,62.62,62.59,62.72,62.95,63.06,63.10,63.10,63.10,63.10,63.10,63.10,63.10,63.10,63.10,63.10,63.10,63.10,63.10,63.10,63.10,63.10,63.10,63.10,63.10,63.10,63.10,63.10,63.10,63.10,63.10,63.10,63.10,63.10,63.10,63.10,63.10,63.10,63.10,63.10,63.10,63.10,63.10,63.10,63.10,63.10,63.10,63.10,63.10,63.10,63.10,63.10,63.10,63.10,63.10,63.07,62.97,62.47,62.18,62.11,62.23,62.28,62.29,62.26,62.22,62.26,62.19,62.07,61.96,e,e,e,e,61.99,62.33,63.37,63.82,63.41,62.04,61.12,60.85,60.70,60.23,59.23,59.56,59.73,59.62,60.25
65.53,65.52,65.50,65.45,65.40,65.33,65.31,65.31,65.31,65.25,65.23,65.20,65.19,65.23,65.16,65.09,65.05,65.06,65.09,65.04,65.08,65.10,64.73,64.80,64.92,64.98,64.93,65.10,65.06,64.99,64.97,65.02,64.99,64.97,64.95,64.89,64.95,64.96,64.94,64.90,64.79,64.80,64.79,64.76,64.72,64.71,64.66,64.60,64.58,64.57,64.58,64.58,64.57,64.60,64.52,64.48,64.46,64.40,64.40,64.36,64.31,64.26,64.13,64.00,63.99,64.12,64.33,64.32,64.19,64.06,64.04,64.01,63.99,63.93,63.80,63.58,63.53,63.49,63.44,63.39,63.33,63.33,63.38,63.50,63.58,63.62,63.62,63.58,63.51,63.39,63.35,63.34,63.29,63.22,63.34,63.43,63.41,63.45,63.43,63.44,63.48,63.48,63.60,63.65,63.65,63.60,63.58,63.56,63.55,63.56,63.54,63.37,63.29,63.40,63.76,63.73,63.72,63.72,63.68,63.40,63.03,62.83,62.78,62.76,62.74,62.77,62.85,62.99,63.05,63.05,63.01,62.96,62.93,62.94,62.89,62.78,62.63,62.48,62.39,62.41,62.53,62.64,62.64,62.61,62.55,62.52,62.48,62.51,62.55,62.55,62.45,62.45,62.55,62.69,62.72,62.67,62.59,62.50,62.38,62.38,62.28,62.13,61.97,61.94,62.08,62.30,62.54,62.67,62.64,62.64,62.65,62.64,62.79,62.96,63.07,63.10,63.10,63.10,63.10,63.10,63.10,63.10,63.10,63.10,63.10,63.10,63.10,63.10,63.10,63.10,63.10,63.10,63.10,63.10,63.10,63.10,63.10,63.10,63.10,63.10,63.10,63.10,63.10,63.10,63.10,63.10,63.10,63.10,63.10,63.10,63.10,63.10,63.10,63.10,63.10,63.10,63.10,63.10,63.10,63.10,63.10,63.10,63.02,62.87,62.67,62.31,62.14,62.10,62.15,62.15,62.24,62.26,62.22,62.28,62.18,62.13,62.06,61.80,e,e,e,e,62.07,62.85,63.54,63.71,62.91,61.64,61.05,60.82,60.57,59.59,59.81,59.97,59.91,60.29
65.64,65.68,65.63,65.54,65.48,65.37,65.37,65.41,65.43,65.38,65.35,65.33,65.36,65.43,65.32,65.25,65.23,65.26,65.35,65.28,65.37,65.43,64.76,64.94,65.15,65.22,65.08,65.32,65.22,65.12,65.16,65.19,65.13,65.10,65.09,65.04,65.09,65.08,65.08,65.08,64.88,64.88,64.89,64.87,64.80,64.80,64.72,64.64,64.63,64.61,64.64,64.64,64.60,64.61,64.54,64.48,64.44,64.40,64.38,64.33,64.28,64.25,64.15,64.01,63.94,63.97,64.14,64.11,63.97,63.85,63.92,63.98,63.98,63.93,63.82,63.59,63.53,63.49,63.46,63.45,63.36,63.32,63.34,63.40,63.39,63.41,63.39,63.35,63.33,63.23,63.22,63.27,63.32,63.26,63.37,63.45,63.44,63.51,63.45,63.48,63.57,63.60,63.66,63.70,63.71,63.70,63.64,63.61,63.59,63.58,63.53,63.39,63.32,63.42,63.71,63.68,63.67,63.67,63.65,63.39,63.03,62.83,62.78,62.74,62.73,62.74,62.79,62.89,62.98,63.02,63.05,63.07,63.07,63.06,62.96,62.80,62.61,62.46,62.38,62.40,62.52,62.63,62.63,62.59,62.52,62.49,62.48,62.57,62.67,62.67,62.50,62.48,62.57,62.74,62.84,62.80,62.67,62.51,62.37,62.35,62.29,62.14,61.92,61.79,61.85,62.09,62.41,62.62,62.56,62.64,62.71,62.62,62.64,62.85,63.02,63.10,63.10,63.10,63.10,63.10,63.10,63.10,63.10,63.10,63.10,63.10,63.10,63.10,63.10,63.10,63.10,63.10,63.10,63.10,63.10,63.10,63.10,63.10,63.10,63.10,63.10,63.10,63.10,63.10,63.10,63.10,63.10,63.10,63.10,63.10,63.10,63.10,63.10,63.10,63.10,63.10,63.10,63.10,63.10,63.09,63.08,63.05,62.90,62.66,62.37,62.18,62.10,62.09,62.10,62.04,62.18,62.25,62.24,62.29,62.18,62.17,62.11,61.85,e,e,e,e,61.91,62.40,63.16,63.82,63.64,62.26,61.34,60.90,60.79,60.01,59.93,59.97,59.98,60.14
65.69,65.69,65.66,65.59,65.49,65.41,65.40,65.44,65.50,65.47,65.42,65.39,65.40,65.48,65.43,65.40,65.42,65.47,65.44,65.41,65.46,65.41,64.76,65.16,65.35,65.33,65.21,65.30,65.19,65.11,65.12,65.16,65.12,65.12,65.13,65.09,65.10,65.08,65.10,65.17,64.93,64.89,64.88,64.84,64.80,64.82,64.76,64.67,64.64,64.62,64.63,64.63,64.60,64.63,64.61,64.52,64.41,64.39,64.35,64.29,64.23,64.20,64.15,64.03,63.93,63.89,63.96,63.98,63.92,63.88,63.92,63.96,63.92,63.86,63.80,63.69,63.60,63.53,63.46,63.44,63.35,63.27,63.21,63.18,63.17,63.11,63.06,63.08,63.26,63.44,63.54,63.58,63.59,63.54,63.53,63.48,63.42,63.51,63.44,63.49,63.62,63.66,63.69,63.70,63.70,63.70,63.68,63.67,63.64,63.60,63.52,63.47,63.48,63.53,63.64,63.65,63.66,63.65,63.60,63.34,63.01,62.83,62.78,62.72,62.72,62.70,62.70,62.73,62.79,62.89,63.00,63.09,63.09,63.09,63.00,62.83,62.63,62.48,62.37,62.36,62.45,62.54,62.55,62.52,62.47,62.43,62.45,62.54,62.60,62.56,62.48,62.48,62.55,62.68,62.86,62.89,62.75,62.52,62.31,62.16,62.04,61.92,61.83,61.76,61.75,61.92,62.22,62.47,62.47,62.58,62.69,62.69,62.57,62.75,62.97,63.10,63.10,63.10,63.10,63.10,63.10,63.10,63.10,63.10,63.10,63.10,63.10,63.10,63.10,63.10,63.10,63.10,63.10,63.10,63.10,63.10,63.10,63.10,63.10,63.10,63.10,63.10,63.10,63.10,63.10,63.10,63.10,63.10,63.10,63.10,63.10,63.10,63.10,63.10,63.10,63.10,63.10,63.10,63.09,63.06,63.01,62.85,62.70,62.53,62.25,62.14,62.07,62.06,62.10,62.03,62.16,62.26,62.28,62.30,62.23,62.21,62.17,62.05,61.77,e,e,e,e,62.11,62.71,63.55,63.91,63.01,61.79,60.92,60.77,60.47,59.66,59.28,59.43,59.58
65.69,65.70,65.70,65.66,65.55,65.46,65.43,65.46,65.50,65.50,65.44,65.41,65.42,65.49,65.46,65.46,65.50,65.55,65.43,65.41,65.43,65.34,64.76,65.12,65.31,65.31,65.25,65.26,65.15,65.07,65.07,65.10,65.10,65.12,65.13,65.10,65.10,65.09,65.10,65.13,64.91,64.84,64.80,64.75,64.74,64.75,64.68,64.59,64.55,64.54,64.57,64.58,64.54,64.58,64.56,64.49,64.40,64.39,64.32,64.22,64.15,64.14,64.12,64.00,63.88,63.81,63.87,63.91,63.91,63.89,63.91,63.91,63.88,63.82,63.76,63.71,63.62,63.53,63.47,63.48,63.29,63.19,63.12,63.06,63.08,63.07,63.07,63.13,63.32,63.56,63.70,63.77,63.77,63.72,63.63,63.52,63.44,63.52,63.45,63.49,63.60,63.64,63.67,63.69,63.70,63.70,63.70,63.69,63.67,63.62,63.53,63.50,63.55,63.62,63.68,63.67,63.66,63.64,63.58,63.32,62.97,62.79,62.75,62.71,62.69,62.64,62.60,62.57,62.60,62.71,62.87,63.03,63.07,63.01,62.89,62.73,62.62,62.50,62.37,62.34,62.42,62.50,62.51,62.49,62.45,62.43,62.47,62.52,62.55,62.53,62.49,62.49,62.52,62.58,62.71,62.75,62.69,62.52,62.28,62.07,61.95,61.91,61.92,61.88,61.79,61.87,62.11,62.33,62.46,62.55,62.63,62.70,62.58,62.64,62.81,63.02,63.09,63.10,63.10,63.10,63.10,63.10,63.10,63.10,63.10,63.10,63.10,63.10,63.10,63.10,63.10,63.10,63.10,63.10,63.10,63.10,63.10,63.10,63.10,63.10,63.10,63.10,63.10,63.10,63.10,63.10,63.10,63.10,63.10,63.10,63.10,63.10,63.10,63.10,63.10,63.10,63.08,63.06,63.00,62.91,62.80,62.61,62.46,62.32,62.13,62.11,62.09,62.10,62.14,62.06,62.11,62.19,62.28,62.30,62.25,62.25,62.23,62.16,61.92,e,e,e,e,61.98,62.50,63.08,63.85,63.50,62.39,61.28,60.75,60.67,59.83,59.19,59.00,59.12
65.69,65.70,65.73,65.72,65.61,65.51,65.48,65.47,65.47,65.49,65.44,65.41,65.42,65.49,65.46,65.48,65.53,65.57,65.38,65.35,65.35,65.24,64.76,64.96,65.15,65.25,65.25,65.21,65.10,65.03,65.03,65.03,65.07,65.09,65.09,65.08,65.08,65.08,65.06,65.00,64.84,64.76,64.69,64.63,64.63,64.63,64.55,64.45,64.44,64.44,64.49,64.49,64.46,64.50,64.47,64.43,64.40,64.39,64.28,64.14,64.05,64.09,64.08,63.95,63.82,63.75,63.82,63.88,63.90,63.89,63.88,63.84,63.83,63.79,63.70,63.67,63.59,63.51,63.47,63.52,63.21,63.09,63.04,63.00,63.04,63.14,63.24,63.32,63.45,63.63,63.80,63.90,63.89,63.84,63.71,63.56,63.47,63.53,63.47,63.48,63.55,63.60,63.63,63.67,63.70,63.70,63.70,63.70,63.68,63.64,63.54,63.49,63.57,63.69,63.76,63.71,63.68,63.64,63.57,63.31,62.94,62.74,62.71,62.70,62.66,62.59,62.51,62.45,62.46,62.57,62.74,62.94,63.00,62.88,62.72,62.60,62.59,62.51,62.38,62.33,62.41,62.49,62.51,62.49,62.47,62.47,62.50,62.51,62.52,62.54,62.53,62.51,62.49,62.48,62.49,62.50,62.53,62.49,62.24,62.03,61.96,62.00,62.09,62.05,61.89,61.88,62.02,62.18,62.46,62.54,62.56,62.68,62.62,62.53,62.62,62.90,63.07,63.10,63.10,63.10,63.10,63.10,63.10,63.10,63.10,63.10,63.10,63.10,63.10,63.10,63.10,63.10,63.10,63.10,63.10,63.10,63.10,63.10,63.10,63.10,63.10,63.10,63.10,63.10,63.10,63.10,63.10,63.10,63.10,63.10,63.10,63.10,63.10,63.10,63.10,63.09,63.04,62.98,62.86,62.69,62.52,62.35,62.21,62.11,62.02,62.09,62.16,62.20,62.19,62.11,62.04,62.10,62.24,62.29,62.27,62.28,62.29,62.24,62.12,e,e,e,e,e,e,62.56,63.61,63.83,63.03,61.82,60.78,60.74,60.20,59.40,58.68,58.75
65.70,65.70,65.74,65.72,65.57,65.51,65.49,65.47,65.43,65.44,65.41,65.40,65.42,65.49,65.53,65.52,65.53,65.57,65.41,65.34,65.29,65.17,64.80,64.81,64.98,65.17,65.22,65.20,65.09,65.03,65.07,65.02,64.98,64.91,64.84,64.83,64.83,64.83,64.82,64.80,64.74,64.63,64.51,64.41,64.41,64.42,64.42,64.42,64.40,64.36,64.37,64.39,64.43,64.49,64.48,64.45,64.42,64.35,64.18,64.06,64.00,64.02,64.00,63.88,63.80,63.76,63.75,63.80,63.81,63.79,63.75,63.72,63.69,63.64,63.58,63.48,63.40,63.33,63.28,63.27,63.12,62.97,62.91,62.99,63.07,63.16,63.24,63.35,63.59,63.77,63.88,63.93,63.94,63.86,63.71,63.55,63.44,63.50,63.48,63.47,63.51,63.60,63.61,63.64,63.68,63.70,63.70,63.70,63.68,63.64,63.55,63.48,63.51,63.60,63.72,63.68,63.65,63.64,63.59,63.34,63.02,62.86,62.83,62.74,62.67,62.64,62.67,62.76,62.85,62.89,62.90,62.88,62.79,62.72,62.64,62.58,62.56,62.47,62.37,62.33,62.40,62.47,62.51,62.54,62.56,62.56,62.56,62.57,62.59,62.65,62.61,62.54,62.48,62.43,62.34,62.25,62.21,62.18,62.09,62.07,62.07,62.10,62.13,62.11,61.98,61.87,61.84,61.99,62.26,62.46,62.57,62.57,62.62,62.57,62.61,62.78,63.00,63.08,63.10,63.10,63.10,63.10,63.10,63.10,63.10,63.10,63.10,63.10,63.10,63.10,63.10,63.10,63.10,63.10,63.10,63.10,63.10,63.10,63.10,63.10,63.10,63.10,63.10,63.10,63.10,63.10,63.10,63.10,63.10,63.10,63.10,63.10,63.10,63.08,63.04,62.96,62.89,62.71,62.56,62.47,62.25,62.14,62.07,62.06,62.11,62.17,62.36,62.43,62.23,62.18,62.09,62.08,62.15,62.24,62.26,62.28,62.30,62.28,62.15,62.09,62.06,e,e,e,e,62.23,62.99,63.69,63.49,62.57,61.29,60.86,60.50,59.73,58.80,58.73
65.70,65.70,65.73,65.72,65.59,65.57,65.56,65.51,65.43,65.41,65.42,65.43,65.45,65.50,65.56,65.57,65.58,65.58,65.44,65.36,65.29,65.15,64.84,64.89,65.02,65.16,65.21,65.21,65.10,65.06,65.09,65.04,64.95,64.79,64.67,64.70,64.68,64.70,64.70,64.68,64.69,64.57,64.42,64.31,64.30,64.27,64.32,64.38,64.37,64.26,64.25,64.28,64.34,64.39,64.34,64.28,64.21,64.13,63.98,63.91,63.88,63.88,63.87,63.79,63.75,63.74,63.69,63.71,63.71,63.68,63.64,63.63,63.58,63.53,63.49,63.37,63.30,63.25,63.19,63.13,63.11,62.99,62.92,63.01,63.09,63.18,63.28,63.42,63.71,63.86,63.93,63.95,63.97,63.88,63.73,63.56,63.43,63.47,63.49,63.48,63.49,63.61,63.64,63.66,63.68,63.71,63.72,63.73,63.71,63.67,63.57,63.48,63.47,63.54,63.68,63.66,63.63,63.62,63.60,63.38,63.13,63.00,62.97,62.83,62.71,62.69,62.78,62.94,63.06,63.07,62.99,62.85,62.69,62.66,62.64,62.61,62.59,62.48,62.36,62.32,62.38,62.45,62.48,62.52,62.58,62.63,62.63,62.62,62.62,62.65,62.60,62.54,62.48,62.39,62.24,62.14,62.11,62.10,62.08,62.10,62.12,62.15,62.17,62.17,62.09,61.94,61.80,61.85,62.10,62.36,62.52,62.49,62.58,62.66,62.69,62.71,62.86,63.00,63.08,63.10,63.10,63.10,63.10,63.10,63.10,63.10,63.10,63.10,63.10,63.10,63.10,63.10,63.10,63.10,63.10,63.10,63.10,63.10,63.10,63.10,63.10,63.10,63.10,63.10,63.10,63.10,63.10,63.10,63.10,63.10,63.10,63.10,63.06,63.00,62.93,62.81,62.67,62.46,62.31,62.26,62.09,62.06,62.05,62.08,62.20,62.29,62.55,62.66,62.43,62.23,62.14,62.07,62.05,62.16,62.24,62.28,62.30,62.29,62.16,62.12,62.06,e,e,e,e,62.05,62.43,63.38,63.67,63.16,61.95,61.04,60.69,60.03,59.08,58.73
65.70,65.70,65.70,65.70,65.68,65.68,65.68,65.61,65.48,65.42,65.46,65.49,65.50,65.51,65.57,65.64,65.66,65.59,65.45,65.42,65.35,65.19,64.85,65.18,65.27,65.21,65.22,65.22,65.15,65.10,65.10,65.11,64.98,64.75,64.58,64.68,64.62,64.68,64.71,64.64,64.68,64.58,64.44,64.34,64.29,64.20,64.26,64.35,64.33,64.14,64.13,64.16,64.17,64.20,64.05,63.89,63.77,63.71,63.70,63.69,63.69,63.69,63.70,63.67,63.67,63.69,63.64,63.61,63.59,63.57,63.55,63.56,63.51,63.47,63.43,63.34,63.31,63.26,63.19,63.10,63.19,63.14,63.07,63.06,63.09,63.21,63.35,63.52,63.82,63.91,63.95,63.96,63.97,63.88,63.75,63.59,63.43,63.46,63.51,63.50,63.50,63.63,63.70,63.72,63.73,63.73,63.78,63.78,63.77,63.71,63.60,63.48,63.45,63.51,63.65,63.64,63.61,63.60,63.58,63.45,63.27,63.17,63.12,62.97,62.79,62.75,62.84,62.99,63.09,63.11,63.02,62.84,62.71,62.72,62.71,62.70,62.69,62.52,62.36,62.30,62.36,62.41,62.42,62.45,62.53,62.69,62.71,62.67,62.61,62.55,62.51,62.52,62.48,62.36,62.19,62.17,62.22,62.25,62.21,62.13,62.12,62.15,62.18,62.21,62.20,62.09,61.90,61.74,61.97,62.25,62.43,62.43,62.49,62.78,62.88,62.70,62.64,62.86,63.03,63.10,63.10,63.10,63.10,63.10,63.10,63.10,63.10,63.10,63.10,63.10,63.10,63.10,63.10,63.10,63.10,63.10,63.10,63.10,63.10,63.10,63.10,63.10,63.10,63.10,63.10,63.10,63.10,63.10,63.10,63.10,63.10,63.10,62.96,62.86,62.76,62.64,62.38,62.21,62.11,62.06,62.02,62.09,62.14,62.18,62.27,62.44,62.73,62.91,62.80,62.29,62.18,62.08,61.96,62.03,62.21,62.29,62.30,62.29,62.15,62.16,62.06,61.77,e,e,e,e,61.91,62.89,63.56,63.58,62.78,61.27,60.79,60.28,59.51,58.77
65.71,65.70,65.70,65.68,65.64,65.64,65.63,65.55,65.42,65.40,65.46,65.49,65.51,65.54,65.58,65.65,65.66,65.60,65.53,65.50,65.37,65.15,64.89,65.16,65.26,65.25,65.26,65.25,65.15,65.09,65.09,65.05,64.94,64.77,64.63,64.61,64.62,64.60,64.54,64.44,64.52,64.42,64.30,64.23,64.16,64.06,64.07,64.13,64.12,63.92,63.88,63.89,63.90,63.90,63.80,63.69,63.63,63.64,63.67,63.65,63.64,63.66,63.77,63.82,63.83,63.81,63.70,63.61,63.59,63.63,63.69,63.74,63.69,63.64,63.63,63.60,63.53,63.40,63.26,63.20,63.20,63.16,63.10,63.07,63.16,63.38,63.58,63.72,63.92,63.96,63.97,63.97,63.94,63.87,63.75,63.62,63.50,63.47,63.53,63.51,63.50,63.69,63.78,63.79,63.77,63.78,63.84,63.85,63.84,63.80,63.70,63.54,63.47,63.50,63.62,63.61,63.61,63.59,63.56,63.43,63.26,63.18,63.13,62.96,62.75,62.72,62.83,63.00,63.08,63.09,63.02,62.90,62.82,62.82,62.84,62.84,62.83,62.60,62.37,62.26,62.31,62.36,62.36,62.39,62.49,62.67,62.73,62.69,62.60,62.50,62.40,62.35,62.32,62.30,62.28,62.30,62.34,62.37,62.38,62.27,62.18,62.14,62.15,62.19,62.19,62.13,62.01,61.79,61.79,61.98,62.20,62.28,62.42,62.84,63.06,62.94,62.65,62.82,63.00,63.10,63.10,63.10,63.10,63.10,63.10,63.10,63.10,63.10,63.10,63.10,63.10,63.10,63.10,63.10,63.10,63.10,63.10,63.10,63.10,63.10,63.10,63.10,63.10,63.10,63.10,63.10,63.10,63.10,63.10,63.08,63.02,62.91,62.81,62.71,62.55,62.32,62.16,62.08,62.06,62.08,62.10,62.15,62.20,62.27,62.39,62.55,62.82,63.00,62.97,62.69,62.33,62.08,61.98,62.01,62.19,62.28,62.29,62.26,62.13,62.13,62.06,61.80,60.67,e,e,e,e,62.50,63.23,63.69,63.33,62.02,61.16,60.56,59.98,58.85
65.68,65.67,65.67,65.65,65.59,65.58,65.56,65.47,65.35,65.37,65.44,65.47,65.49,65.51,65.54,65.60,65.63,65.61,65.57,65.55,65.39,65.13,64.94,65.11,65.20,65.23,65.24,65.21,65.09,65.02,65.02,64.92,64.84,64.74,64.63,64.54,64.58,64.51,64.37,64.25,64.33,64.23,64.15,64.10,64.01,63.94,63.95,63.99,63.97,63.84,63.80,63.80,63.80,63.79,63.70,63.64,63.61,63.63,63.71,63.71,63.69,63.71,63.90,63.98,64.00,63.95,63.80,63.63,63.60,63.69,63.81,63.90,63.85,63.80,63.81,63.83,63.73,63.54,63.37,63.37,63.33,63.27,63.18,63.08,63.21,63.55,63.79,63.90,63.99,64.00,63.99,63.97,63.93,63.87,63.77,63.66,63.56,63.49,63.55,63.52,63.51,63.73,63.82,63.83,63.82,63.84,63.90,63.90,63.90,63.87,63.78,63.60,63.50,63.49,63.58,63.59,63.59,63.59,63.55,63.41,63.25,63.16,63.10,62.93,62.71,62.69,62.82,63.01,63.06,63.07,63.03,62.96,62.91,62.91,62.92,62.94,62.93,62.65,62.37,62.23,62.27,62.32,62.32,62.35,62.44,62.63,62.70,62.66,62.55,62.41,62.28,62.20,62.20,62.26,62.35,62.40,62.45,62.49,62.54,62.41,62.25,62.13,62.09,62.14,62.17,62.17,62.11,61.90,61.70,61.76,61.95,62.11,62.35,62.80,63.11,63.12,62.72,62.76,62.92,63.06,63.10,63.10,63.10,63.10,63.10,63.10,63.10,63.10,63.10,63.10,63.10,63.10,63.10,63.10,63.10,63.10,63.10,63.10,63.10,63.10,63.10,63.10,63.10,63.10,63.10,63.10,63.10,63.09,63.05,62.99,62.88,62.68,62.59,62.50,62.33,62.05,62.00,62.01,62.05,62.10,62.16,62.19,62.25,62.34,62.48,62.63,62.84,63.00,63.03,62.95,62.46,62.13,62.04,62.02,62.15,62.23,62.25,62.24,62.12,62.10,62.08,61.88,60.88,e,e,e,e,62.07,62.82,63.58,63.72,62.78,61.61,60.87,60.37,59.06
65.56,65.56,65.56,65.55,65.51,65.50,65.48,65.41,65.31,65.30,65.36,65.40,65.39,65.36,65.39,65.42,65.50,65.63,65.55,65.54,65.41,65.17,64.98,65.04,65.08,65.09,65.04,65.00,64.91,64.85,64.81,64.71,64.65,64.58,64.52,64.45,64.46,64.39,64.27,64.13,64.14,64.05,63.98,63.95,63.86,63.92,64.02,64.06,63.98,64.14,64.14,64.12,64.12,64.10,63.96,63.85,63.77,63.69,63.82,63.91,63.94,63.90,64.08,64.14,64.15,64.11,63.96,63.68,63.58,63.65,63.85,63.95,63.92,63.88,63.88,63.90,63.83,63.68,63.56,63.66,63.70,63.60,63.37,63.09,63.21,63.67,63.96,64.01,64.00,64.00,64.00,63.99,63.95,63.90,63.84,63.73,63.59,63.50,63.56,63.55,63.52,63.71,63.77,63.83,63.88,63.90,63.94,63.92,63.90,63.89,63.82,63.65,63.51,63.47,63.53,63.55,63.58,63.59,63.55,63.43,63.28,63.15,63.04,62.89,62.72,62.71,62.84,63.04,63.08,63.07,63.04,62.98,62.94,62.91,62.91,62.91,62.90,62.64,62.37,62.22,62.26,62.33,62.34,62.36,62.42,62.55,62.60,62.52,62.36,62.20,62.14,62.15,62.21,62.30,62.34,62.41,62.51,62.61,62.65,62.54,62.33,62.13,62.03,62.07,62.19,62.24,62.20,62.11,61.84,61.69,61.71,61.93,62.31,62.58,62.87,63.11,62.87,62.66,62.73,62.94,63.08,63.10,63.10,63.10,63.10,63.10,63.10,63.10,63.10,63.10,63.10,63.10,63.10,63.10,63.10,63.10,63.10,63.10,63.10,63.10,63.10,63.10,63.10,63.10,63.10,63.09,63.08,63.04,62.89,62.75,62.62,62.40,62.21,62.14,62.10,61.97,61.95,62.04,62.11,62.11,62.11,62.18,62.26,62.37,62.52,62.64,62.75,62.85,62.91,62.77,62.51,62.29,62.14,62.06,62.05,62.09,62.17,62.30,62.11,62.08,62.09,62.05,61.85,e,e,e,e,61.86,62.29,63.02,63.77,63.40,62.19,61.21,60.55,59.57
65.44,65.44,65.42,65.40,65.38,65.37,65.36,65.32,65.25,65.25,65.28,65.31,65.29,65.23,65.24,65.26,65.32,65.43,65.37,65.36,65.27,65.11,65.00,65.01,65.01,64.98,64.90,64.88,64.92,64.94,64.89,64.86,64.83,64.66,64.46,64.46,64.45,64.43,64.36,64.22,64.22,64.11,64.05,64.01,63.87,64.03,64.15,64.19,64.16,64.30,64.34,64.32,64.28,64.24,64.15,64.07,63.96,63.72,63.90,64.06,64.12,64.07,64.16,64.16,64.15,64.12,64.03,63.72,63.56,63.59,63.81,63.95,63.94,63.92,63.93,63.92,63.90,63.82,63.75,63.81,63.84,63.71,63.46,63.16,63.24,63.69,64.00,64.05,64.01,64.00,64.00,63.99,63.98,63.94,63.88,63.76,63.60,63.51,63.59,63.57,63.53,63.71,63.78,63.85,63.90,63.93,63.95,63.92,63.90,63.89,63.85,63.69,63.48,63.32,63.31,63.48,63.55,63.56,63.52,63.41,63.25,63.13,63.04,62.91,62.72,62.71,62.82,62.99,63.04,63.03,63.00,62.95,62.90,62.86,62.85,62.85,62.84,62.59,62.33,62.21,62.27,62.32,62.31,62.30,62.31,62.33,62.36,62.32,62.22,62.13,62.12,62.16,62.23,62.31,62.32,62.35,62.43,62.50,62.54,62.43,62.27,62.11,62.03,62.05,62.15,62.22,62.23,62.16,61.90,61.69,61.64,61.81,62.10,62.35,62.67,62.99,62.93,62.71,62.68,62.83,63.03,63.08,63.10,63.10,63.10,63.10,63.10,63.10,63.10,63.10,63.10,63.10,63.10,63.10,63.10,63.10,63.10,63.10,63.10,63.10,63.10,63.10,63.10,63.10,63.07,63.02,62.97,62.86,62.68,62.51,62.34,62.14,62.01,62.00,62.03,61.99,61.97,62.04,62.09,62.10,62.10,62.20,62.33,62.45,62.57,62.63,62.68,62.74,62.81,62.68,62.51,62.35,62.23,62.16,62.09,62.05,62.07,62.15,62.16,62.13,62.11,62.12,62.22,e,e,e,e,61.80,62.05,62.57,63.49,63.66,62.79,61.75,60.84,60.09
65.33,65.33,65.29,65.26,65.26,65.26,65.25,65.23,65.21,65.21,65.23,65.23,65.20,65.13,65.13,65.13,65.14,65.18,65.16,65.15,65.10,65.02,64.99,64.99,64.96,64.90,64.82,64.83,65.01,65.11,65.07,65.14,65.14,64.80,64.41,64.48,64.48,64.53,64.51,64.38,64.37,64.26,64.18,64.13,63.92,64.17,64.29,64.32,64.38,64.40,64.45,64.45,64.38,64.32,64.30,64.27,64.13,63.74,63.95,64.16,64.25,64.20,64.19,64.14,64.11,64.10,64.05,63.77,63.56,63.52,63.73,63.92,63.94,63.94,63.97,63.93,63.96,63.94,63.90,63.90,63.87,63.73,63.50,63.23,63.27,63.68,63.98,64.06,64.02,64.02,64.01,64.00,64.00,63.99,63.91,63.78,63.61,63.51,63.59,63.58,63.54,63.72,63.82,63.87,63.91,63.93,63.95,63.92,63.90,63.90,63.87,63.71,63.42,63.15,63.07,63.43,63.52,63.52,63.50,63.37,63.19,63.11,63.07,62.93,62.73,62.69,62.77,62.90,62.96,62.97,62.94,62.88,62.82,62.79,62.78,62.77,62.76,62.53,62.29,62.20,62.28,62.29,62.26,62.22,62.17,62.09,62.10,62.11,62.12,62.11,62.14,62.19,62.24,62.29,62.29,62.27,62.28,62.32,62.35,62.24,62.15,62.09,62.07,62.05,62.10,62.19,62.24,62.14,61.91,61.71,61.63,61.71,61.83,62.12,62.48,62.81,62.94,62.80,62.69,62.71,62.94,63.06,63.10,63.10,63.10,63.10,63.10,63.10,63.10,63.10,63.10,63.10,63.10,63.10,63.10,63.10,63.10,63.10,63.10,63.10,63.10,63.10,63.09,63.08,63.01,62.91,62.81,62.62,62.45,62.27,62.07,61.90,61.90,61.97,62.04,62.05,62.02,62.03,62.05,62.09,62.11,62.25,62.41,62.54,62.62,62.59,62.61,62.66,62.71,62.63,62.49,62.37,62.30,62.26,62.16,62.05,61.97,61.96,62.24,62.21,62.12,62.13,62.33,61.66,61.32,e,e,e,61.83,62.18,63.05,63.73,63.36,62.37,61.19,60.57
65.38,65.38,65.37,65.38,65.42,65.42,65.35,65.29,65.28,65.32,65.33,65.28,65.20,65.17,65.16,65.17,65.18,65.19,65.19,65.14,65.07,64.98,64.86,64.89,64.93,64.98,65.01,65.06,65.13,65.17,65.17,65.24,65.18,64.78,64.36,64.43,64.48,64.50,64.47,64.40,64.35,64.26,64.17,64.07,63.87,64.13,64.27,64.31,64.34,64.38,64.40,64.41,64.39,64.37,64.31,64.25,64.12,63.79,63.91,64.07,64.18,64.20,64.19,64.16,64.18,64.22,64.14,63.83,63.59,63.51,63.61,63.81,63.87,63.90,63.92,63.94,63.93,63.91,63.90,63.90,63.88,63.74,63.47,63.14,63.24,63.63,63.94,64.08,64.09,64.07,64.04,64.02,64.02,64.02,63.96,63.81,63.60,63.47,63.50,63.50,63.52,63.70,63.84,63.89,63.90,63.91,63.92,63.91,63.90,63.90,63.87,63.71,63.40,63.12,63.08,63.47,63.56,63.55,63.52,63.35,63.19,63.12,63.08,62.94,62.72,62.66,62.70,62.81,62.87,62.93,62.92,62.84,62.72,62.69,62.67,62.65,62.61,62.44,62.27,62.20,62.26,62.29,62.26,62.20,62.15,62.09,62.09,62.10,62.11,62.12,62.13,62.13,62.14,62.16,62.17,62.18,62.21,62.24,62.24,62.17,62.16,62.15,62.13,62.06,62.11,62.17,62.16,62.01,61.82,61.71,61.65,61.62,61.67,61.90,62.23,62.58,62.78,62.76,62.67,62.61,62.73,62.95,63.06,63.10,63.10,63.10,63.10,63.10,63.10,63.10,63.10,63.10,63.10,63.10,63.10,63.10,63.10,63.10,63.10,63.10,63.10,63.08,63.03,62.95,62.86,62.70,62.47,62.34,62.22,62.09,61.97,61.90,61.96,62.07,62.14,62.10,62.03,62.01,62.02,62.06,62.16,62.33,62.43,62.48,62.50,62.49,62.52,62.56,62.58,62.60,62.46,62.36,62.33,62.25,62.16,62.12,62.07,61.99,62.29,62.32,62.22,62.13,62.27,62.03,61.90,e,e,e,61.74,61.90,62.38,63.43,63.56,62.93,61.80,60.73
65.46,65.47,65.47,65.48,65.50,65.49,65.40,65.32,65.28,65.30,65.29,65.22,65.14,65.11,65.11,65.14,65.16,65.16,65.17,65.10,65.02,64.92,64.74,64.76,64.85,64.98,65.10,65.14,65.17,65.19,65.21,65.27,65.10,64.70,64.33,64.40,64.48,64.47,64.44,64.42,64.39,64.30,64.18,64.04,63.87,64.13,64.27,64.31,64.33,64.35,64.36,64.38,64.40,64.38,64.29,64.21,64.08,63.82,63.92,64.06,64.17,64.20,64.20,64.22,64.26,64.30,64.25,63.99,63.76,63.60,63.55,63.73,63.82,63.85,63.87,63.92,63.91,63.90,63.90,63.90,63.87,63.70,63.41,63.09,63.23,63.65,63.98,64.12,64.14,64.11,64.08,64.05,64.03,64.03,63.99,63.84,63.61,63.45,63.46,63.48,63.52,63.68,63.85,63.90,63.90,63.90,63.89,63.89,63.89,63.89,63.86,63.70,63.39,63.10,63.07,63.42,63.44,63.38,63.36,63.26,63.10,63.00,62.93,62.82,62.67,62.61,62.63,62.70,62.75,62.80,62.80,62.71,62.58,62.55,62.53,62.49,62.44,62.34,62.23,62.17,62.21,62.23,62.20,62.15,62.11,62.07,62.09,62.10,62.11,62.11,62.10,62.07,62.05,62.04,62.07,62.10,62.13,62.15,62.14,62.12,62.15,62.18,62.16,62.07,62.10,62.12,62.08,61.93,61.79,61.72,61.68,61.62,61.60,61.79,62.06,62.34,62.61,62.65,62.65,62.63,62.64,62.84,63.00,63.09,63.10,63.10,63.10,63.10,63.10,63.10,63.10,63.10,63.10,63.10,63.10,63.10,63.10,63.10,63.10,63.10,63.06,62.99,62.91,62.72,62.60,62.43,62.19,62.13,62.07,62.01,61.97,61.96,62.04,62.14,62.19,62.15,62.07,62.04,62.03,62.04,62.13,62.28,62.36,62.37,62.40,62.41,62.46,62.50,62.49,62.55,62.40,62.32,62.32,62.21,62.12,62.16,62.17,62.02,62.19,62.33,62.30,62.11,62.19,62.21,62.09,e,e,e,61.70,61.76,61.96,62.97,63.52,63.36,62.49,61.15
65.57,65.59,65.59,65.57,65.51,65.49,65.40,65.31,65.23,65.17,65.13,65.07,65.01,64.96,64.97,65.04,65.09,65.09,65.10,65.03,64.94,64.83,64.61,64.61,64.73,64.92,65.09,65.10,65.14,65.18,65.20,65.23,64.91,64.56,64.33,64.40,64.48,64.43,64.39,64.46,64.49,64.39,64.22,64.03,63.92,64.16,64.28,64.31,64.35,64.31,64.33,64.37,64.39,64.35,64.24,64.14,64.01,63.82,63.96,64.11,64.20,64.20,64.22,64.30,64.34,64.35,64.37,64.24,64.05,63.81,63.54,63.69,63.77,63.81,63.82,63.86,63.89,63.90,63.90,63.90,63.85,63.63,63.33,63.08,63.25,63.73,64.08,64.19,64.19,64.15,64.11,64.08,64.04,64.04,64.00,63.86,63.63,63.46,63.47,63.49,63.54,63.69,63.85,63.90,63.90,63.90,63.88,63.87,63.87,63.87,63.84,63.69,63.38,63.09,63.03,63.30,63.19,63.04,63.05,63.08,62.93,62.75,62.61,62.59,62.58,62.56,62.54,62.57,62.60,62.61,62.57,62.49,62.40,62.38,62.35,62.31,62.26,62.20,62.15,62.12,62.12,62.11,62.09,62.06,62.05,62.06,62.10,62.11,62.11,62.10,62.07,62.01,61.96,61.94,61.98,62.01,62.05,62.08,62.06,62.09,62.14,62.17,62.16,62.09,62.06,62.05,62.01,61.89,61.81,61.76,61.72,61.68,61.60,61.77,61.95,62.09,62.42,62.48,62.64,62.77,62.65,62.73,62.91,63.06,63.10,63.10,63.10,63.10,63.10,63.10,63.10,63.10,63.10,63.10,63.10,63.10,63.10,63.10,63.10,63.10,62.98,62.82,62.73,62.40,62.23,62.11,61.98,61.99,62.00,62.03,62.07,62.08,62.14,62.18,62.20,62.19,62.12,62.10,62.07,62.02,62.02,62.13,62.19,62.23,62.30,62.37,62.44,62.47,62.42,62.48,62.33,62.26,62.26,62.13,62.05,62.18,62.28,62.04,61.95,62.27,62.35,62.05,62.09,62.22,61.99,61.59,e,e,e,e,61.77,62.35,63.25,63.66,63.25,61.79
65.60,65.61,65.60,65.58,65.54,65.51,65.42,65.33,65.25,65.08,65.08,65.03,64.93,64.84,64.88,64.91,64.90,64.86,64.90,64.88,64.84,64.75,64.53,64.55,64.70,64.92,65.12,65.08,65.06,65.07,65.09,65.05,64.74,64.46,64.32,64.36,64.47,64.42,64.38,64.43,64.46,64.40,64.23,64.00,63.88,64.10,64.26,64.36,64.40,64.38,64.38,64.38,64.38,64.32,64.23,64.13,64.00,63.82,63.95,64.11,64.22,64.24,64.26,64.36,64.42,64.41,64.38,64.28,64.15,63.91,63.52,63.61,63.73,63.82,63.85,63.87,63.89,63.90,63.90,63.90,63.84,63.61,63.32,63.11,63.30,63.78,64.09,64.15,64.15,64.13,64.08,64.04,64.03,64.06,64.02,63.89,63.65,63.46,63.47,63.51,63.55,63.69,63.84,63.87,63.85,63.85,63.86,63.86,63.85,63.84,63.83,63.71,63.43,63.15,63.08,63.19,63.11,63.00,62.97,62.96,62.85,62.72,62.61,62.58,62.57,62.53,62.48,62.47,62.46,62.46,62.44,62.40,62.34,62.33,62.32,62.30,62.27,62.25,62.29,62.35,62.41,62.33,62.21,62.09,62.01,62.00,61.99,61.99,61.99,61.98,61.99,61.97,61.94,61.91,61.93,61.94,61.97,62.01,62.02,62.04,62.06,62.08,62.10,62.06,62.10,62.06,61.96,61.88,61.90,61.88,61.84,61.77,61.70,61.68,61.73,61.86,62.07,62.30,62.65,62.93,62.83,62.69,62.81,62.98,63.09,63.10,63.10,63.10,63.10,63.10,63.10,63.10,63.10,63.10,63.10,63.10,63.09,63.07,63.01,62.87,62.72,62.55,62.36,62.20,62.11,62.03,61.96,62.02,62.04,62.07,62.10,62.11,62.17,62.22,62.26,62.27,62.20,62.15,62.07,61.99,61.99,62.04,62.12,62.18,62.23,62.29,62.37,62.41,62.40,62.41,62.25,62.17,62.16,62.10,62.07,62.22,62.36,62.25,62.03,62.12,62.15,62.03,62.08,62.24,62.17,61.91,61.44,e,e,e,e,61.98,62.77,63.40,63.47,62.60
65.47,65.50,65.49,65.46,65.41,65.38,65.30,65.23,65.16,64.95,64.98,64.93,64.82,64.72,64.77,64.76,64.72,64.67,64.72,64.72,64.71,64.65,64.46,64.50,64.67,64.90,65.10,65.02,64.96,64.94,64.95,64.87,64.60,64.39,64.29,64.33,64.45,64.42,64.38,64.40,64.44,64.41,64.24,63.97,63.86,64.08,64.27,64.39,64.44,64.44,64.43,64.41,64.39,64.29,64.22,64.14,64.01,63.83,63.95,64.10,64.22,64.24,64.27,64.38,64.43,64.42,64.39,64.30,64.19,63.97,63.54,63.57,63.70,63.82,63.87,63.87,63.89,63.90,63.90,63.90,63.85,63.63,63.35,63.14,63.33,63.82,64.10,64.12,64.14,64.12,64.08,64.04,64.04,64.07,64.04,63.89,63.65,63.46,63.48,63.51,63.56,63.68,63.81,63.83,63.80,63.81,63.83,63.84,63.83,63.81,63.82,63.71,63.46,63.21,63.16,63.17,63.11,63.04,62.99,62.94,62.86,62.78,62.70,62.64,62.59,62.53,62.49,62.46,62.43,62.40,62.41,62.41,62.37,62.36,62.35,62.35,62.34,62.34,62.42,62.54,62.63,62.51,62.30,62.13,62.03,61.99,61.99,61.98,61.96,61.93,61.95,61.95,61.92,61.89,61.88,61.89,61.91,61.96,62.01,62.00,62.00,62.02,62.06,62.04,62.10,62.04,61.92,61.87,61.96,61.98,61.92,61.85,61.80,61.66,61.60,61.68,61.81,62.13,62.57,62.93,62.94,62.69,62.71,62.86,63.04,63.09,63.10,63.10,63.10,63.10,63.10,63.10,63.10,63.10,63.09,63.08,63.05,62.98,62.89,62.64,62.45,62.29,62.07,62.05,62.03,62.00,61.99,62.06,62.07,62.09,62.13,62.17,62.22,62.28,62.33,62.34,62.28,62.21,62.10,61.98,61.98,61.99,62.06,62.14,62.16,62.22,62.28,62.34,62.37,62.32,62.17,62.09,62.09,62.07,62.12,62.24,62.35,62.32,62.08,62.01,62.00,62.02,62.09,62.24,62.28,62.10,61.56,e,e,e,e,61.70,62.37,63.05,63.55,63.24
65.06,65.17,65.17,65.09,64.99,64.97,64.92,64.87,64.84,64.75,64.76,64.71,64.63,64.58,64.61,64.60,64.58,64.55,64.57,64.54,64.51,64.49,64.41,64.43,64.62,64.85,64.98,64.89,64.82,64.78,64.76,64.69,64.51,64.34,64.25,64.31,64.40,64.41,64.40,64.41,64.47,64.43,64.24,63.98,63.90,64.15,64.33,64.42,64.49,64.49,64.48,64.47,64.43,64.25,64.21,64.17,64.09,63.89,63.98,64.11,64.18,64.15,64.22,64.30,64.34,64.35,64.39,64.30,64.17,63.96,63.65,63.61,63.68,63.79,63.87,63.83,63.88,63.90,63.90,63.90,63.88,63.74,63.47,63.14,63.35,63.83,64.11,64.13,64.18,64.17,64.13,64.09,64.09,64.09,64.04,63.87,63.61,63.45,63.48,63.51,63.56,63.66,63.76,63.76,63.76,63.79,63.80,63.81,63.81,63.80,63.80,63.66,63.43,63.26,63.32,63.31,63.24,63.18,63.16,63.13,63.06,63.00,62.94,62.82,62.66,62.61,62.62,62.63,62.57,62.54,62.56,62.60,62.58,62.52,62.49,62.48,62.48,62.48,62.53,62.61,62.66,62.53,62.32,62.18,62.13,62.12,62.18,62.19,62.14,62.01,61.97,61.93,61.90,61.87,61.83,61.84,61.88,61.95,62.03,62.02,62.02,62.03,62.06,62.05,62.02,61.95,61.87,61.86,61.96,61.99,61.96,61.88,61.92,61.78,61.63,61.57,61.75,61.96,62.29,62.66,62.92,62.74,62.62,62.67,62.91,63.06,63.10,63.10,63.10,63.10,63.10,63.10,63.10,63.10,63.07,63.02,62.92,62.78,62.70,62.40,62.18,62.06,61.97,61.99,62.00,62.02,62.06,62.09,62.05,62.08,62.17,62.27,62.33,62.38,62.41,62.42,62.36,62.28,62.18,62.05,62.00,62.00,62.04,62.10,62.11,62.15,62.20,62.25,62.30,62.19,62.08,62.04,62.06,62.05,62.19,62.23,62.18,62.11,62.03,62.00,62.01,62.05,62.12,62.19,62.22,62.14,61.90,e,e,e,e,e,62.07,62.61,63.42,63.54
64.88,64.93,64.91,64.86,64.79,64.76,64.74,64.74,64.72,64.63,64.64,64.63,64.59,64.57,64.52,64.53,64.56,64.56,64.57,64.52,64.48,64.45,64.32,64.35,64.54,64.76,64.83,64.79,64.72,64.67,64.66,64.58,64.43,64.29,64.24,64.35,64.43,64.48,64.50,64.50,64.54,64.45,64.22,63.95,63.91,64.15,64.34,64.46,64.50,64.53,64.51,64.45,64.36,64.22,64.20,64.16,64.08,63.91,63.99,64.11,64.16,64.12,64.19,64.26,64.30,64.30,64.31,64.27,64.13,63.93,63.77,63.68,63.66,63.73,63.82,63.79,63.86,63.89,63.88,63.86,63.85,63.73,63.48,63.18,63.39,63.85,64.11,64.12,64.18,64.15,64.11,64.07,64.04,64.03,63.96,63.81,63.60,63.45,63.48,63.52,63.57,63.68,63.73,63.74,63.74,63.76,63.77,63.79,63.79,63.78,63.73,63.55,63.38,63.33,63.46,63.42,63.35,63.29,63.26,63.21,63.17,63.12,63.05,62.88,62.68,62.65,62.71,62.74,62.70,62.66,62.67,62.69,62.68,62.62,62.59,62.58,62.57,62.55,62.59,62.64,62.65,62.53,62.34,62.26,62.30,62.37,62.41,62.43,62.39,62.29,62.21,62.12,62.03,61.96,61.91,61.90,61.90,61.91,61.93,61.92,61.93,61.95,61.97,61.96,61.91,61.90,61.93,61.95,61.96,61.96,61.95,61.92,61.96,61.89,61.75,61.61,61.65,61.83,62.08,62.32,62.44,62.50,62.51,62.59,62.77,62.99,63.07,63.10,63.10,63.10,63.10,63.09,63.07,63.03,62.94,62.83,62.68,62.51,62.43,62.23,62.08,62.01,62.00,62.00,62.00,62.01,62.03,62.04,62.02,62.07,62.19,62.32,62.40,62.44,62.46,62.44,62.39,62.34,62.25,62.14,62.15,62.07,62.04,62.07,62.09,62.14,62.17,62.21,62.23,62.11,62.07,62.06,62.08,62.16,62.20,62.16,62.08,62.03,62.06,62.05,62.04,62.06,62.18,62.20,62.19,62.14,62.06,e,e,e,e,e,61.80,62.23,62.99,63.50
64.80,64.75,64.72,64.71,64.70,64.64,64.66,64.68,64.68,64.55,64.58,64.60,64.60,64.60,64.47,64.51,64.59,64.60,64.61,64.55,64.51,64.44,64.23,64.27,64.47,64.67,64.70,64.69,64.64,64.60,64.59,64.51,64.37,64.26,64.24,64.40,64.49,64.58,64.63,64.62,64.62,64.48,64.20,63.92,63.91,64.13,64.35,64.48,64.49,64.56,64.52,64.41,64.28,64.21,64.18,64.14,64.05,63.91,64.00,64.11,64.15,64.11,64.17,64.23,64.26,64.26,64.23,64.23,64.08,63.91,63.88,63.74,63.65,63.66,63.76,63.76,63.83,63.86,63.84,63.81,63.81,63.68,63.45,63.23,63.45,63.86,64.09,64.10,64.14,64.11,64.07,64.02,63.96,63.95,63.88,63.76,63.60,63.45,63.48,63.52,63.58,63.70,63.71,63.73,63.74,63.74,63.75,63.77,63.77,63.74,63.65,63.43,63.34,63.38,63.56,63.50,63.44,63.39,63.32,63.26,63.23,63.19,63.09,62.87,62.68,62.68,62.77,62.81,62.80,62.77,62.75,62.75,62.75,62.70,62.67,62.64,62.63,62.61,62.63,62.65,62.62,62.53,62.37,62.34,62.44,62.61,62.62,62.63,62.64,62.60,62.50,62.35,62.21,62.10,62.04,62.00,61.96,61.90,61.85,61.83,61.85,61.87,61.86,61.84,61.81,61.89,62.03,62.07,61.97,61.94,61.95,61.96,61.98,62.00,61.91,61.71,61.56,61.71,61.90,62.00,61.91,62.18,62.41,62.56,62.64,62.87,63.02,63.09,63.10,63.10,63.09,63.05,62.98,62.89,62.75,62.60,62.42,62.25,62.16,62.09,62.04,62.02,62.05,62.03,62.02,62.00,61.98,61.97,61.98,62.06,62.19,62.35,62.45,62.49,62.49,62.45,62.42,62.38,62.32,62.25,62.36,62.19,62.07,62.06,62.12,62.17,62.18,62.18,62.19,62.06,62.08,62.10,62.11,62.25,62.18,62.08,62.02,62.02,62.11,62.11,62.07,62.05,62.20,62.21,62.18,62.14,62.15,61.76,e,e,e,e,61.62,61.90,62.47,63.25
64.79,64.78,64.78,64.76,64.71,64.68,64.65,64.65,64.67,64.60,64.60,64.61,64.60,64.61,64.53,64.55,64.60,64.62,64.65,64.59,64.51,64.40,64.23,64.29,64.45,64.61,64.68,64.65,64.62,64.60,64.58,64.49,64.35,64.24,64.23,64.41,64.55,64.67,64.71,64.68,64.69,64.51,64.23,63.96,63.91,64.14,64.34,64.45,64.46,64.51,64.48,64.40,64.31,64.23,64.17,64.13,64.07,63.91,64.02,64.09,64.12,64.10,64.12,64.14,64.17,64.20,64.21,64.18,64.04,63.90,63.86,63.75,63.64,63.62,63.72,63.80,63.82,63.82,63.81,63.79,63.74,63.63,63.45,63.22,63.44,63.75,63.95,64.01,64.05,64.08,64.04,63.98,63.92,63.91,63.85,63.75,63.61,63.47,63.48,63.52,63.58,63.70,63.74,63.77,63.78,63.78,63.79,63.77,63.73,63.65,63.54,63.33,63.27,63.35,63.53,63.48,63.46,63.43,63.36,63.29,63.26,63.16,62.95,62.66,62.62,62.70,62.80,62.84,62.82,62.80,62.78,62.78,62.78,62.74,62.70,62.66,62.65,62.65,62.67,62.66,62.62,62.58,62.43,62.36,62.40,62.57,62.64,62.69,62.71,62.68,62.58,62.47,62.36,62.27,62.20,62.18,62.13,62.08,62.02,61.99,61.95,61.89,61.84,61.79,61.80,61.93,62.13,62.16,62.06,62.06,62.07,62.02,62.04,62.11,62.07,61.86,61.59,61.59,61.74,61.91,61.94,62.03,62.34,62.57,62.59,62.65,62.87,63.03,63.10,63.10,63.01,62.84,62.64,62.47,62.35,62.32,62.26,62.14,62.07,62.07,62.05,62.02,62.02,62.05,62.06,62.03,61.95,61.92,61.99,62.08,62.20,62.34,62.44,62.49,62.48,62.43,62.41,62.37,62.37,62.46,62.65,62.46,62.24,62.16,62.32,62.38,62.27,62.17,62.18,62.10,62.06,62.06,62.09,62.10,62.06,62.06,62.08,62.13,62.17,62.17,62.09,61.96,62.00,62.13,62.18,62.18,62.19,61.96,61.60,61.25,e,e,e,e,61.96,62.60
64.78,64.78,64.79,64.78,64.72,64.72,64.68,64.66,64.68,64.63,64.64,64.63,64.63,64.66,64.59,64.58,64.61,64.64,64.65,64.58,64.49,64.38,64.23,64.30,64.42,64.54,64.63,64.65,64.62,64.60,64.57,64.52,64.34,64.21,64.21,64.44,64.60,64.70,64.73,64.70,64.73,64.59,64.31,64.00,63.91,64.16,64.35,64.44,64.46,64.49,64.46,64.40,64.32,64.24,64.18,64.15,64.10,63.93,64.01,64.08,64.11,64.10,64.10,64.12,64.15,64.18,64.17,64.12,63.97,63.83,63.83,63.77,63.65,63.59,63.66,63.77,63.78,63.79,63.80,63.78,63.72,63.64,63.47,63.23,63.43,63.69,63.88,63.97,64.01,64.06,64.03,63.97,63.92,63.92,63.86,63.76,63.63,63.51,63.54,63.56,63.58,63.71,63.76,63.79,63.80,63.80,63.79,63.75,63.66,63.55,63.42,63.24,63.21,63.32,63.50,63.48,63.47,63.45,63.38,63.33,63.28,63.14,62.89,62.58,62.62,62.73,62.83,62.83,62.82,62.81,62.81,62.81,62.79,62.75,62.73,62.71,62.69,62.68,62.68,62.66,62.62,62.59,62.45,62.35,62.37,62.55,62.66,62.74,62.75,62.72,62.61,62.52,62.44,62.37,62.31,62.29,62.26,62.21,62.17,62.20,62.16,62.05,61.90,61.82,61.80,61.94,62.15,62.19,62.08,62.07,62.07,62.01,61.99,62.06,62.04,61.87,61.63,61.55,61.64,61.81,61.93,61.98,62.23,62.49,62.60,62.58,62.79,62.90,62.87,62.83,62.73,62.57,62.39,62.21,62.09,62.11,62.12,62.07,62.04,62.09,62.09,62.05,62.02,62.05,62.06,62.03,61.97,61.92,61.98,62.11,62.26,62.32,62.43,62.45,62.42,62.37,62.38,62.31,62.31,62.43,62.64,62.43,62.27,62.23,62.29,62.42,62.32,62.19,62.18,62.20,62.10,62.04,62.05,62.02,62.02,62.07,62.14,62.18,62.20,62.19,62.12,62.01,61.96,62.13,62.21,62.20,62.18,62.06,61.74,61.33,e,e,e,e,61.72,62.07
64.75,64.76,64.78,64.77,64.72,64.74,64.71,64.70,64.69,64.65,64.68,64.67,64.67,64.73,64.64,64.61,64.63,64.68,64.62,64.52,64.44,64.37,64.23,64.31,64.39,64.47,64.55,64.66,64.64,64.59,64.56,64.59,64.34,64.17,64.19,64.49,64.64,64.70,64.70,64.70,64.73,64.72,64.45,64.03,63.91,64.19,64.37,64.46,64.50,64.50,64.47,64.40,64.33,64.25,64.21,64.19,64.14,63.96,64.00,64.09,64.14,64.10,64.11,64.15,64.18,64.19,64.11,64.07,63.87,63.71,63.77,63.79,63.68,63.58,63.58,63.69,63.73,63.77,63.80,63.78,63.73,63.67,63.52,63.26,63.43,63.68,63.87,63.97,64.00,64.06,64.04,63.98,63.97,63.96,63.90,63.78,63.64,63.57,63.63,63.62,63.59,63.73,63.78,63.80,63.80,63.80,63.78,63.71,63.59,63.44,63.29,63.16,63.17,63.29,63.49,63.49,63.48,63.44,63.39,63.35,63.29,63.14,62.89,62.58,62.67,62.78,62.84,62.81,62.80,62.82,62.84,62.84,62.77,62.75,62.76,62.78,62.74,62.71,62.68,62.64,62.61,62.58,62.44,62.34,62.34,62.53,62.69,62.77,62.77,62.70,62.59,62.52,62.48,62.43,62.36,62.35,62.34,62.32,62.29,62.44,62.46,62.32,62.05,61.91,61.83,61.92,62.11,62.17,62.05,62.00,61.99,61.94,61.86,61.89,61.87,61.75,61.67,61.56,61.58,61.70,61.86,61.99,62.11,62.32,62.65,62.64,62.79,62.72,62.47,62.34,62.29,62.27,62.22,62.09,61.96,61.96,62.00,62.04,62.07,62.15,62.16,62.12,62.04,62.03,62.02,62.01,62.00,61.94,61.96,62.13,62.35,62.30,62.40,62.39,62.32,62.29,62.33,62.23,62.16,62.21,62.38,62.18,62.19,62.27,62.08,62.34,62.33,62.22,62.19,62.34,62.18,62.03,61.99,62.01,62.05,62.13,62.19,62.18,62.20,62.16,62.15,62.17,62.05,62.20,62.25,62.19,62.13,62.05,61.98,61.43,60.26,e,e,e,e,61.62
64.75,64.73,64.76,64.77,64.72,64.76,64.76,64.75,64.74,64.72,64.71,64.69,64.70,64.77,64.66,64.59,64.59,64.64,64.58,64.51,64.46,64.40,64.24,64.29,64.38,64.47,64.52,64.62,64.60,64.55,64.52,64.55,64.33,64.17,64.18,64.48,64.64,64.70,64.70,64.71,64.75,64.73,64.44,64.01,63.91,64.19,64.33,64.38,64.41,64.48,64.45,64.36,64.26,64.22,64.21,64.17,64.09,63.94,63.99,64.05,64.07,64.05,64.05,64.08,64.14,64.20,64.16,64.12,63.93,63.76,63.80,63.87,63.74,63.60,63.54,63.63,63.70,63.75,63.76,63.70,63.74,63.68,63.51,63.28,63.53,63.80,63.97,64.05,64.07,64.13,64.12,64.08,64.03,63.98,63.91,63.81,63.69,63.60,63.69,63.66,63.59,63.73,63.77,63.76,63.74,63.76,63.76,63.67,63.58,63.48,63.31,63.19,63.22,63.35,63.50,63.48,63.45,63.41,63.37,63.33,63.29,63.23,63.11,62.86,62.73,62.76,62.84,62.83,62.83,62.84,62.82,62.79,62.73,62.74,62.76,62.79,62.77,62.73,62.70,62.67,62.66,62.63,62.50,62.40,62.40,62.59,62.77,62.84,62.82,62.73,62.64,62.57,62.52,62.48,62.45,62.44,62.44,62.43,62.42,62.50,62.48,62.34,62.08,61.96,61.93,61.95,61.97,61.95,61.94,61.93,61.92,61.89,61.83,61.81,61.79,61.76,61.72,61.61,61.53,61.54,61.71,61.92,62.03,62.22,62.53,62.55,62.52,62.41,62.25,62.18,62.15,62.16,62.15,62.07,62.02,62.04,62.10,62.14,62.10,62.15,62.18,62.16,62.12,62.11,62.09,62.07,62.06,61.99,61.95,62.07,62.28,62.33,62.45,62.39,62.26,62.18,62.19,62.14,62.10,62.12,62.20,62.09,62.18,62.32,62.17,62.18,62.17,62.13,62.08,62.14,62.08,62.01,61.99,62.06,62.07,62.15,62.20,62.12,62.17,62.16,62.16,62.16,62.09,62.11,62.13,62.15,62.17,62.12,62.09,61.77,61.08,e,e,e,e,61.62
64.75,64.72,64.75,64.76,64.72,64.77,64.79,64.79,64.78,64.78,64.74,64.73,64.73,64.77,64.66,64.58,64.55,64.57,64.52,64.49,64.48,64.43,64.24,64.26,64.33,64.42,64.46,64.53,64.49,64.45,64.43,64.44,64.28,64.15,64.17,64.43,64.61,64.68,64.70,64.70,64.73,64.68,64.39,64.00,63.93,64.19,64.31,64.31,64.31,64.43,64.42,64.34,64.23,64.20,64.19,64.14,64.05,63.92,63.98,64.01,64.03,64.02,64.01,64.02,64.09,64.17,64.15,64.11,63.94,63.78,63.82,63.90,63.76,63.60,63.51,63.56,63.65,63.71,63.71,63.66,63.73,63.67,63.49,63.29,63.58,63.87,64.05,64.10,64.13,64.17,64.18,64.15,64.07,64.00,63.93,63.84,63.72,63.62,63.71,63.67,63.58,63.70,63.74,63.72,63.69,63.71,63.73,63.66,63.59,63.53,63.37,63.22,63.25,63.39,63.49,63.47,63.43,63.39,63.36,63.30,63.28,63.27,63.23,63.02,62.73,62.72,62.81,62.82,62.82,62.82,62.79,62.74,62.71,62.72,62.74,62.76,62.75,62.71,62.68,62.66,62.66,62.65,62.53,62.44,62.45,62.63,62.79,62.86,62.84,62.74,62.67,62.61,62.56,62.53,62.50,62.48,62.48,62.49,62.50,62.52,62.45,62.29,62.08,62.01,62.03,62.01,61.94,61.87,61.89,61.88,61.86,61.85,61.81,61.75,61.74,61.78,61.78,61.67,61.54,61.47,61.58,61.81,61.94,62.12,62.37,62.44,62.32,62.20,62.11,62.07,62.06,62.07,62.08,62.06,62.04,62.05,62.07,62.08,62.02,62.09,62.14,62.15,62.14,62.14,62.12,62.10,62.08,62.04,61.98,62.03,62.19,62.36,62.51,62.42,62.22,62.11,62.10,62.08,62.07,62.07,62.07,62.03,62.16,62.32,62.23,62.09,62.06,62.06,62.03,62.01,62.02,62.01,62.00,62.12,62.11,62.21,62.29,62.17,62.18,62.16,62.15,62.14,62.11,62.06,62.06,62.10,62.17,62.16,62.16,62.03,61.72,e,e,e,e,61.64
64.76,64.73,64.75,64.76,64.72,64.77,64.79,64.80,64.80,64.80,64.78,64.78,64.77,64.73,64.64,64.56,64.49,64.45,64.43,64.47,64.49,64.45,64.24,64.22,64.23,64.27,64.33,64.35,64.30,64.25,64.24,64.24,64.16,64.11,64.15,64.31,64.54,64.66,64.70,64.69,64.64,64.51,64.27,64.00,63.99,64.21,64.30,64.28,64.23,64.31,64.37,64.36,64.27,64.21,64.15,64.08,64.01,63.91,63.98,64.01,64.03,64.06,64.01,64.01,64.05,64.09,64.03,64.01,63.87,63.75,63.81,63.85,63.71,63.57,63.50,63.46,63.56,63.61,63.64,63.69,63.69,63.61,63.45,63.28,63.55,63.86,64.06,64.13,64.17,64.15,64.16,64.15,64.08,64.01,63.96,63.86,63.72,63.63,63.64,63.60,63.55,63.62,63.68,63.67,63.65,63.67,63.71,63.67,63.63,63.59,63.48,63.25,63.25,63.37,63.45,63.45,63.41,63.38,63.36,63.27,63.23,63.22,63.17,62.95,62.64,62.65,62.74,62.72,62.75,62.74,62.72,62.70,62.71,62.68,62.67,62.67,62.66,62.61,62.59,62.59,62.60,62.60,62.51,62.45,62.47,62.62,62.73,62.79,62.79,62.73,62.68,62.63,62.60,62.56,62.51,62.46,62.45,62.47,62.50,62.48,62.34,62.17,62.05,62.07,62.09,62.11,62.10,62.03,61.95,61.87,61.82,61.82,61.78,61.73,61.74,61.82,61.83,61.77,61.67,61.56,61.48,61.62,61.82,62.02,62.17,62.29,62.24,62.16,62.09,62.04,62.02,62.01,62.02,62.03,61.99,61.91,61.81,61.74,61.78,61.91,62.00,62.05,62.06,62.06,62.05,62.05,62.05,62.10,62.06,62.03,62.08,62.35,62.59,62.47,62.21,62.10,62.10,62.08,62.08,62.09,62.03,62.02,62.11,62.22,62.21,62.10,62.05,62.03,62.04,62.01,62.02,62.02,62.03,62.15,62.19,62.35,62.49,62.42,62.22,62.13,62.11,62.11,62.10,62.11,62.07,62.05,62.13,62.17,62.19,62.15,61.98,61.11,e,e,e,e
64.69,64.72,64.73,64.72,64.69,64.72,64.73,64.72,64.69,64.69,64.66,64.64,64.63,64.60,64.52,64.49,64.45,64.37,64.36,64.38,64.37,64.30,64.18,64.20,64.21,64.24,64.27,64.24,64.16,64.11,64.12,64.16,64.19,64.16,64.15,64.29,64.55,64.67,64.69,64.66,64.61,64.45,64.22,64.00,64.00,64.22,64.30,64.28,64.24,64.29,64.35,64.33,64.23,64.19,64.18,64.15,64.07,63.91,63.98,64.00,64.02,64.04,63.99,64.00,64.02,64.03,64.01,64.01,63.88,63.76,63.80,63.79,63.70,63.60,63.54,63.43,63.49,63.54,63.57,63.63,63.59,63.52,63.40,63.28,63.55,63.88,64.09,64.17,64.19,64.18,64.18,64.16,64.10,64.02,63.94,63.83,63.71,63.64,63.63,63.59,63.54,63.56,63.55,63.51,63.49,63.50,63.54,63.54,63.52,63.49,63.40,63.20,63.19,63.29,63.35,63.30,63.24,63.21,63.18,63.13,63.10,63.08,63.02,62.83,62.58,62.59,62.64,62.57,62.56,62.65,62.71,62.70,62.68,62.62,62.59,62.58,62.58,62.48,62.42,62.43,62.50,62.50,62.45,62.42,62.45,62.55,62.59,62.63,62.65,62.64,62.64,62.63,62.61,62.57,62.52,62.46,62.44,62.46,62.50,62.42,62.26,62.11,62.06,62.10,62.12,62.14,62.14,62.10,62.05,61.96,61.87,61.80,61.73,61.68,61.67,61.68,61.66,61.68,61.67,61.62,61.49,61.50,61.65,61.89,62.15,62.29,62.22,62.13,62.07,62.05,62.05,62.07,62.05,61.98,61.78,61.61,61.50,61.48,61.57,61.71,61.84,61.93,61.97,61.98,61.98,61.98,61.99,62.08,62.10,62.05,62.02,62.18,62.40,62.37,62.25,62.24,62.18,62.11,62.06,62.07,62.04,62.01,62.03,62.09,62.10,62.06,62.02,62.01,62.03,62.01,62.01,62.04,62.11,62.25,62.37,62.52,62.62,62.62,62.42,62.23,62.12,62.10,62.14,62.16,62.12,62.06,62.07,62.16,62.19,62.19,62.11,61.65,e,e,e,e
64.60,64.66,64.67,64.65,64.62,64.63,64.63,64.60,64.54,64.55,64.51,64.48,64.46,64.46,64.40,64.42,64.40,64.32,64.31,64.31,64.25,64.14,64.12,64.20,64.24,64.26,64.25,64.18,64.10,64.07,64.11,64.18,64.26,64.21,64.15,64.29,64.57,64.68,64.69,64.64,64.61,64.43,64.19,64.00,64.00,64.21,64.30,64.29,64.26,64.29,64.34,64.29,64.16,64.16,64.19,64.21,64.14,63.91,63.97,64.00,64.00,63.99,63.96,63.97,63.99,64.00,64.01,64.02,63.90,63.77,63.78,63.75,63.71,63.67,63.61,63.44,63.45,63.48,63.51,63.55,63.48,63.42,63.36,63.30,63.59,63.91,64.12,64.20,64.20,64.21,64.20,64.18,64.12,64.04,63.93,63.81,63.69,63.66,63.64,63.61,63.57,63.54,63.46,63.40,63.36,63.33,63.35,63.37,63.37,63.34,63.25,63.12,63.12,63.18,63.21,63.11,63.04,62.99,62.98,62.97,62.96,62.93,62.87,62.73,62.57,62.57,62.57,62.47,62.42,62.60,62.72,62.71,62.67,62.59,62.54,62.53,62.53,62.40,62.30,62.32,62.44,62.43,62.40,62.40,62.42,62.46,62.45,62.46,62.48,62.53,62.57,62.58,62.57,62.55,62.52,62.45,62.43,62.45,62.49,62.36,62.19,62.08,62.08,62.12,62.15,62.17,62.16,62.15,62.15,62.08,61.95,61.77,61.67,61.63,61.59,61.53,61.47,61.55,61.64,61.65,61.53,61.43,61.50,61.75,62.13,62.26,62.19,62.10,62.05,62.06,62.09,62.12,62.08,61.91,61.56,61.32,61.22,61.28,61.39,61.52,61.66,61.79,61.88,61.90,61.91,61.91,61.92,62.03,62.12,62.09,61.99,62.01,62.18,62.26,62.31,62.38,62.28,62.14,62.04,62.03,62.04,61.98,61.96,61.99,62.01,62.01,62.01,62.01,62.01,62.01,62.03,62.10,62.23,62.39,62.57,62.66,62.72,62.80,62.62,62.35,62.15,62.11,62.16,62.18,62.15,62.09,62.01,62.12,62.17,62.19,62.19,62.21,e,e,e,e
64.50,64.49,64.49,64.47,64.43,64.45,64.48,64.43,64.35,64.43,64.42,64.40,64.39,64.40,64.37,64.38,64.38,64.35,64.38,64.39,64.31,64.18,64.14,64.27,64.34,64.34,64.30,64.23,64.27,64.36,64.44,64.48,64.37,64.22,64.15,64.29,64.56,64.69,64.73,64.71,64.62,64.42,64.18,63.98,64.00,64.19,64.28,64.28,64.22,64.28,64.33,64.26,64.08,64.08,64.07,64.09,64.08,63.91,63.95,63.98,63.98,63.94,63.85,63.89,63.94,63.97,63.99,63.96,63.86,63.76,63.76,63.78,63.80,63.80,63.75,63.52,63.44,63.42,63.42,63.43,63.34,63.35,63.38,63.39,63.69,63.97,64.12,64.17,64.20,64.23,64.24,64.22,64.16,64.08,63.97,63.83,63.71,63.72,63.70,63.72,63.74,63.72,63.66,63.58,63.48,63.35,63.28,63.23,63.20,63.18,63.13,63.05,63.03,63.03,63.00,62.92,62.88,62.86,62.85,62.85,62.84,62.83,62.81,62.77,62.71,62.70,62.69,62.65,62.63,62.72,62.78,62.78,62.77,62.74,62.69,62.64,62.61,62.53,62.49,62.51,62.58,62.56,62.50,62.42,62.37,62.36,62.33,62.32,62.34,62.38,62.40,62.41,62.41,62.40,62.42,62.42,62.43,62.45,62.47,62.34,62.21,62.12,62.13,62.17,62.22,62.25,62.24,62.22,62.21,62.14,61.98,61.77,61.64,61.59,61.56,61.54,61.51,61.55,61.60,61.63,61.62,61.51,61.47,61.59,61.90,61.99,62.03,62.06,62.08,62.05,62.03,62.06,62.02,61.80,61.49,61.30,61.20,61.18,61.23,61.35,61.50,61.64,61.78,61.82,61.83,61.83,61.84,61.95,62.08,62.12,62.07,62.03,62.17,62.26,62.32,62.39,62.33,62.17,62.04,62.00,61.97,61.94,61.95,62.00,62.06,62.03,62.05,62.05,62.03,62.07,62.17,62.29,62.46,62.69,62.71,62.71,62.76,62.92,62.65,62.42,62.24,62.13,62.12,62.12,62.13,62.12,62.02,61.99,62.06,62.13,62.14,62.13,61.79,61.50,e,e
64.64,64.53,64.49,64.46,64.42,64.46,64.48,64.42,64.33,64.44,64.43,64.41,64.42,64.44,64.42,64.43,64.44,64.42,64.47,64.50,64.47,64.38,64.35,64.41,64.42,64.39,64.33,64.32,64.43,64.55,64.62,64.61,64.43,64.25,64.17,64.27,64.54,64.70,64.76,64.75,64.63,64.40,64.16,63.99,64.00,64.17,64.25,64.25,64.20,64.28,64.34,64.26,64.05,64.03,64.01,64.02,64.03,63.90,63.95,63.98,63.97,63.91,63.83,63.86,63.92,63.96,63.96,63.94,63.84,63.75,63.77,63.85,63.87,63.87,63.83,63.62,63.47,63.43,63.51,63.64,63.60,63.61,63.64,63.66,63.93,64.08,64.16,64.21,64.24,64.29,64.29,64.25,64.20,64.10,63.99,63.86,63.74,63.76,63.74,63.78,63.85,63.86,63.83,63.77,63.65,63.49,63.37,63.29,63.25,63.22,63.17,63.15,63.15,63.15,63.14,63.02,62.93,62.85,62.81,62.83,62.83,62.81,62.79,62.78,62.76,62.76,62.76,62.77,62.78,62.81,62.84,62.84,62.83,62.80,62.76,62.71,62.65,62.59,62.58,62.60,62.62,62.60,62.52,62.43,62.37,62.35,62.35,62.38,62.39,62.36,62.29,62.28,62.28,62.29,62.32,62.33,62.34,62.35,62.36,62.28,62.21,62.17,62.17,62.19,62.28,62.34,62.35,62.33,62.27,62.13,61.93,61.74,61.68,61.67,61.66,61.66,61.64,61.61,61.59,61.58,61.58,61.51,61.44,61.48,61.65,61.73,61.81,61.91,62.01,62.00,61.98,62.00,61.96,61.75,61.51,61.36,61.25,61.19,61.18,61.27,61.38,61.51,61.63,61.70,61.74,61.76,61.79,61.89,62.04,62.11,62.10,62.06,62.12,62.23,62.35,62.45,62.40,62.19,62.02,61.96,61.94,61.97,62.02,62.06,62.07,62.07,62.09,62.09,62.09,62.20,62.34,62.48,62.64,62.84,62.80,62.74,62.75,62.84,62.63,62.50,62.36,62.18,62.12,62.10,62.10,62.09,62.03,61.98,62.04,62.12,62.14,62.11,61.88,61.61,e,e
64.94,64.72,64.61,64.57,64.52,64.60,64.60,64.52,64.43,64.52,64.51,64.50,64.50,64.55,64.53,64.55,64.55,64.54,64.58,64.63,64.68,64.69,64.67,64.60,64.50,64.40,64.35,64.45,64.58,64.67,64.69,64.62,64.46,64.30,64.19,64.23,64.52,64.71,64.79,64.78,64.64,64.36,64.15,64.04,64.00,64.14,64.21,64.22,64.20,64.28,64.36,64.28,64.06,64.01,63.99,64.00,63.99,63.90,63.96,63.99,63.96,63.90,63.87,63.88,63.93,63.97,63.92,63.95,63.84,63.74,63.80,63.93,63.93,63.90,63.88,63.74,63.52,63.51,63.72,64.08,64.12,64.10,64.07,64.07,64.26,64.24,64.23,64.28,64.31,64.35,64.34,64.29,64.25,64.11,64.01,63.90,63.79,63.78,63.76,63.82,63.93,63.99,63.99,63.96,63.87,63.72,63.58,63.51,63.46,63.41,63.33,63.36,63.41,63.46,63.51,63.34,63.13,62.94,62.84,62.89,62.88,62.84,62.79,62.77,62.75,62.77,62.81,62.84,62.89,62.90,62.90,62.89,62.86,62.82,62.78,62.74,62.66,62.61,62.60,62.60,62.60,62.57,62.49,62.43,62.41,62.41,62.47,62.57,62.58,62.42,62.22,62.17,62.18,62.21,62.24,62.21,62.19,62.19,62.19,62.20,62.21,62.21,62.21,62.20,62.32,62.42,62.47,62.45,62.33,62.08,61.82,61.68,61.77,61.83,61.85,61.86,61.85,61.73,61.61,61.52,61.45,61.45,61.41,61.38,61.41,61.48,61.55,61.69,61.87,61.94,61.92,61.94,61.91,61.73,61.58,61.46,61.36,61.27,61.22,61.25,61.31,61.37,61.45,61.57,61.64,61.70,61.76,61.84,62.00,62.08,62.09,62.11,62.04,62.16,62.38,62.56,62.48,62.21,61.99,61.92,61.95,62.05,62.14,62.15,62.04,62.12,62.12,62.12,62.17,62.37,62.53,62.68,62.80,62.88,62.83,62.78,62.71,62.63,62.58,62.59,62.49,62.26,62.14,62.09,62.04,62.02,62.04,62.04,62.08,62.13,62.18,62.12,62.13,61.72,61.06,e
65.17,64.94,64.79,64.72,64.69,64.69,64.69,64.68,64.64,64.60,64.57,64.56,64.56,64.58,64.61,64.63,64.62,64.59,64.64,64.67,64.69,64.70,64.69,64.70,64.59,64.48,64.49,64.54,64.59,64.63,64.64,64.61,64.51,64.35,64.23,64.32,64.66,64.78,64.78,64.73,64.62,64.40,64.20,64.08,64.06,64.20,64.29,64.33,64.32,64.30,64.36,64.31,64.14,64.07,64.02,63.97,63.92,63.84,63.91,63.97,63.97,63.90,63.89,63.93,63.95,63.94,63.97,63.97,63.84,63.72,63.76,63.93,63.93,63.90,63.87,63.75,63.48,63.45,63.71,64.25,64.20,64.16,64.14,64.13,64.32,64.31,64.32,64.38,64.43,64.44,64.40,64.33,64.27,64.16,64.04,63.91,63.82,63.85,63.84,63.91,64.02,64.02,64.05,64.03,63.96,63.83,63.73,63.65,63.59,63.57,63.58,63.52,63.49,63.49,63.51,63.42,63.25,63.05,62.88,62.90,62.89,62.87,62.83,62.77,62.75,62.79,62.84,62.89,62.91,62.91,62.91,62.89,62.86,62.80,62.74,62.69,62.65,62.62,62.61,62.61,62.59,62.53,62.45,62.42,62.46,62.50,62.52,62.56,62.55,62.49,62.41,62.32,62.28,62.26,62.22,62.18,62.15,62.12,62.10,62.17,62.21,62.22,62.22,62.20,62.27,62.34,62.40,62.41,62.15,61.89,61.74,61.76,61.84,61.88,61.90,61.92,61.90,61.84,61.75,61.64,61.51,61.45,61.39,61.36,61.36,61.43,61.46,61.57,61.76,61.92,61.92,61.91,61.86,61.74,61.66,61.58,61.50,61.40,61.30,61.29,61.31,61.35,61.41,61.48,61.54,61.61,61.68,61.79,62.01,62.12,62.12,62.15,62.07,62.08,62.18,62.34,62.24,62.11,62.01,61.95,61.95,62.00,62.10,62.18,62.15,62.11,62.11,62.15,62.25,62.48,62.62,62.75,62.85,62.82,62.75,62.71,62.69,62.66,62.59,62.49,62.35,62.18,62.09,62.07,62.07,62.09,62.11,62.12,62.08,62.08,62.15,62.14,62.13,61.90,61.57,e
65.31,65.06,64.89,64.81,64.79,64.76,64.76,64.78,64.76,64.65,64.61,64.60,64.60,64.60,64.66,64.69,64.67,64.62,64.69,64.71,64.72,64.72,64.70,64.74,64.67,64.59,64.60,64.61,64.61,64.61,64.61,64.60,64.55,64.38,64.27,64.47,64.78,64.83,64.76,64.67,64.59,64.44,64.26,64.11,64.10,64.30,64.40,64.42,64.43,64.35,64.36,64.31,64.16,64.08,64.01,63.94,63.88,63.80,63.88,63.96,63.99,63.91,63.93,63.97,63.97,63.93,63.99,63.98,63.86,63.73,63.73,63.92,63.93,63.90,63.88,63.77,63.49,63.43,63.69,64.30,64.22,64.18,64.17,64.17,64.34,64.36,64.39,64.47,64.53,64.50,64.44,64.37,64.31,64.21,64.05,63.93,63.87,63.92,63.92,63.99,64.09,64.06,64.09,64.08,64.04,63.95,63.87,63.77,63.69,63.66,63.71,63.62,63.55,63.52,63.52,63.48,63.33,63.12,62.90,62.90,62.90,62.89,62.86,62.79,62.77,62.80,62.87,62.93,62.93,62.93,62.92,62.89,62.86,62.78,62.70,62.65,62.63,62.63,62.63,62.62,62.58,62.49,62.41,62.41,62.48,62.54,62.56,62.56,62.54,62.53,62.50,62.41,62.33,62.30,62.23,62.20,62.14,62.07,62.03,62.14,62.20,62.23,62.23,62.21,62.23,62.29,62.35,62.37,62.06,61.81,61.71,61.81,61.91,61.95,61.96,61.97,61.98,61.94,61.87,61.75,61.59,61.47,61.40,61.36,61.35,61.40,61.40,61.49,61.67,61.88,61.90,61.86,61.80,61.74,61.72,61.69,61.62,61.52,61.40,61.35,61.33,61.35,61.38,61.42,61.47,61.53,61.61,61.73,61.97,62.10,62.09,62.10,62.04,62.01,62.04,62.14,62.07,62.04,62.02,61.98,61.97,61.98,62.07,62.17,62.22,62.11,62.09,62.14,62.26,62.48,62.60,62.74,62.86,62.75,62.68,62.66,62.66,62.64,62.55,62.38,62.22,62.10,62.04,62.07,62.12,62.17,62.19,62.19,62.12,62.07,62.10,62.15,62.14,62.06,61.93,e
65.30,65.02,64.86,64.81,64.80,64.79,64.79,64.80,64.78,64.65,64.62,64.61,64.61,64.61,64.67,64.70,64.68,64.64,64.73,64.77,64.78,64.77,64.71,64.71,64.73,64.73,64.68,64.68,64.64,64.61,64.60,64.59,64.58,64.41,64.32,64.71,64.87,64.85,64.73,64.60,64.53,64.49,64.33,64.11,64.10,64.46,64.54,64.48,64.50,64.41,64.35,64.25,64.08,64.02,63.94,63.91,63.88,63.80,63.88,63.99,64.03,63.95,63.98,64.01,63.98,63.94,64.00,63.97,63.89,63.78,63.73,63.89,63.92,63.91,63.90,63.80,63.55,63.46,63.65,64.18,64.16,64.16,64.16,64.17,64.30,64.38,64.45,64.52,64.58,64.53,64.45,64.39,64.36,64.24,64.07,63.95,63.95,64.00,64.00,64.05,64.12,64.09,64.10,64.10,64.09,64.06,63.98,63.85,63.73,63.66,63.68,63.61,63.57,63.56,63.56,63.49,63.34,63.12,62.90,62.90,62.90,62.89,62.87,62.82,62.80,62.82,62.88,62.95,62.96,62.96,62.93,62.89,62.86,62.77,62.67,62.61,62.62,62.65,62.66,62.63,62.55,62.45,62.37,62.39,62.46,62.54,62.58,62.58,62.55,62.53,62.47,62.39,62.34,62.32,62.29,62.28,62.19,62.05,61.97,62.11,62.20,62.24,62.25,62.23,62.24,62.29,62.35,62.35,62.09,61.87,61.76,61.81,61.96,62.03,62.03,62.00,62.08,62.02,61.94,61.84,61.72,61.54,61.43,61.40,61.41,61.40,61.39,61.46,61.60,61.79,61.85,61.81,61.73,61.71,61.76,61.77,61.72,61.64,61.52,61.43,61.39,61.39,61.40,61.40,61.44,61.49,61.54,61.64,61.88,61.99,61.95,61.92,61.94,61.97,61.99,61.97,61.99,62.01,62.02,62.00,62.00,62.00,62.04,62.12,62.21,62.09,62.05,62.07,62.16,62.34,62.43,62.61,62.80,62.66,62.63,62.61,62.59,62.54,62.42,62.26,62.11,62.02,62.01,62.10,62.19,62.26,62.27,62.27,62.21,62.12,62.05,62.16,62.18,62.17,62.07,61.61
65.24,65.04,64.91,64.84,64.81,64.80,64.80,64.81,64.80,64.66,64.64,64.64,64.65,64.66,64.69,64.72,64.72,64.67,64.72,64.74,64.76,64.76,64.70,64.72,64.74,64.72,64.67,64.64,64.60,64.58,64.57,64.53,64.50,64.35,64.27,64.55,64.73,64.76,64.69,64.56,64.51,64.49,64.32,64.09,64.10,64.44,64.51,64.46,64.51,64.41,64.35,64.26,64.10,64.01,63.95,63.90,63.86,63.81,63.92,64.00,64.04,64.05,64.03,64.03,64.02,63.99,63.99,63.95,63.89,63.81,63.70,63.89,63.90,63.90,63.92,63.82,63.61,63.51,63.59,63.95,64.02,64.06,64.09,64.12,64.23,64.36,64.47,64.55,64.59,64.54,64.47,64.41,64.36,64.22,64.06,63.97,63.99,64.03,64.08,64.14,64.17,64.13,64.13,64.13,64.12,64.10,64.06,63.93,63.78,63.68,63.67,63.61,63.58,63.56,63.54,63.43,63.25,63.06,62.90,62.90,62.90,62.90,62.88,62.85,62.81,62.82,62.87,62.94,62.96,62.95,62.92,62.90,62.88,62.78,62.68,62.61,62.63,62.67,62.67,62.62,62.51,62.37,62.36,62.42,62.51,62.54,62.58,62.58,62.55,62.51,62.45,62.37,62.33,62.32,62.30,62.30,62.23,62.13,62.05,62.11,62.17,62.21,62.24,62.22,62.23,62.26,62.32,62.35,62.12,61.93,61.84,61.90,62.03,62.09,62.06,61.99,62.02,62.01,61.96,61.88,61.77,61.60,61.52,61.50,61.51,61.42,61.35,61.36,61.44,61.52,61.66,61.71,61.69,61.64,61.67,61.67,61.63,61.55,61.48,61.42,61.40,61.40,61.40,61.40,61.42,61.44,61.47,61.54,61.68,61.74,61.73,61.77,61.83,61.91,61.97,61.97,61.99,62.00,62.01,62.01,62.07,62.07,62.09,62.16,62.24,62.13,62.04,62.03,62.14,62.25,62.35,62.51,62.67,62.61,62.62,62.53,62.40,62.31,62.21,62.15,62.11,62.09,62.02,62.09,62.18,62.24,62.29,62.29,62.24,62.15,62.04,62.08,62.15,62.17,62.09,61.82
65.18,65.05,64.94,64.86,64.81,64.80,64.79,64.81,64.82,64.68,64.66,64.68,64.70,64.70,64.70,64.74,64.75,64.69,64.68,64.69,64.71,64.73,64.68,64.72,64.71,64.68,64.62,64.57,64.55,64.52,64.48,64.45,64.40,64.28,64.21,64.39,64.61,64.69,64.66,64.54,64.49,64.45,64.29,64.08,64.10,64.37,64.44,64.42,64.48,64.39,64.36,64.28,64.13,64.02,63.98,63.92,63.86,63.80,63.96,64.02,64.06,64.14,64.08,64.05,64.04,64.04,63.99,63.94,63.89,63.82,63.67,63.88,63.89,63.88,63.91,63.83,63.68,63.55,63.53,63.73,63.89,63.97,64.02,64.07,64.16,64.32,64.47,64.57,64.60,64.55,64.50,64.43,64.36,64.20,64.07,64.01,64.03,64.06,64.15,64.22,64.23,64.17,64.17,64.17,64.16,64.14,64.11,63.97,63.81,63.70,63.68,63.63,63.60,63.57,63.50,63.38,63.19,63.01,62.90,62.91,62.90,62.90,62.89,62.87,62.82,62.82,62.86,62.92,62.95,62.93,62.91,62.90,62.89,62.81,62.69,62.61,62.64,62.69,62.68,62.60,62.46,62.30,62.35,62.48,62.59,62.56,62.60,62.60,62.56,62.51,62.42,62.34,62.31,62.31,62.31,62.31,62.25,62.16,62.08,62.11,62.15,62.20,62.23,62.22,62.22,62.23,62.27,62.29,62.10,61.96,61.92,61.99,62.07,62.11,62.06,61.97,61.94,61.98,61.96,61.88,61.77,61.63,61.59,61.60,61.60,61.46,61.33,61.28,61.29,61.29,61.46,61.60,61.64,61.57,61.55,61.54,61.51,61.45,61.41,61.40,61.39,61.38,61.38,61.39,61.40,61.41,61.39,61.42,61.46,61.48,61.52,61.64,61.75,61.87,61.97,62.01,62.01,62.00,62.01,62.03,62.14,62.14,62.15,62.20,62.27,62.18,62.05,62.02,62.13,62.18,62.28,62.40,62.50,62.52,62.55,62.40,62.19,62.11,62.04,62.08,62.14,62.15,62.04,62.10,62.16,62.21,62.28,62.30,62.26,62.19,62.08,62.02,62.10,62.14,62.10,62.01
65.20,65.05,64.91,64.82,64.77,64.76,64.76,64.79,64.81,64.72,64.70,64.73,64.75,64.72,64.70,64.73,64.73,64.67,64.65,64.65,64.66,64.67,64.66,64.67,64.64,64.60,64.55,64.49,64.47,64.34,64.15,64.32,64.34,64.26,64.24,64.53,64.71,64.76,64.69,64.54,64.43,64.35,64.22,64.08,64.10,64.34,64.40,64.36,64.37,64.37,64.37,64.29,64.14,64.06,64.05,64.01,63.93,63.76,64.00,64.07,64.10,64.18,64.14,64.03,64.01,64.06,63.95,63.98,63.92,63.78,63.64,63.85,63.89,63.86,63.84,63.81,63.76,63.61,63.48,63.60,63.80,63.93,64.00,64.04,64.09,64.27,64.46,64.61,64.64,64.58,64.53,64.47,64.41,64.24,64.18,64.15,64.12,64.11,64.21,64.27,64.25,64.19,64.20,64.23,64.24,64.22,64.13,63.93,63.77,63.70,63.69,63.68,63.65,63.59,63.48,63.40,63.27,63.10,62.93,62.94,62.92,62.90,62.89,62.87,62.82,62.82,62.86,62.93,62.96,62.93,62.90,62.90,62.90,62.82,62.70,62.61,62.64,62.69,62.68,62.59,62.43,62.25,62.36,62.55,62.71,62.66,62.67,62.66,62.61,62.54,62.40,62.30,62.28,62.34,62.37,62.35,62.18,61.96,61.87,62.08,62.19,62.25,62.28,62.28,62.25,62.23,62.18,62.05,61.89,61.89,61.98,62.07,62.06,62.03,61.98,61.93,61.92,61.92,61.91,61.84,61.65,61.54,61.55,61.59,61.61,61.56,61.44,61.34,61.30,61.34,61.38,61.47,61.54,61.52,61.43,61.45,61.48,61.48,61.42,61.36,61.33,61.31,61.32,61.36,61.43,61.43,61.34,61.26,61.28,61.34,61.44,61.62,61.78,61.92,62.02,62.03,62.03,62.03,62.04,62.07,62.15,62.17,62.19,62.21,62.23,62.20,62.14,62.08,62.06,62.13,62.20,62.24,62.26,62.25,62.19,62.12,62.07,62.11,62.08,62.15,62.18,62.12,62.03,62.16,62.22,62.22,62.27,62.29,62.29,62.27,62.23,62.10,62.08,62.12,62.12,61.95
65.27,65.10,64.92,64.78,64.72,64.70,64.71,64.74,64.76,64.71,64.71,64.72,64.72,64.66,64.72,64.57,64.38,64.24,63.66,63.44,63.47,63.59,63.61,63.45,63.63,63.94,64.09,63.95,64.11,64.14,63.94,63.90,64.11,64.17,64.17,64.42,63.80,63.57,63.77,64.26,64.25,64.20,64.12,64.05,64.06,64.26,64.33,64.32,64.32,64.40,64.40,64.31,64.16,64.06,64.07,64.05,63.95,63.73,64.01,64.11,64.13,64.16,64.14,64.03,64.00,64.03,63.93,64.02,63.98,63.82,63.59,63.84,63.89,63.86,63.82,63.83,63.77,63.60,63.44,63.52,63.80,63.92,63.96,63.98,64.02,64.22,64.39,64.50,64.56,64.55,64.54,64.51,64.45,64.33,64.30,64.28,64.24,64.18,64.19,64.19,64.18,64.19,64.21,64.26,64.28,64.23,64.07,63.87,63.73,63.70,63.70,63.68,63.65,63.59,63.48,63.43,63.31,63.13,62.93,62.97,62.95,62.93,62.92,62.88,62.84,62.82,62.85,62.92,62.95,62.93,62.89,62.85,62.81,62.73,62.62,62.54,62.52,62.52,62.51,62.44,62.32,62.21,62.34,62.54,62.70,62.72,62.71,62.67,62.60,62.48,62.33,62.26,62.27,62.34,62.39,62.38,62.18,61.93,61.81,62.03,62.13,62.19,62.23,62.24,62.23,62.20,62.14,61.98,61.84,61.88,62.00,62.09,62.06,62.03,62.00,61.97,61.95,61.92,61.88,61.79,61.60,61.53,61.58,61.66,61.67,61.63,61.52,61.39,61.30,61.32,61.36,61.43,61.51,61.59,61.45,61.40,61.40,61.41,61.36,61.30,61.26,61.25,61.27,61.31,61.34,61.31,61.21,61.12,61.15,61.25,61.40,61.58,61.76,61.91,62.01,62.04,62.07,62.05,62.05,62.10,62.15,62.17,62.20,62.22,62.21,62.20,62.18,62.13,62.07,62.08,62.12,62.14,62.13,62.10,62.02,62.01,62.08,62.22,62.20,62.24,62.22,62.11,62.02,62.14,62.20,62.21,62.26,62.27,62.28,62.28,62.27,62.15,62.08,62.07,62.08,61.90
65.37,65.19,64.95,64.75,64.65,64.63,64.62,64.62,64.62,64.58,64.64,64.65,64.61,64.54,64.71,64.31,63.87,63.58,62.17,61.65,61.70,62.01,62.04,61.65,62.15,62.98,63.43,63.18,63.61,63.93,63.81,63.34,63.81,64.05,64.07,64.17,62.38,61.75,62.35,63.83,64.00,64.02,64.02,64.01,64.01,64.15,64.25,64.29,64.30,64.44,64.42,64.32,64.17,64.03,64.07,64.05,63.94,63.72,64.00,64.14,64.15,64.09,64.09,64.03,64.00,63.98,63.91,64.04,64.07,63.91,63.54,63.82,63.89,63.86,63.81,63.87,63.74,63.55,63.42,63.47,63.85,63.93,63.90,63.90,63.94,64.16,64.29,64.32,64.40,64.48,64.54,64.56,64.49,64.44,64.42,64.41,64.38,64.28,64.13,64.04,64.04,64.16,64.20,64.26,64.27,64.21,63.98,63.79,63.70,63.70,63.69,63.66,63.62,63.56,63.48,63.45,63.32,63.12,62.94,62.98,62.99,62.98,62.95,62.90,62.87,62.84,62.84,62.89,62.94,62.93,62.87,62.78,62.66,62.57,62.50,62.42,62.33,62.26,62.25,62.22,62.17,62.19,62.31,62.47,62.62,62.73,62.72,62.66,62.54,62.38,62.23,62.21,62.26,62.33,62.39,62.40,62.23,61.99,61.84,61.98,62.02,62.06,62.13,62.15,62.16,62.15,62.11,62.00,61.90,61.91,61.99,62.07,62.07,62.08,62.07,62.04,62.00,61.94,61.85,61.72,61.58,61.56,61.67,61.76,61.76,61.68,61.57,61.43,61.30,61.25,61.38,61.44,61.53,61.72,61.56,61.37,61.28,61.28,61.27,61.24,61.20,61.19,61.25,61.25,61.19,61.11,61.04,61.01,61.07,61.20,61.38,61.55,61.72,61.87,61.98,62.04,62.11,62.08,62.07,62.12,62.15,62.15,62.19,62.22,62.21,62.20,62.20,62.18,62.11,62.03,62.06,62.07,62.05,62.01,61.98,62.02,62.17,62.40,62.38,62.34,62.25,62.12,62.02,62.06,62.13,62.20,62.25,62.25,62.24,62.24,62.23,62.20,62.09,62.03,62.00,61.84
65.26,65.02,64.83,64.70,64.63,64.61,63.55,62.61,62.24,62.33,63.08,63.38,63.44,63.86,63.70,63.88,64.10,64.12,63.58,63.38,63.41,63.52,63.54,63.37,63.54,63.85,64.02,63.94,64.10,64.22,64.18,64.01,64.18,64.24,64.21,64.23,63.54,63.29,63.49,64.02,64.02,64.00,63.98,63.98,64.01,64.02,64.06,64.06,63.98,63.94,63.94,64.06,64.24,64.06,63.95,63.90,63.86,63.78,63.88,63.89,63.86,63.84,63.84,63.86,63.89,63.91,63.77,63.77,63.73,63.65,63.54,63.70,63.71,63.66,63.62,63.63,63.58,63.52,63.49,63.51,63.70,63.78,63.82,63.87,63.93,64.07,64.18,64.25,64.31,64.41,64.51,64.61,64.68,64.65,64.61,64.55,64.46,64.29,64.08,63.92,63.85,63.87,63.95,64.06,64.12,64.10,63.93,63.76,63.68,63.66,63.61,63.47,63.35,63.30,63.34,63.28,63.15,63.01,62.94,62.96,62.96,62.95,62.93,62.89,62.85,62.82,62.79,62.79,62.81,62.79,62.76,62.72,62.66,62.61,62.56,62.52,62.48,62.40,62.31,62.23,62.18,62.19,62.29,62.41,62.52,62.57,62.59,62.54,62.43,62.28,62.20,62.21,62.28,62.36,62.40,62.40,62.30,62.14,61.99,61.90,61.83,61.85,61.96,62.03,62.06,62.05,62.00,61.94,61.91,61.94,61.99,62.03,62.04,62.03,61.98,61.92,61.92,61.87,61.77,61.64,61.55,61.57,61.64,61.70,61.72,61.69,61.67,61.59,61.45,61.27,61.33,61.39,61.48,61.63,61.59,61.40,61.25,61.18,61.18,61.21,61.21,61.19,61.17,61.12,61.06,61.04,61.06,61.08,61.15,61.23,61.34,61.47,61.60,61.73,61.84,61.92,62.04,62.08,62.11,62.16,62.18,62.17,62.17,62.18,62.19,62.20,62.20,62.18,62.12,62.04,62.03,62.04,62.05,62.01,62.04,62.12,62.26,62.47,62.48,62.43,62.33,62.20,62.05,62.07,62.13,62.21,62.27,62.24,62.22,62.20,62.16,62.11,62.04,62.01,61.99,61.89
64.93,64.84,64.76,64.71,64.67,64.67,63.46,62.39,62.00,62.13,62.96,63.30,63.39,63.89,63.64,64.05,64.53,64.69,64.69,64.72,64.76,64.78,64.79,64.79,64.83,64.88,64.90,64.92,64.94,64.96,64.94,64.93,64.91,64.86,64.78,64.75,64.67,64.60,64.56,64.52,64.41,64.34,64.28,64.25,64.23,64.18,64.16,64.12,63.98,63.84,63.81,63.95,64.18,64.01,63.88,63.85,63.87,63.86,63.86,63.83,63.84,63.93,63.98,64.04,64.07,64.03,63.78,63.67,63.58,63.54,63.55,63.62,63.60,63.58,63.58,63.53,63.53,63.55,63.57,63.59,63.66,63.74,63.82,63.89,63.97,64.07,64.18,64.28,64.36,64.46,64.59,64.74,64.90,64.88,64.81,64.71,64.55,64.24,64.01,63.82,63.69,63.62,63.67,63.76,63.84,63.86,63.75,63.63,63.56,63.54,63.46,63.28,63.16,63.13,63.22,63.19,63.09,63.01,62.97,62.97,62.98,62.97,62.95,62.90,62.87,62.83,62.79,62.77,62.75,62.72,62.70,62.68,62.68,62.66,62.65,62.64,62.63,62.54,62.38,62.24,62.17,62.17,62.25,62.35,62.42,62.44,62.47,62.43,62.35,62.23,62.20,62.23,62.30,62.39,62.40,62.40,62.34,62.22,62.06,61.90,61.82,61.83,61.92,61.99,62.02,61.99,61.94,61.90,61.92,61.94,61.96,61.99,62.02,61.99,61.93,61.87,61.87,61.81,61.69,61.58,61.57,61.61,61.64,61.67,61.69,61.69,61.70,61.67,61.55,61.33,61.30,61.31,61.37,61.47,61.51,61.38,61.22,61.12,61.12,61.16,61.17,61.14,61.10,61.06,61.03,61.05,61.12,61.15,61.21,61.26,61.32,61.43,61.53,61.64,61.76,61.87,62.03,62.11,62.15,62.19,62.20,62.19,62.17,62.16,62.17,62.19,62.20,62.19,62.15,62.09,62.03,62.02,62.05,62.09,62.16,62.22,62.33,62.51,62.54,62.47,62.37,62.24,62.10,62.11,62.16,62.22,62.25,62.20,62.18,62.15,62.09,62.05,62.00,61.98,61.99,61.98
64.31,64.65,64.75,64.77,64.80,64.82,64.64,64.50,64.49,64.56,64.69,64.76,64.78,64.82,64.82,65.02,65.22,65.32,65.41,65.54,65.65,65.71,65.72,65.84,65.99,66.12,66.17,66.19,66.25,66.27,66.23,66.16,66.11,66.02,65.92,65.84,65.74,65.62,65.51,65.43,65.30,65.13,65.01,64.91,64.74,64.72,64.66,64.53,64.38,64.23,64.10,64.01,63.96,63.87,63.87,63.93,63.99,63.96,63.98,64.02,64.16,64.44,64.62,64.68,64.61,64.38,63.98,63.78,63.67,63.61,63.59,63.60,63.60,63.65,63.73,63.60,63.59,63.63,63.69,63.72,63.75,63.85,63.95,64.00,64.09,64.20,64.33,64.47,64.58,64.67,64.80,64.98,65.16,65.12,65.04,64.90,64.65,64.11,63.92,63.76,63.59,63.44,63.35,63.35,63.40,63.44,63.42,63.35,63.32,63.31,63.22,63.10,63.05,63.06,63.14,63.19,63.19,63.13,63.03,63.03,63.07,63.06,63.01,62.95,62.93,62.89,62.85,62.83,62.79,62.74,62.70,62.68,62.72,62.75,62.79,62.81,62.78,62.68,62.46,62.26,62.16,62.12,62.19,62.27,62.34,62.34,62.35,62.33,62.28,62.23,62.23,62.26,62.33,62.41,62.40,62.40,62.32,62.18,62.02,62.01,62.02,62.04,62.05,62.07,62.04,61.99,61.93,61.90,61.91,61.90,61.91,61.97,62.01,61.98,61.94,61.91,61.87,61.75,61.62,61.56,61.67,61.72,61.70,61.68,61.69,61.66,61.65,61.63,61.59,61.45,61.29,61.20,61.18,61.21,61.30,61.28,61.21,61.12,61.10,61.08,61.06,61.04,61.02,61.09,61.13,61.18,61.23,61.22,61.25,61.28,61.32,61.43,61.53,61.62,61.74,61.91,62.09,62.17,62.19,62.20,62.20,62.20,62.20,62.18,62.14,62.17,62.19,62.20,62.19,62.18,62.09,62.02,62.05,62.27,62.35,62.34,62.37,62.54,62.53,62.46,62.36,62.23,62.19,62.19,62.23,62.25,62.15,62.12,62.11,62.08,62.02,62.01,61.95,61.95,62.02,62.14
65.01,65.25,65.37,65.44,65.52,65.54,65.54,65.57,65.66,65.72,65.76,65.80,65.82,65.80,65.82,65.91,65.99,66.02,66.07,66.12,66.17,66.19,66.18,66.24,66.34,66.42,66.44,66.43,66.46,66.47,66.44,66.38,66.35,66.30,66.24,66.22,66.15,66.09,66.05,66.01,65.96,65.86,65.80,65.76,65.58,65.60,65.54,65.42,65.26,65.11,64.97,64.74,64.41,63.97,63.98,64.09,64.27,64.58,64.78,64.90,65.05,65.31,65.49,65.54,65.46,65.22,64.85,64.60,64.22,63.83,63.60,63.61,63.65,63.73,63.83,63.70,63.67,63.70,63.79,63.87,63.91,64.04,64.14,64.15,64.23,64.32,64.43,64.55,64.74,64.82,65.02,65.26,65.42,65.37,65.27,65.12,64.86,64.13,63.93,63.77,63.59,63.45,63.35,63.34,63.39,63.48,63.44,63.29,63.21,63.21,63.24,63.27,63.30,63.34,63.39,63.42,63.39,63.27,63.07,63.08,63.13,63.13,63.10,63.06,63.01,62.97,62.94,62.94,62.87,62.78,62.70,62.66,62.72,62.78,62.84,62.87,62.85,62.73,62.49,62.27,62.16,62.13,62.19,62.26,62.31,62.29,62.28,62.26,62.23,62.21,62.21,62.26,62.33,62.41,62.42,62.42,62.33,62.16,61.96,61.96,62.03,62.10,62.14,62.12,62.08,62.06,62.05,62.06,62.04,61.98,61.90,61.85,61.85,61.86,61.90,61.92,61.86,61.70,61.61,61.62,61.72,61.72,61.71,61.69,61.69,61.68,61.67,61.65,61.62,61.57,61.37,61.21,61.16,61.23,61.27,61.27,61.21,61.11,61.06,61.05,61.04,61.06,61.12,61.16,61.20,61.24,61.27,61.24,61.25,61.27,61.32,61.42,61.47,61.50,61.59,61.78,62.10,62.25,62.28,62.23,62.20,62.20,62.20,62.19,62.14,62.14,62.17,62.19,62.20,62.17,62.18,62.12,62.07,62.24,62.35,62.40,62.43,62.51,62.46,62.42,62.35,62.26,62.17,62.15,62.21,62.24,62.07,62.04,62.05,62.03,61.98,62.05,61.99,61.97,62.01,62.09
65.88,65.96,66.05,66.14,66.22,66.23,66.24,66.29,66.40,66.45,66.49,66.52,66.54,66.54,66.53,66.55,66.56,66.53,66.52,66.48,66.46,66.44,66.41,66.40,66.44,66.48,66.48,66.45,66.46,66.45,66.43,66.40,66.40,66.38,66.37,66.39,66.35,66.36,66.37,66.37,66.40,66.38,66.40,66.42,66.29,66.33,66.29,66.19,66.05,65.91,65.79,65.52,65.02,64.25,64.26,64.44,64.75,65.28,65.51,65.58,65.66,65.83,66.00,66.10,66.09,65.95,65.65,65.38,64.84,64.24,63.83,63.72,63.71,63.80,63.92,63.79,63.74,63.76,63.85,63.99,64.01,64.18,64.32,64.30,64.37,64.43,64.51,64.64,64.89,65.03,65.30,65.57,65.69,65.62,65.52,65.34,65.00,64.17,63.98,63.82,63.62,63.48,63.41,63.41,63.49,63.61,63.55,63.36,63.23,63.23,63.34,63.48,63.57,63.62,63.65,63.66,63.58,63.38,63.09,63.12,63.18,63.21,63.19,63.17,63.11,63.06,63.05,63.07,62.98,62.83,62.71,62.65,62.72,62.80,62.86,62.89,62.89,62.76,62.52,62.29,62.16,62.14,62.20,62.26,62.29,62.26,62.22,62.20,62.19,62.18,62.18,62.25,62.33,62.40,62.43,62.44,62.34,62.14,61.91,61.91,62.01,62.12,62.19,62.16,62.13,62.14,62.18,62.21,62.17,62.06,61.92,61.78,61.72,61.76,61.84,61.89,61.80,61.66,61.62,61.67,61.73,61.71,61.70,61.70,61.70,61.70,61.69,61.66,61.64,61.65,61.50,61.31,61.20,61.26,61.26,61.26,61.21,61.11,61.03,61.06,61.09,61.13,61.22,61.23,61.25,61.29,61.31,61.25,61.27,61.29,61.32,61.40,61.40,61.39,61.45,61.62,62.04,62.28,62.35,62.27,62.22,62.20,62.20,62.19,62.15,62.12,62.14,62.18,62.19,62.15,62.24,62.20,62.07,62.15,62.31,62.41,62.45,62.46,62.39,62.36,62.34,62.28,62.15,62.11,62.15,62.18,62.01,61.98,62.01,62.02,61.97,62.12,62.06,62.00,62.01,62.04
66.48,66.52,66.55,66.57,66.56,66.50,66.51,66.53,66.57,66.57,66.54,66.53,66.52,66.49,66.48,66.48,66.46,66.42,66.38,66.31,66.26,66.21,66.18,66.18,66.24,66.32,66.37,66.37,66.37,66.36,66.35,66.34,66.38,66.39,66.38,66.35,66.32,66.32,66.31,66.27,66.28,66.35,66.40,66.43,66.43,66.44,66.40,66.34,66.29,66.21,66.17,66.07,65.79,64.94,64.98,65.33,65.74,65.98,65.64,65.32,65.13,65.14,65.33,65.64,65.93,66.10,65.92,65.69,65.40,65.08,64.74,64.06,63.79,63.83,64.00,63.82,63.78,63.77,63.82,64.05,63.94,64.16,64.40,64.44,64.47,64.50,64.61,64.81,65.03,65.46,65.78,65.95,65.95,65.82,65.81,65.56,64.93,64.20,64.04,63.89,63.67,63.49,63.44,63.51,63.64,63.75,63.74,63.66,63.57,63.50,63.53,63.59,63.68,63.75,63.76,63.76,63.66,63.40,63.06,63.14,63.23,63.27,63.26,63.24,63.19,63.18,63.19,63.21,63.12,62.95,62.77,62.65,62.72,62.78,62.83,62.86,62.90,62.80,62.59,62.35,62.17,62.14,62.20,62.27,62.30,62.27,62.23,62.18,62.14,62.09,62.12,62.23,62.34,62.40,62.41,62.40,62.31,62.13,61.93,61.94,62.02,62.12,62.19,62.19,62.18,62.20,62.24,62.25,62.18,62.11,62.01,61.88,61.78,61.76,61.76,61.73,61.66,61.64,61.62,61.62,61.67,61.72,61.72,61.71,61.70,61.69,61.65,61.62,61.61,61.63,61.69,61.55,61.33,61.20,61.23,61.23,61.19,61.13,61.08,61.19,61.29,61.33,61.27,61.23,61.25,61.31,61.39,61.31,61.36,61.39,61.35,61.33,61.32,61.34,61.37,61.44,61.75,62.12,62.33,62.32,62.26,62.22,62.20,62.20,62.19,62.16,62.15,62.16,62.17,62.18,62.21,62.15,62.04,62.04,62.22,62.33,62.38,62.38,62.31,62.29,62.27,62.25,62.14,62.09,62.07,62.05,61.97,61.96,62.07,62.13,62.05,62.18,62.13,62.07,62.05,62.08
66.66,66.65,66.60,66.50,66.34,66.26,66.18,66.10,66.01,65.90,65.82,65.75,65.66,65.49,65.45,65.38,65.32,65.26,65.20,65.12,65.05,64.99,64.99,64.94,64.97,65.04,65.08,65.14,65.16,65.17,65.19,65.19,65.26,65.37,65.45,65.43,65.58,65.68,65.74,65.76,65.89,66.06,66.20,66.28,66.37,66.41,66.40,66.37,66.34,66.31,66.31,66.29,66.15,65.63,65.65,65.74,65.71,65.45,65.49,64.44,63.97,64.17,64.31,64.59,64.99,65.42,65.67,65.67,65.61,65.45,65.14,64.53,64.20,64.06,64.01,63.84,63.87,63.90,63.93,64.06,63.95,64.38,64.80,64.78,64.79,64.82,64.88,64.99,65.21,65.75,66.08,66.20,66.18,66.01,65.86,65.39,64.60,64.15,64.01,63.87,63.70,63.54,63.49,63.57,63.71,63.83,63.82,63.77,63.70,63.64,63.63,63.62,63.67,63.75,63.79,63.80,63.69,63.42,63.07,63.16,63.24,63.28,63.28,63.28,63.25,63.24,63.24,63.26,63.21,63.03,62.82,62.65,62.74,62.80,62.84,62.87,62.89,62.81,62.63,62.42,62.22,62.15,62.23,62.31,62.34,62.28,62.24,62.18,62.09,61.99,62.06,62.23,62.36,62.41,62.40,62.38,62.26,62.09,61.90,61.95,62.03,62.10,62.17,62.20,62.21,62.23,62.27,62.29,62.21,62.13,62.04,61.92,61.82,61.81,61.78,61.70,61.60,61.61,61.61,61.60,61.63,61.68,61.69,61.69,61.68,61.66,61.62,61.61,61.62,61.69,61.88,61.77,61.49,61.20,61.19,61.19,61.17,61.14,61.12,61.22,61.31,61.34,61.25,61.24,61.27,61.35,61.43,61.38,61.41,61.41,61.35,61.30,61.31,61.33,61.35,61.37,61.59,61.93,62.15,62.19,62.26,62.24,62.22,62.20,62.20,62.15,62.11,62.10,62.13,62.16,62.17,62.13,62.07,62.09,62.16,62.22,62.27,62.27,62.23,62.19,62.18,62.18,62.10,62.05,62.02,62.00,62.00,62.02,62.14,62.20,62.10,62.20,62.15,62.10,62.08,62.07
66.54,66.47,66.33,66.10,65.78,65.69,65.50,65.28,65.05,64.83,64.71,64.59,64.40,64.07,63.98,63.83,63.70,63.65,63.57,63.49,63.41,63.35,63.38,63.26,63.24,63.25,63.26,63.38,63.43,63.47,63.52,63.54,63.65,63.85,64.05,64.08,64.46,64.69,64.84,65.00,65.27,65.56,65.79,65.95,66.10,66.20,66.24,66.25,66.20,66.23,66.26,66.26,66.24,66.21,66.17,65.79,65.10,64.27,e,62.34,62.59,63.13,63.19,63.31,63.70,64.35,65.12,65.44,65.59,65.54,65.25,65.05,64.77,64.39,64.01,63.87,63.98,64.06,64.08,64.04,64.00,64.76,65.41,65.29,65.32,65.34,65.28,65.22,65.43,65.99,66.30,66.40,66.39,66.19,65.75,65.03,64.16,64.06,63.94,63.82,63.72,63.62,63.56,63.62,63.74,63.87,63.84,63.77,63.71,63.70,63.67,63.62,63.63,63.69,63.78,63.79,63.69,63.43,63.11,63.18,63.24,63.27,63.28,63.30,63.29,63.26,63.25,63.28,63.27,63.10,62.86,62.66,62.76,62.83,62.88,62.89,62.88,62.80,62.67,62.49,62.28,62.15,62.26,62.36,62.39,62.30,62.27,62.18,62.04,61.90,62.03,62.24,62.39,62.42,62.41,62.35,62.21,62.03,61.86,61.96,62.04,62.09,62.14,62.19,62.21,62.24,62.28,62.32,62.25,62.15,62.03,61.92,61.87,61.88,61.85,61.74,61.59,61.58,61.59,61.60,61.60,61.62,61.64,61.65,61.65,61.62,61.61,61.61,61.66,61.80,62.03,61.95,61.63,61.24,61.15,61.14,61.14,61.14,61.17,61.21,61.25,61.26,61.20,61.24,61.30,61.38,61.45,61.45,61.43,61.39,61.34,61.31,61.33,61.35,61.36,61.37,61.50,61.72,61.87,61.96,62.22,62.25,62.23,62.20,62.19,62.12,62.04,62.01,62.07,62.12,62.13,62.12,62.13,62.22,62.12,62.10,62.14,62.16,62.14,62.10,62.08,62.11,62.06,62.02,62.00,62.02,62.07,62.12,62.22,62.25,62.13,62.17,62.14,62.11,62.09,62.03
65.38,65.06,64.84,64.64,64.37,64.34,64.25,64.12,63.99,63.86,63.84,63.82,63.74,63.57,63.48,63.38,63.31,63.29,63.25,63.18,63.11,63.04,62.99,62.80,62.70,62.63,62.56,62.65,62.68,62.71,62.77,62.87,62.91,62.97,63.03,63.03,63.13,63.20,63.27,63.37,63.53,63.74,63.93,64.10,64.31,64.45,64.60,64.75,64.87,65.02,65.19,65.25,65.15,65.00,64.83,64.43,63.75,62.79,e,e,e,63.19,63.20,63.24,63.41,63.72,64.04,64.46,64.85,65.13,65.26,65.34,65.18,64.85,64.44,64.22,63.93,63.76,63.71,63.74,64.05,65.60,66.89,66.90,67.01,66.87,66.52,66.14,66.20,66.51,66.71,66.71,66.51,66.22,65.30,64.49,64.13,64.02,63.92,63.82,63.73,63.67,63.63,63.67,63.74,63.82,63.81,63.78,63.75,63.72,63.71,63.72,63.72,63.73,63.75,63.73,63.61,63.38,63.09,63.17,63.30,63.37,63.37,63.33,63.30,63.29,63.29,63.31,63.29,63.14,62.88,62.64,62.76,62.83,62.87,62.88,62.87,62.82,62.68,62.48,62.25,62.09,62.22,62.35,62.39,62.30,62.30,62.25,62.19,62.14,62.25,62.34,62.41,62.43,62.41,62.33,62.18,62.01,61.86,61.99,62.09,62.14,62.16,62.18,62.18,62.19,62.22,62.28,62.27,62.20,62.09,61.96,61.91,61.88,61.80,61.67,61.57,61.58,61.58,61.57,61.58,61.63,61.65,61.63,61.61,61.58,61.61,61.64,61.69,61.74,61.87,61.79,61.56,61.26,61.16,61.15,61.16,61.18,61.19,61.20,61.22,61.24,61.27,61.29,61.33,61.36,61.37,61.36,61.39,61.39,61.37,61.35,61.37,61.38,61.38,61.35,61.39,61.47,61.53,61.57,61.70,62.00,62.15,62.16,62.10,62.08,62.04,62.01,62.04,62.13,62.13,62.12,62.11,62.15,62.08,62.02,62.04,62.15,62.13,62.07,62.04,62.05,62.07,62.03,62.03,62.08,62.19,62.23,62.24,62.21,62.11,62.08,62.09,62.10,62.09,62.02
64.36,64.01,63.85,63.73,63.51,63.52,63.52,63.49,63.41,63.29,63.29,63.30,63.26,63.11,62.95,62.83,62.76,62.73,62.71,62.64,62.57,62.51,62.44,62.30,62.18,62.08,61.98,62.04,62.09,62.11,62.13,62.25,62.25,62.25,62.26,62.28,62.26,62.25,62.28,62.34,62.43,62.55,62.68,62.83,63.06,63.13,63.27,63.44,63.59,63.78,64.00,64.09,64.01,63.85,63.69,63.41,62.90,62.07,e,e,e,63.23,63.20,63.20,63.24,63.32,63.41,63.75,64.12,64.49,64.87,65.17,65.25,65.17,64.99,64.78,64.32,64.01,63.86,63.75,63.88,65.39,66.95,67.56,67.85,67.70,67.32,66.89,66.81,66.92,67.02,66.97,66.60,66.05,64.94,64.18,64.10,63.99,63.90,63.81,63.75,63.71,63.70,63.70,63.74,63.78,63.78,63.79,63.77,63.74,63.74,63.77,63.77,63.74,63.72,63.66,63.53,63.32,63.09,63.16,63.32,63.40,63.40,63.34,63.33,63.32,63.31,63.30,63.30,63.14,62.88,62.63,62.76,62.83,62.86,62.87,62.84,62.81,62.68,62.47,62.24,62.04,62.16,62.31,62.38,62.31,62.33,62.33,62.32,62.32,62.40,62.41,62.43,62.45,62.41,62.29,62.14,61.99,61.88,62.03,62.13,62.18,62.18,62.16,62.12,62.12,62.14,62.19,62.22,62.19,62.11,62.00,61.92,61.84,61.73,61.61,61.61,61.67,61.67,61.62,61.59,61.64,61.63,61.60,61.57,61.55,61.58,61.65,61.69,61.64,61.66,61.60,61.46,61.26,61.16,61.14,61.16,61.19,61.19,61.19,61.21,61.25,61.29,61.29,61.31,61.33,61.32,61.31,61.34,61.36,61.36,61.37,61.39,61.39,61.37,61.33,61.32,61.33,61.33,61.34,61.39,61.71,61.89,61.91,61.81,61.81,61.88,61.96,62.01,62.11,62.12,62.11,62.11,62.14,62.08,62.01,61.99,62.08,62.08,62.05,62.03,62.05,62.13,62.09,62.08,62.13,62.21,62.29,62.26,62.17,62.08,62.00,62.04,62.09,62.09,62.02
63.48,63.37,63.40,63.41,63.29,63.30,63.40,63.44,63.37,63.15,63.09,63.06,62.96,62.70,62.41,62.17,62.02,61.96,61.95,61.85,61.77,61.74,61.74,61.75,61.69,61.61,61.54,61.57,61.69,61.71,61.62,61.67,61.68,61.71,61.78,61.88,61.89,61.91,61.95,61.99,62.03,62.08,62.11,62.18,62.43,62.31,62.31,62.36,62.38,62.50,62.65,62.77,62.81,62.78,62.77,62.76,62.63,62.21,e,e,e,e,63.20,63.20,63.19,63.20,63.29,63.34,63.42,63.61,64.03,64.50,64.91,65.32,65.67,65.58,65.20,64.88,64.58,64.12,63.45,64.01,65.42,67.17,67.74,67.75,67.61,67.45,67.25,67.19,67.24,67.15,66.67,65.62,64.66,64.12,64.07,63.98,63.87,63.81,63.78,63.76,63.76,63.73,63.72,63.74,63.74,63.77,63.77,63.75,63.77,63.78,63.75,63.72,63.69,63.60,63.45,63.27,63.10,63.15,63.29,63.37,63.38,63.34,63.37,63.35,63.30,63.25,63.28,63.11,62.85,62.62,62.77,62.82,62.85,62.86,62.81,62.77,62.65,62.47,62.24,61.99,62.09,62.25,62.36,62.33,62.39,62.42,62.44,62.44,62.46,62.45,62.46,62.47,62.39,62.24,62.09,61.97,61.92,62.08,62.16,62.20,62.19,62.13,62.05,62.02,62.03,62.04,62.07,62.10,62.10,62.04,61.89,61.75,61.63,61.58,61.72,61.88,61.86,61.74,61.64,61.65,61.60,61.54,61.51,61.51,61.54,61.63,61.67,61.48,61.39,61.36,61.33,61.24,61.16,61.12,61.13,61.16,61.17,61.17,61.23,61.30,61.27,61.22,61.24,61.28,61.29,61.29,61.30,61.30,61.31,61.36,61.38,61.36,61.33,61.30,61.30,61.30,61.30,61.30,61.31,61.39,61.44,61.42,61.31,61.27,61.53,61.84,62.00,62.07,62.10,62.10,62.12,62.17,62.14,62.08,62.01,61.96,61.98,62.01,62.05,62.11,62.25,62.19,62.16,62.15,62.12,62.31,62.26,62.14,62.04,61.93,62.00,62.08,62.10,62.03
