80.58,80.58,80.59,80.62,80.61,80.59,80.55,80.50,80.41,80.41,80.45,80.50,80.54,80.54,80.55,80.57,80.58,80.57,80.56,80.57,80.57,80.57,80.56,80.54,80.51,80.47,80.46,80.44,80.41,80.36,80.29,80.29,80.29,80.27,80.21,80.17,80.15,80.13,80.11,80.07,80.07,80.08,80.10,80.10,80.10,80.10,80.11,80.12,80.13,80.06,79.98,79.93,79.94,80.02,80.11,80.20,80.27,80.32,80.32,80.34,80.42,80.51,80.60,80.65,80.65,80.61,80.48,80.37,80.37,80.57,80.65,80.68,80.64,80.54,80.35,80.29,80.25,80.23,80.28,80.30,80.33,80.33,80.27,80.35,80.44,80.49,80.48,80.35,80.30,80.26,80.16,79.96,79.79,79.73,79.71,79.71,79.70,79.66,79.59,79.51,79.44,79.48,79.50,79.46,79.35,79.33,79.37,79.41,79.42,79.48,79.38,79.32,79.28,79.22,79.41,79.35,79.20,79.11,79.04,79.13,79.23,79.26,79.13,79.04,78.96,78.90,78.90,78.90,78.91,78.92,78.90,78.83,78.82,78.82,78.79,78.71,78.71,78.71,78.71,78.71,78.71,78.71,78.66,78.62,78.69,78.70,78.70,78.70,78.70,78.63,78.61,78.61,78.61,78.61,78.61,78.61,78.61,78.60,78.53,78.51,78.51,78.52,78.50,78.45,78.43,78.44,78.49,78.43,78.42,78.42,78.42,78.44,78.49,78.49,78.43,78.42,78.42,78.42,78.42,78.41,78.40,78.40,78.39,78.38,78.35,78.39,78.44,78.44,78.35,78.40,78.42,78.42,78.40,78.38,78.31,78.22,78.13,78.01,77.94,77.91,77.87,77.79,77.79,77.79,77.80,77.82,77.87,77.90,77.92,77.93,77.97,77.96,77.97,77.97,77.91,77.88,77.84,77.83,77.83,77.74,77.70,77.64,77.56,77.50,77.52,77.55,77.57,77.58,77.60,77.57,77.56,77.59,77.67,77.69,77.70,77.72,77.75,77.73,77.71,77.70,77.70,77.71,77.69,77.65,77.58,77.53,77.52,77.51,77.51,77.53,77.57,77.59,77.60,77.60,77.64,77.65
80.56,80.59,80.62,80.64,80.62,80.59,80.54,80.48,80.43,80.46,80.51,80.54,80.54,80.50,80.51,80.54,80.58,80.60,80.62,80.62,80.60,80.58,80.59,80.59,80.57,80.54,80.51,80.51,80.52,80.50,80.41,80.35,80.32,80.32,80.31,80.28,80.26,80.25,80.23,80.14,80.14,80.15,80.14,80.10,80.07,80.06,80.05,80.05,79.97,79.90,79.86,79.86,79.89,79.94,80.00,80.09,80.22,80.26,80.28,80.30,80.35,80.38,80.47,80.54,80.55,80.51,80.41,80.38,80.43,80.57,80.65,80.68,80.65,80.53,80.32,80.25,80.24,80.25,80.24,80.24,80.22,80.20,80.16,80.19,80.20,80.20,80.18,80.10,80.03,79.99,79.94,79.82,79.73,79.66,79.61,79.59,79.59,79.53,79.48,79.44,79.38,79.35,79.33,79.31,79.27,79.26,79.28,79.29,79.29,79.31,79.24,79.19,79.17,79.15,79.23,79.21,79.13,79.06,79.03,79.08,79.12,79.12,79.04,79.00,78.95,78.93,78.94,78.93,78.95,78.96,78.94,78.92,78.92,78.88,78.83,78.77,78.76,78.79,78.82,78.81,78.75,78.72,78.68,78.67,78.69,78.71,78.72,78.72,78.74,78.73,78.71,78.71,78.74,78.74,78.74,78.74,78.72,78.68,78.65,78.61,78.60,78.63,78.62,78.56,78.53,78.52,78.51,78.49,78.51,78.55,78.55,78.60,78.64,78.64,78.58,78.56,78.55,78.53,78.50,78.46,78.43,78.41,78.41,78.42,78.41,78.45,78.49,78.50,78.47,78.50,78.51,78.49,78.45,78.39,78.32,78.24,78.15,78.06,78.01,77.96,77.90,77.78,77.76,77.79,77.83,77.84,77.88,77.94,77.97,77.97,78.01,78.05,78.08,78.07,78.00,77.94,77.90,77.88,77.87,77.82,77.80,77.72,77.62,77.53,77.54,77.54,77.55,77.56,77.58,77.56,77.54,77.55,77.62,77.65,77.65,77.67,77.71,77.73,77.72,77.69,77.67,77.69,77.70,77.67,77.61,77.56,77.52,77.49,77.49,77.51,77.54,77.56,77.57,77.59,77.63,77.63
80.55,80.57,80.60,80.60,80.59,80.56,80.51,80.45,80.44,80.50,80.55,80.57,80.54,80.49,80.49,80.53,80.59,80.63,80.65,80.65,80.61,80.60,80.62,80.63,80.61,80.59,80.56,80.58,80.61,80.60,80.51,80.40,80.36,80.36,80.39,80.36,80.35,80.34,80.33,80.22,80.20,80.20,80.16,80.11,80.06,80.02,80.00,79.98,79.86,79.79,79.76,79.79,79.84,79.87,79.91,80.01,80.19,80.22,80.25,80.27,80.29,80.30,80.36,80.42,80.45,80.41,80.36,80.40,80.49,80.58,80.65,80.68,80.63,80.48,80.30,80.23,80.22,80.23,80.20,80.17,80.13,80.09,80.08,80.08,80.05,80.02,79.99,79.93,79.86,79.83,79.81,79.75,79.70,79.63,79.58,79.57,79.57,79.50,79.45,79.42,79.38,79.31,79.26,79.23,79.23,79.25,79.25,79.24,79.24,79.21,79.17,79.13,79.11,79.12,79.13,79.14,79.11,79.05,79.06,79.08,79.09,79.08,79.06,79.03,79.00,78.99,79.00,78.98,79.02,79.04,79.02,79.05,79.06,79.00,78.91,78.84,78.82,78.86,78.90,78.89,78.78,78.73,78.71,78.70,78.67,78.73,78.76,78.77,78.79,78.81,78.80,78.81,78.85,78.85,78.85,78.84,78.82,78.76,78.74,78.70,78.68,78.70,78.69,78.63,78.59,78.57,78.55,78.53,78.57,78.63,78.66,78.70,78.74,78.73,78.67,78.65,78.64,78.61,78.56,78.49,78.45,78.43,78.43,78.45,78.46,78.50,78.54,78.56,78.56,78.56,78.54,78.50,78.44,78.36,78.29,78.22,78.15,78.08,78.05,78.00,77.91,77.77,77.75,77.80,77.86,77.88,77.92,77.99,78.03,78.03,78.06,78.13,78.17,78.17,78.09,78.01,77.96,77.94,77.92,77.88,77.86,77.79,77.67,77.57,77.56,77.55,77.54,77.55,77.56,77.53,77.51,77.52,77.58,77.61,77.62,77.64,77.68,77.72,77.72,77.69,77.64,77.67,77.70,77.69,77.63,77.57,77.52,77.49,77.49,77.52,77.53,77.54,77.56,77.58,77.62,77.62
80.53,80.50,80.49,80.47,80.51,80.49,80.45,80.41,80.44,80.50,80.56,80.59,80.55,80.51,80.52,80.56,80.61,80.64,80.65,80.62,80.58,80.60,80.64,80.63,80.60,80.61,80.60,80.63,80.65,80.63,80.56,80.46,80.40,80.39,80.41,80.40,80.39,80.39,80.37,80.28,80.23,80.19,80.16,80.12,80.08,80.01,79.96,79.92,79.86,79.77,79.72,79.75,79.79,79.81,79.87,79.99,80.18,80.21,80.22,80.24,80.27,80.31,80.31,80.31,80.33,80.33,80.37,80.46,80.55,80.61,80.66,80.66,80.56,80.37,80.26,80.22,80.18,80.15,80.13,80.09,80.06,80.04,80.04,80.04,80.04,80.03,80.00,79.93,79.87,79.86,79.86,79.81,79.72,79.68,79.68,79.70,79.70,79.60,79.53,79.49,79.48,79.44,79.36,79.30,79.29,79.32,79.33,79.32,79.31,79.25,79.23,79.19,79.15,79.15,79.18,79.19,79.16,79.10,79.13,79.19,79.22,79.22,79.28,79.20,79.13,79.10,79.12,79.09,79.10,79.14,79.18,79.25,79.26,79.19,79.06,78.89,78.85,78.87,78.90,78.89,78.77,78.75,78.74,78.72,78.63,78.77,78.83,78.85,78.88,78.85,78.86,78.88,78.89,78.89,78.89,78.89,78.88,78.83,78.80,78.76,78.72,78.70,78.69,78.63,78.58,78.56,78.58,78.53,78.56,78.63,78.69,78.71,78.73,78.71,78.65,78.65,78.66,78.63,78.56,78.49,78.45,78.45,78.47,78.49,78.50,78.54,78.58,78.60,78.62,78.57,78.49,78.42,78.35,78.25,78.20,78.16,78.11,78.06,78.06,78.01,77.91,77.77,77.75,77.81,77.90,77.97,78.02,78.06,78.11,78.14,78.14,78.19,78.24,78.25,78.19,78.10,78.05,78.01,77.96,77.91,77.89,77.81,77.70,77.60,77.59,77.59,77.57,77.55,77.51,77.46,77.45,77.50,77.58,77.60,77.62,77.64,77.66,77.67,77.69,77.68,77.64,77.65,77.68,77.68,77.63,77.56,77.51,77.51,77.53,77.57,77.57,77.57,77.58,77.59,77.63,77.64
80.64,80.61,80.56,80.50,80.50,80.47,80.42,80.39,80.43,80.51,80.58,80.60,80.56,80.53,80.55,80.60,80.65,80.66,80.65,80.62,80.60,80.65,80.67,80.64,80.62,80.64,80.65,80.67,80.68,80.67,80.61,80.54,80.50,80.49,80.47,80.43,80.41,80.40,80.37,80.29,80.25,80.22,80.19,80.16,80.12,80.05,79.98,79.92,79.87,79.80,79.76,79.76,79.78,79.80,79.89,80.03,80.17,80.17,80.22,80.30,80.37,80.40,80.40,80.40,80.39,80.35,80.42,80.51,80.59,80.64,80.68,80.64,80.50,80.30,80.27,80.25,80.21,80.15,80.15,80.12,80.09,80.07,80.08,80.07,80.08,80.06,79.99,79.92,79.89,79.88,79.88,79.84,79.79,79.75,79.74,79.76,79.76,79.70,79.61,79.55,79.53,79.49,79.40,79.32,79.30,79.32,79.35,79.37,79.36,79.31,79.28,79.23,79.17,79.14,79.16,79.17,79.16,79.14,79.18,79.25,79.29,79.30,79.33,79.27,79.17,79.11,79.13,79.13,79.15,79.18,79.21,79.29,79.30,79.26,79.15,78.97,78.92,78.90,78.90,78.89,78.82,78.81,78.79,78.75,78.65,78.81,78.87,78.88,78.90,78.88,78.89,78.90,78.90,78.90,78.90,78.90,78.89,78.87,78.81,78.76,78.72,78.70,78.70,78.65,78.61,78.58,78.63,78.59,78.57,78.59,78.67,78.69,78.69,78.67,78.63,78.66,78.67,78.64,78.56,78.50,78.47,78.48,78.49,78.50,78.50,78.53,78.58,78.62,78.65,78.55,78.47,78.39,78.33,78.22,78.17,78.12,78.04,77.99,77.99,77.96,77.87,77.74,77.73,77.78,77.88,78.01,78.05,78.07,78.10,78.15,78.18,78.21,78.25,78.26,78.20,78.14,78.10,78.05,77.99,77.92,77.88,77.82,77.74,77.66,77.61,77.60,77.58,77.56,77.51,77.47,77.48,77.52,77.57,77.57,77.59,77.61,77.61,77.60,77.63,77.63,77.60,77.61,77.67,77.68,77.63,77.55,77.51,77.52,77.56,77.61,77.63,77.62,77.60,77.57,77.59,77.59
80.77,80.75,80.69,80.58,80.54,80.48,80.42,80.37,80.42,80.51,80.58,80.61,80.57,80.55,80.58,80.64,80.70,80.68,80.65,80.63,80.63,80.69,80.70,80.67,80.64,80.67,80.69,80.70,80.70,80.69,80.66,80.61,80.60,80.58,80.52,80.46,80.43,80.41,80.36,80.29,80.28,80.26,80.24,80.21,80.16,80.10,80.01,79.94,79.88,79.85,79.83,79.79,79.79,79.82,79.94,80.09,80.16,80.14,80.24,80.38,80.48,80.50,80.52,80.52,80.49,80.40,80.48,80.55,80.61,80.66,80.68,80.60,80.44,80.25,80.29,80.29,80.25,80.19,80.19,80.17,80.13,80.12,80.14,80.12,80.13,80.08,79.98,79.92,79.91,79.90,79.89,79.86,79.86,79.82,79.79,79.80,79.81,79.77,79.68,79.59,79.57,79.51,79.41,79.33,79.30,79.29,79.35,79.39,79.40,79.37,79.32,79.26,79.19,79.12,79.13,79.14,79.16,79.19,79.23,79.30,79.35,79.36,79.34,79.30,79.21,79.12,79.10,79.14,79.17,79.19,79.21,79.29,79.30,79.29,79.23,79.04,78.99,78.93,78.90,78.90,78.88,78.87,78.83,78.77,78.69,78.83,78.89,78.89,78.89,78.90,78.90,78.90,78.90,78.90,78.90,78.90,78.90,78.89,78.81,78.76,78.72,78.71,78.71,78.69,78.64,78.61,78.68,78.66,78.59,78.56,78.64,78.67,78.66,78.63,78.63,78.68,78.68,78.64,78.57,78.50,78.50,78.50,78.50,78.50,78.50,78.52,78.57,78.62,78.65,78.53,78.44,78.38,78.33,78.22,78.17,78.09,77.97,77.91,77.90,77.88,77.82,77.72,77.71,77.76,77.88,78.04,78.07,78.07,78.10,78.17,78.20,78.22,78.24,78.25,78.20,78.16,78.12,78.07,78.02,77.92,77.88,77.84,77.78,77.72,77.64,77.61,77.60,77.56,77.52,77.51,77.52,77.54,77.55,77.54,77.57,77.59,77.56,77.54,77.58,77.59,77.58,77.59,77.66,77.67,77.62,77.55,77.52,77.53,77.58,77.64,77.67,77.66,77.61,77.55,77.53,77.52
80.82,80.81,80.77,80.71,80.68,80.55,80.41,80.33,80.39,80.50,80.57,80.60,80.59,80.58,80.61,80.66,80.70,80.69,80.67,80.64,80.63,80.67,80.69,80.68,80.67,80.69,80.70,80.70,80.70,80.69,80.66,80.60,80.58,80.57,80.52,80.47,80.45,80.43,80.41,80.37,80.33,80.30,80.27,80.25,80.20,80.11,80.00,79.92,79.90,79.89,79.87,79.85,79.81,79.86,79.98,80.13,80.15,80.19,80.31,80.43,80.50,80.50,80.52,80.51,80.46,80.40,80.47,80.54,80.60,80.63,80.62,80.47,80.32,80.25,80.33,80.33,80.29,80.25,80.21,80.16,80.13,80.12,80.16,80.16,80.14,80.06,79.96,79.95,79.92,79.91,79.90,79.89,79.89,79.87,79.85,79.86,79.86,79.78,79.68,79.61,79.59,79.46,79.39,79.35,79.30,79.26,79.32,79.38,79.39,79.35,79.28,79.23,79.19,79.17,79.13,79.14,79.23,79.36,79.35,79.40,79.42,79.38,79.32,79.34,79.30,79.21,79.11,79.07,79.10,79.16,79.21,79.29,79.30,79.33,79.28,79.03,79.00,78.94,78.90,78.90,78.89,78.85,78.78,78.73,78.70,78.79,78.83,78.83,78.84,78.89,78.90,78.90,78.90,78.90,78.90,78.90,78.90,78.89,78.82,78.79,78.78,78.77,78.77,78.72,78.65,78.62,78.69,78.68,78.63,78.61,78.67,78.64,78.66,78.68,78.69,78.75,78.71,78.67,78.61,78.52,78.55,78.53,78.51,78.51,78.51,78.55,78.58,78.60,78.59,78.51,78.43,78.36,78.29,78.22,78.18,78.09,77.94,77.84,77.83,77.82,77.80,77.75,77.74,77.83,77.96,78.08,78.10,78.14,78.20,78.25,78.25,78.23,78.22,78.22,78.19,78.14,78.10,78.06,78.02,77.97,77.91,77.85,77.78,77.71,77.69,77.67,77.64,77.60,77.57,77.55,77.52,77.50,77.51,77.53,77.56,77.58,77.55,77.54,77.59,77.63,77.64,77.64,77.64,77.62,77.58,77.52,77.54,77.57,77.59,77.60,77.60,77.59,77.57,77.53,77.49,77.44
80.85,80.83,80.79,80.75,80.67,80.53,80.39,80.31,80.37,80.46,80.54,80.58,80.59,80.59,80.61,80.65,80.69,80.69,80.66,80.63,80.62,80.66,80.68,80.68,80.68,80.70,80.70,80.69,80.68,80.66,80.63,80.58,80.56,80.55,80.52,80.47,80.45,80.44,80.44,80.41,80.37,80.34,80.32,80.29,80.25,80.14,80.01,79.91,79.89,79.89,79.89,79.88,79.83,79.89,80.01,80.13,80.13,80.24,80.37,80.47,80.50,80.50,80.49,80.44,80.38,80.42,80.49,80.54,80.57,80.60,80.55,80.38,80.26,80.27,80.34,80.31,80.29,80.27,80.23,80.16,80.12,80.12,80.17,80.18,80.16,80.08,79.95,79.94,79.92,79.91,79.90,79.90,79.90,79.89,79.88,79.86,79.85,79.77,79.68,79.62,79.60,79.46,79.38,79.33,79.27,79.23,79.29,79.36,79.39,79.34,79.28,79.24,79.20,79.19,79.13,79.19,79.30,79.41,79.40,79.43,79.43,79.39,79.33,79.35,79.34,79.27,79.16,79.11,79.11,79.15,79.20,79.25,79.30,79.35,79.30,79.01,78.97,78.93,78.90,78.90,78.90,78.84,78.77,78.70,78.67,78.76,78.80,78.81,78.82,78.88,78.90,78.90,78.90,78.90,78.90,78.90,78.90,78.88,78.82,78.80,78.80,78.79,78.77,78.72,78.66,78.63,78.67,78.66,78.63,78.62,78.65,78.62,78.66,78.70,78.71,78.74,78.68,78.63,78.59,78.53,78.57,78.56,78.54,78.53,78.52,78.54,78.56,78.55,78.54,78.47,78.41,78.35,78.29,78.25,78.19,78.08,77.92,77.83,77.81,77.80,77.78,77.74,77.74,77.85,77.98,78.09,78.10,78.15,78.22,78.28,78.27,78.22,78.20,78.19,78.20,78.15,78.12,78.09,78.05,78.00,77.89,77.80,77.74,77.69,77.70,77.70,77.67,77.60,77.56,77.54,77.51,77.47,77.48,77.50,77.52,77.53,77.51,77.52,77.58,77.63,77.64,77.64,77.64,77.62,77.58,77.54,77.55,77.57,77.56,77.53,77.50,77.51,77.51,77.50,77.47,77.39
80.86,80.84,80.78,80.71,80.57,80.44,80.35,80.31,80.34,80.42,80.50,80.55,80.57,80.56,80.59,80.63,80.66,80.66,80.63,80.61,80.61,80.65,80.66,80.66,80.67,80.70,80.70,80.68,80.65,80.61,80.58,80.56,80.55,80.54,80.51,80.47,80.43,80.42,80.46,80.44,80.41,80.39,80.38,80.34,80.30,80.18,80.02,79.90,79.86,79.86,79.88,79.89,79.85,79.93,80.03,80.10,80.10,80.29,80.43,80.50,80.50,80.50,80.43,80.33,80.27,80.44,80.55,80.56,80.54,80.57,80.48,80.31,80.23,80.31,80.33,80.27,80.25,80.26,80.23,80.16,80.11,80.12,80.17,80.19,80.20,80.11,79.96,79.91,79.90,79.90,79.90,79.90,79.90,79.90,79.87,79.82,79.80,79.75,79.68,79.63,79.61,79.49,79.38,79.29,79.22,79.21,79.26,79.33,79.38,79.34,79.32,79.27,79.21,79.19,79.14,79.25,79.37,79.39,79.40,79.39,79.39,79.39,79.36,79.34,79.33,79.32,79.25,79.23,79.18,79.16,79.18,79.19,79.30,79.36,79.29,78.99,78.92,78.90,78.90,78.90,78.90,78.85,78.78,78.70,78.61,78.74,78.81,78.82,78.82,78.88,78.90,78.90,78.90,78.90,78.90,78.90,78.89,78.87,78.82,78.80,78.80,78.78,78.73,78.70,78.67,78.63,78.62,78.61,78.60,78.60,78.60,78.61,78.66,78.70,78.70,78.69,78.62,78.55,78.51,78.54,78.59,78.60,78.59,78.57,78.51,78.50,78.50,78.50,78.48,78.42,78.37,78.34,78.30,78.28,78.21,78.07,77.90,77.85,77.83,77.80,77.76,77.70,77.73,77.83,77.96,78.06,78.07,78.11,78.19,78.26,78.28,78.22,78.17,78.17,78.21,78.19,78.18,78.16,78.12,78.02,77.84,77.72,77.66,77.66,77.68,77.71,77.68,77.57,77.51,77.50,77.47,77.42,77.45,77.46,77.48,77.47,77.45,77.50,77.56,77.60,77.60,77.62,77.64,77.64,77.62,77.58,77.56,77.54,77.50,77.43,77.38,77.40,77.43,77.45,77.45,77.36
80.84,80.86,80.83,80.72,80.54,80.42,80.34,80.31,80.34,80.43,80.52,80.57,80.56,80.53,80.53,80.55,80.56,80.56,80.57,80.60,80.63,80.65,80.63,80.64,80.67,80.70,80.70,80.71,80.70,80.66,80.63,80.61,80.59,80.54,80.50,80.49,80.47,80.46,80.45,80.42,80.40,80.40,80.39,80.38,80.32,80.21,80.09,80.00,79.93,79.90,79.87,79.84,79.87,80.00,80.09,80.14,80.22,80.37,80.46,80.50,80.50,80.49,80.42,80.34,80.33,80.48,80.57,80.59,80.56,80.50,80.34,80.23,80.22,80.30,80.32,80.29,80.25,80.21,80.21,80.19,80.18,80.18,80.19,80.16,80.12,80.03,79.93,79.90,79.90,79.90,79.90,79.90,79.87,79.84,79.80,79.76,79.76,79.71,79.72,79.74,79.70,79.67,79.54,79.39,79.31,79.29,79.34,79.40,79.44,79.46,79.46,79.34,79.18,79.15,79.16,79.25,79.32,79.34,79.39,79.37,79.36,79.31,79.13,79.04,79.23,79.45,79.41,79.36,79.33,79.27,79.16,79.16,79.18,79.23,79.19,78.94,78.91,78.90,78.90,78.90,78.90,78.85,78.79,78.72,78.61,78.74,78.82,78.85,78.87,78.89,78.90,78.90,78.90,78.90,78.90,78.90,78.88,78.83,78.83,78.81,78.79,78.76,78.74,78.71,78.69,78.67,78.66,78.64,78.63,78.63,78.62,78.61,78.66,78.70,78.70,78.69,78.60,78.55,78.55,78.58,78.59,78.60,78.59,78.57,78.52,78.51,78.50,78.46,78.44,78.38,78.34,78.31,78.29,78.25,78.18,78.07,77.94,77.89,77.87,77.84,77.78,77.70,77.73,77.81,77.90,77.99,77.99,78.04,78.10,78.15,78.10,78.02,77.99,78.02,78.09,78.17,78.21,78.21,78.14,78.02,77.83,77.68,77.60,77.62,77.64,77.63,77.59,77.49,77.46,77.46,77.43,77.39,77.42,77.43,77.44,77.44,77.44,77.48,77.53,77.56,77.55,77.53,77.52,77.56,77.61,77.58,77.50,77.45,77.39,77.30,77.28,77.28,77.28,77.28,77.30,77.24
80.77,80.83,80.82,80.69,80.48,80.38,80.33,80.32,80.36,80.46,80.55,80.60,80.59,80.56,80.55,80.54,80.53,80.53,80.56,80.62,80.67,80.66,80.63,80.63,80.66,80.71,80.72,80.74,80.74,80.70,80.66,80.65,80.61,80.55,80.50,80.49,80.49,80.48,80.44,80.42,80.40,80.39,80.40,80.39,80.32,80.24,80.16,80.11,80.01,79.93,79.87,79.83,79.92,80.05,80.13,80.17,80.31,80.43,80.49,80.50,80.50,80.48,80.40,80.36,80.40,80.53,80.58,80.60,80.56,80.44,80.24,80.20,80.24,80.31,80.31,80.30,80.25,80.19,80.21,80.23,80.24,80.24,80.22,80.16,80.08,79.98,79.90,79.89,79.90,79.90,79.90,79.90,79.86,79.82,79.77,79.76,79.74,79.71,79.75,79.82,79.78,79.80,79.68,79.53,79.46,79.41,79.46,79.50,79.51,79.57,79.56,79.40,79.21,79.16,79.19,79.24,79.28,79.30,79.37,79.36,79.34,79.25,78.98,78.86,79.18,79.53,79.51,79.42,79.41,79.32,79.15,79.15,79.13,79.15,79.13,78.93,78.91,78.90,78.90,78.90,78.89,78.83,78.77,78.72,78.61,78.74,78.82,78.86,78.90,78.90,78.90,78.90,78.90,78.90,78.90,78.90,78.88,78.82,78.84,78.82,78.78,78.74,78.75,78.72,78.70,78.69,78.68,78.65,78.65,78.66,78.65,78.62,78.65,78.68,78.68,78.65,78.58,78.55,78.58,78.60,78.60,78.60,78.59,78.56,78.50,78.50,78.48,78.42,78.39,78.34,78.31,78.29,78.27,78.21,78.15,78.07,77.97,77.91,77.90,77.86,77.80,77.70,77.72,77.78,77.85,77.91,77.91,77.93,77.97,78.00,77.93,77.85,77.83,77.87,77.97,78.10,78.17,78.15,78.05,77.97,77.79,77.63,77.54,77.57,77.56,77.54,77.49,77.42,77.45,77.44,77.40,77.34,77.36,77.37,77.37,77.37,77.37,77.39,77.41,77.43,77.42,77.38,77.36,77.42,77.51,77.47,77.36,77.29,77.24,77.16,77.15,77.13,77.12,77.11,77.14,77.11
80.61,80.71,80.72,80.57,80.40,80.32,80.31,80.35,80.43,80.51,80.58,80.64,80.67,80.68,80.67,80.64,80.61,80.60,80.64,80.69,80.71,80.69,80.66,80.65,80.67,80.74,80.76,80.76,80.75,80.71,80.66,80.65,80.63,80.59,80.49,80.46,80.47,80.48,80.45,80.44,80.40,80.38,80.39,80.37,80.32,80.27,80.25,80.24,80.12,79.97,79.89,79.90,80.01,80.07,80.13,80.20,80.36,80.45,80.49,80.51,80.51,80.44,80.37,80.38,80.50,80.58,80.60,80.60,80.55,80.39,80.23,80.23,80.30,80.36,80.33,80.29,80.25,80.22,80.26,80.28,80.30,80.30,80.26,80.21,80.12,80.00,79.87,79.88,79.89,79.90,79.90,79.90,79.89,79.85,79.82,79.82,79.77,79.77,79.80,79.84,79.84,79.84,79.81,79.75,79.70,79.59,79.61,79.63,79.60,79.63,79.61,79.48,79.31,79.24,79.22,79.23,79.26,79.30,79.34,79.37,79.34,79.22,78.97,78.88,79.20,79.53,79.50,79.39,79.37,79.30,79.16,79.19,79.17,79.15,79.11,78.96,78.91,78.90,78.90,78.90,78.85,78.76,78.71,78.69,78.61,78.74,78.80,78.83,78.90,78.90,78.90,78.90,78.90,78.90,78.90,78.90,78.89,78.86,78.88,78.83,78.77,78.72,78.76,78.73,78.70,78.68,78.64,78.63,78.66,78.69,78.68,78.62,78.62,78.64,78.62,78.56,78.53,78.55,78.60,78.60,78.60,78.60,78.57,78.51,78.45,78.45,78.43,78.38,78.32,78.27,78.27,78.26,78.21,78.15,78.11,78.05,77.97,77.91,77.90,77.88,77.82,77.70,77.72,77.77,77.81,77.83,77.81,77.78,77.77,77.78,77.76,77.72,77.70,77.72,77.82,77.97,78.02,77.93,77.78,77.82,77.70,77.56,77.46,77.49,77.46,77.42,77.40,77.39,77.47,77.45,77.37,77.28,77.27,77.28,77.26,77.23,77.21,77.18,77.17,77.17,77.16,77.13,77.13,77.21,77.28,77.20,77.09,77.06,77.04,76.98,76.99,76.96,76.94,76.94,76.98,76.98
80.46,80.53,80.54,80.45,80.33,80.27,80.28,80.34,80.44,80.51,80.57,80.61,80.66,80.69,80.70,80.69,80.67,80.64,80.66,80.68,80.68,80.65,80.63,80.63,80.65,80.71,80.73,80.73,80.72,80.68,80.64,80.63,80.60,80.55,80.47,80.44,80.46,80.47,80.45,80.44,80.40,80.39,80.38,80.38,80.32,80.28,80.27,80.27,80.16,80.03,79.96,79.99,80.06,80.09,80.15,80.26,80.40,80.47,80.48,80.49,80.50,80.42,80.38,80.43,80.54,80.59,80.60,80.57,80.48,80.31,80.21,80.24,80.30,80.33,80.29,80.24,80.21,80.21,80.27,80.29,80.33,80.34,80.30,80.26,80.16,80.00,79.86,79.85,79.86,79.88,79.89,79.90,79.90,79.87,79.85,79.86,79.80,79.79,79.81,79.84,79.87,79.85,79.83,79.81,79.78,79.70,79.72,79.70,79.62,79.62,79.61,79.49,79.34,79.28,79.23,79.20,79.18,79.19,79.26,79.20,79.13,79.04,78.87,78.87,79.15,79.43,79.45,79.32,79.30,79.24,79.14,79.19,79.18,79.17,79.13,78.99,78.92,78.90,78.90,78.89,78.83,78.72,78.69,78.72,78.61,78.68,78.73,78.79,78.90,78.90,78.90,78.90,78.90,78.90,78.90,78.88,78.85,78.84,78.84,78.79,78.72,78.67,78.73,78.74,78.74,78.72,78.63,78.65,78.68,78.68,78.64,78.57,78.56,78.54,78.50,78.47,78.47,78.50,78.53,78.49,78.47,78.48,78.48,78.43,78.33,78.31,78.28,78.23,78.19,78.15,78.16,78.17,78.12,78.03,78.00,77.97,77.92,77.85,77.84,77.81,77.75,77.70,77.71,77.73,77.75,77.75,77.73,77.68,77.64,77.62,77.60,77.57,77.57,77.59,77.63,77.68,77.69,77.64,77.54,77.55,77.48,77.40,77.34,77.36,77.33,77.31,77.30,77.29,77.34,77.33,77.27,77.19,77.19,77.20,77.19,77.15,77.12,77.10,77.09,77.08,77.07,77.04,77.07,77.10,77.12,77.07,77.01,76.99,76.97,76.95,76.97,76.97,76.96,76.96,76.96,76.97
80.36,80.37,80.37,80.35,80.28,80.23,80.24,80.31,80.41,80.48,80.53,80.57,80.62,80.67,80.69,80.71,80.70,80.67,80.67,80.67,80.64,80.60,80.60,80.61,80.64,80.68,80.69,80.69,80.67,80.64,80.62,80.61,80.57,80.51,80.45,80.43,80.45,80.46,80.44,80.43,80.42,80.40,80.38,80.38,80.32,80.28,80.27,80.27,80.18,80.09,80.05,80.07,80.11,80.12,80.20,80.33,80.44,80.48,80.47,80.46,80.47,80.40,80.42,80.49,80.58,80.60,80.60,80.53,80.40,80.23,80.20,80.24,80.28,80.27,80.24,80.18,80.17,80.20,80.27,80.30,80.34,80.36,80.33,80.31,80.19,80.02,79.86,79.82,79.83,79.86,79.89,79.90,79.90,79.88,79.87,79.87,79.81,79.79,79.80,79.83,79.87,79.83,79.81,79.80,79.78,79.76,79.78,79.74,79.62,79.59,79.57,79.46,79.33,79.30,79.24,79.17,79.11,79.09,79.19,79.04,78.92,78.86,78.77,78.85,79.09,79.31,79.36,79.24,79.22,79.18,79.12,79.18,79.19,79.19,79.15,79.01,78.92,78.89,78.89,78.88,78.81,78.70,78.70,78.75,78.61,78.62,78.67,78.76,78.89,78.88,78.88,78.88,78.88,78.89,78.88,78.84,78.79,78.78,78.77,78.72,78.65,78.60,78.68,78.73,78.75,78.72,78.60,78.64,78.66,78.63,78.56,78.50,78.47,78.44,78.39,78.39,78.39,78.42,78.44,78.37,78.32,78.34,78.36,78.33,78.21,78.17,78.14,78.09,78.06,78.03,78.04,78.06,78.03,77.93,77.90,77.88,77.85,77.80,77.77,77.73,77.68,77.69,77.70,77.69,77.68,77.68,77.67,77.62,77.56,77.52,77.51,77.48,77.49,77.52,77.50,77.44,77.42,77.40,77.37,77.34,77.31,77.29,77.26,77.27,77.26,77.25,77.23,77.22,77.23,77.22,77.18,77.14,77.14,77.16,77.16,77.15,77.12,77.11,77.11,77.09,77.07,77.05,77.08,77.07,77.04,77.01,77.01,76.99,76.97,76.98,77.01,77.05,77.06,77.04,77.01,77.02
80.41,80.40,80.36,80.29,80.24,80.22,80.21,80.23,80.29,80.37,80.45,80.50,80.54,80.58,80.62,80.66,80.67,80.70,80.71,80.69,80.64,80.60,80.59,80.62,80.67,80.71,80.66,80.63,80.62,80.62,80.61,80.62,80.59,80.54,80.45,80.40,80.40,80.41,80.39,80.42,80.43,80.42,80.39,80.37,80.32,80.28,80.26,80.25,80.19,80.14,80.13,80.15,80.14,80.19,80.29,80.41,80.48,80.49,80.45,80.39,80.36,80.37,80.47,80.59,80.65,80.63,80.61,80.49,80.33,80.21,80.20,80.22,80.23,80.22,80.21,80.16,80.15,80.19,80.27,80.33,80.34,80.35,80.36,80.32,80.21,80.04,79.87,79.81,79.84,79.88,79.90,79.90,79.90,79.89,79.88,79.84,79.81,79.80,79.80,79.80,79.76,79.74,79.73,79.71,79.66,79.65,79.72,79.72,79.62,79.55,79.44,79.33,79.25,79.28,79.28,79.19,79.11,79.11,79.23,79.06,78.88,78.76,78.73,78.84,79.04,79.19,79.17,79.13,79.20,79.20,79.11,79.16,79.17,79.18,79.13,78.99,78.91,78.85,78.81,78.81,78.79,78.77,78.74,78.70,78.61,78.66,78.73,78.78,78.81,78.76,78.79,78.81,78.80,78.81,78.81,78.76,78.70,78.65,78.64,78.59,78.54,78.54,78.60,78.58,78.56,78.56,78.52,78.49,78.47,78.46,78.44,78.40,78.36,78.34,78.32,78.32,78.28,78.28,78.28,78.24,78.24,78.23,78.22,78.19,78.14,78.11,78.08,78.03,77.97,77.97,77.97,77.98,77.98,77.95,77.90,77.84,77.80,77.78,77.75,77.70,77.64,77.64,77.67,77.65,77.63,77.64,77.68,77.66,77.65,77.64,77.63,77.59,77.59,77.61,77.61,77.54,77.48,77.44,77.41,77.43,77.43,77.42,77.42,77.42,77.40,77.36,77.32,77.27,77.30,77.31,77.27,77.22,77.25,77.28,77.31,77.33,77.34,77.33,77.32,77.31,77.29,77.25,77.24,77.23,77.19,77.12,77.09,77.08,77.09,77.10,77.14,77.18,77.20,77.19,77.18,77.16
80.42,80.43,80.38,80.29,80.22,80.18,80.17,80.18,80.22,80.28,80.34,80.38,80.41,80.46,80.50,80.54,80.58,80.66,80.68,80.66,80.62,80.60,80.58,80.60,80.64,80.67,80.61,80.57,80.56,80.57,80.58,80.62,80.62,80.57,80.47,80.39,80.37,80.37,80.36,80.39,80.42,80.41,80.37,80.34,80.32,80.30,80.28,80.25,80.19,80.16,80.17,80.21,80.17,80.23,80.33,80.43,80.45,80.48,80.45,80.41,80.36,80.39,80.50,80.60,80.65,80.62,80.55,80.40,80.25,80.18,80.19,80.18,80.17,80.15,80.13,80.09,80.12,80.19,80.26,80.29,80.27,80.25,80.27,80.24,80.14,80.00,79.85,79.79,79.82,79.84,79.84,79.81,79.81,79.82,79.82,79.79,79.77,79.76,79.74,79.69,79.63,79.61,79.59,79.56,79.52,79.53,79.58,79.58,79.51,79.46,79.36,79.25,79.19,79.23,79.25,79.16,79.08,79.09,79.18,79.05,78.91,78.81,78.77,78.86,78.99,79.08,79.03,79.02,79.08,79.09,79.03,79.04,79.04,79.04,79.01,78.90,78.87,78.81,78.76,78.74,78.76,78.77,78.74,78.69,78.64,78.67,78.72,78.76,78.77,78.71,78.73,78.74,78.73,78.77,78.75,78.71,78.67,78.62,78.61,78.58,78.55,78.56,78.59,78.54,78.51,78.53,78.53,78.47,78.45,78.45,78.45,78.47,78.42,78.39,78.38,78.38,78.35,78.33,78.33,78.34,78.35,78.33,78.30,78.27,78.29,78.25,78.18,78.11,78.03,78.05,78.07,78.07,78.08,78.08,78.03,77.96,77.92,77.90,77.85,77.76,77.67,77.63,77.67,77.68,77.71,77.79,77.83,77.80,77.80,77.83,77.80,77.78,77.78,77.78,77.73,77.64,77.58,77.52,77.46,77.51,77.52,77.52,77.51,77.49,77.47,77.43,77.38,77.31,77.34,77.34,77.31,77.29,77.33,77.35,77.40,77.44,77.47,77.47,77.45,77.42,77.41,77.36,77.32,77.29,77.25,77.18,77.12,77.11,77.12,77.14,77.18,77.23,77.26,77.27,77.27,77.25
80.40,80.45,80.42,80.32,80.20,80.14,80.12,80.15,80.20,80.21,80.22,80.23,80.26,80.33,80.36,80.39,80.45,80.58,80.61,80.60,80.60,80.60,80.57,80.56,80.56,80.60,80.56,80.52,80.50,80.51,80.54,80.62,80.65,80.62,80.51,80.39,80.35,80.35,80.35,80.35,80.38,80.38,80.33,80.30,80.33,80.34,80.32,80.25,80.17,80.16,80.19,80.24,80.20,80.25,80.33,80.40,80.40,80.44,80.48,80.48,80.43,80.45,80.52,80.58,80.60,80.60,80.45,80.28,80.15,80.15,80.17,80.14,80.11,80.07,80.02,80.00,80.07,80.20,80.25,80.20,80.14,80.09,80.11,80.08,80.02,79.93,79.82,79.77,79.77,79.76,79.73,79.68,79.66,79.69,79.72,79.72,79.71,79.70,79.64,79.55,79.47,79.45,79.40,79.37,79.36,79.41,79.39,79.36,79.35,79.35,79.31,79.22,79.14,79.16,79.17,79.09,79.03,79.06,79.07,79.01,78.98,78.95,78.88,78.91,78.96,78.97,78.91,78.90,78.90,78.90,78.90,78.87,78.84,78.83,78.82,78.77,78.80,78.77,78.72,78.68,78.72,78.73,78.72,78.70,78.67,78.66,78.68,78.71,78.74,78.71,78.70,78.68,78.66,78.73,78.70,78.68,78.67,78.64,78.64,78.63,78.62,78.62,78.62,78.57,78.55,78.58,78.58,78.55,78.53,78.54,78.55,78.65,78.59,78.52,78.52,78.52,78.52,78.52,78.52,78.59,78.59,78.56,78.51,78.47,78.56,78.51,78.39,78.25,78.17,78.23,78.25,78.26,78.26,78.28,78.23,78.18,78.14,78.09,78.00,77.88,77.75,77.65,77.67,77.75,77.89,78.04,78.06,78.00,78.01,78.07,78.02,78.03,78.03,77.98,77.84,77.75,77.71,77.63,77.51,77.59,77.60,77.59,77.56,77.50,77.50,77.48,77.42,77.35,77.35,77.33,77.33,77.35,77.39,77.40,77.44,77.50,77.54,77.54,77.51,77.48,77.46,77.41,77.34,77.30,77.27,77.20,77.13,77.10,77.10,77.11,77.17,77.23,77.27,77.30,77.30,77.29
80.34,80.39,80.40,80.34,80.25,80.19,80.18,80.24,80.32,80.34,80.34,80.33,80.30,80.31,80.32,80.34,80.36,80.43,80.49,80.53,80.55,80.54,80.55,80.56,80.58,80.59,80.55,80.52,80.50,80.51,80.55,80.62,80.68,80.70,80.63,80.52,80.48,80.47,80.43,80.39,80.37,80.35,80.31,80.27,80.26,80.26,80.27,80.26,80.23,80.19,80.17,80.18,80.21,80.29,80.36,80.40,80.40,80.43,80.44,80.42,80.38,80.44,80.52,80.58,80.59,80.56,80.38,80.19,80.07,80.04,80.04,80.05,80.03,79.98,79.93,79.91,79.96,80.04,80.05,80.01,79.96,79.92,79.90,79.88,79.86,79.80,79.73,79.68,79.65,79.62,79.59,79.56,79.54,79.55,79.55,79.54,79.50,79.48,79.44,79.40,79.36,79.33,79.31,79.30,79.34,79.36,79.33,79.29,79.27,79.30,79.26,79.20,79.16,79.20,79.15,79.07,79.02,79.05,79.03,78.99,78.96,78.96,78.95,78.99,79.02,79.01,78.94,78.93,78.93,78.94,78.96,78.95,78.95,78.93,78.91,78.89,78.94,78.90,78.84,78.80,78.84,78.83,78.78,78.72,78.63,78.65,78.70,78.75,78.78,78.75,78.76,78.77,78.76,78.81,78.80,78.80,78.77,78.68,78.65,78.69,78.74,78.74,78.77,78.71,78.68,78.70,78.70,78.72,78.70,78.67,78.65,78.73,78.73,78.72,78.74,78.74,78.71,78.69,78.67,78.66,78.64,78.62,78.60,78.60,78.65,78.61,78.49,78.33,78.28,78.39,78.43,78.42,78.39,78.40,78.38,78.34,78.30,78.20,78.12,78.01,77.87,77.71,77.70,77.85,78.05,78.19,78.25,78.16,78.11,78.14,78.12,78.13,78.08,77.98,77.81,77.74,77.71,77.65,77.56,77.60,77.60,77.59,77.58,77.55,77.55,77.54,77.51,77.46,77.42,77.37,77.34,77.35,77.43,77.49,77.53,77.56,77.58,77.56,77.52,77.49,77.48,77.44,77.37,77.32,77.28,77.22,77.13,77.09,77.07,77.08,77.14,77.21,77.26,77.27,77.24,77.24
80.31,80.35,80.36,80.33,80.26,80.21,80.22,80.31,80.42,80.44,80.44,80.43,80.35,80.30,80.30,80.34,80.39,80.43,80.45,80.48,80.50,80.50,80.52,80.55,80.56,80.56,80.53,80.50,80.50,80.53,80.56,80.61,80.68,80.74,80.71,80.60,80.56,80.52,80.47,80.42,80.38,80.33,80.28,80.24,80.21,80.21,80.23,80.24,80.24,80.20,80.15,80.14,80.19,80.27,80.33,80.38,80.39,80.41,80.40,80.37,80.35,80.44,80.53,80.59,80.59,80.50,80.29,80.11,80.00,79.96,79.94,79.95,79.95,79.91,79.87,79.85,79.87,79.91,79.90,79.87,79.84,79.80,79.77,79.76,79.75,79.72,79.67,79.63,79.60,79.57,79.55,79.55,79.51,79.48,79.46,79.45,79.39,79.37,79.36,79.34,79.32,79.30,79.29,79.32,79.38,79.42,79.38,79.31,79.28,79.32,79.28,79.24,79.24,79.29,79.18,79.09,79.04,79.01,78.94,78.93,78.96,78.99,79.01,79.06,79.07,79.04,78.97,78.98,78.99,79.01,79.02,79.00,79.02,79.01,78.99,78.99,79.05,79.01,78.95,78.92,78.95,78.90,78.85,78.78,78.61,78.65,78.73,78.80,78.82,78.80,78.82,78.84,78.85,78.87,78.87,78.87,78.83,78.70,78.66,78.72,78.79,78.80,78.84,78.82,78.79,78.80,78.80,78.84,78.82,78.78,78.73,78.79,78.82,78.85,78.88,78.87,78.82,78.79,78.75,78.70,78.68,78.66,78.65,78.66,78.70,78.69,78.58,78.42,78.39,78.52,78.56,78.54,78.50,78.50,78.46,78.42,78.38,78.27,78.17,78.05,77.91,77.72,77.68,77.85,78.07,78.23,78.31,78.23,78.16,78.15,78.13,78.13,78.08,77.97,77.80,77.74,77.73,77.68,77.58,77.60,77.59,77.59,77.58,77.58,77.57,77.57,77.56,77.52,77.49,77.43,77.38,77.37,77.44,77.51,77.55,77.57,77.57,77.55,77.50,77.47,77.44,77.43,77.38,77.33,77.27,77.21,77.13,77.08,77.06,77.05,77.12,77.18,77.22,77.21,77.14,77.12
80.31,80.33,80.32,80.29,80.22,80.17,80.20,80.34,80.46,80.49,80.52,80.53,80.43,80.29,80.30,80.42,80.57,80.62,80.52,80.44,80.43,80.46,80.49,80.49,80.49,80.50,80.47,80.48,80.50,80.55,80.57,80.60,80.66,80.73,80.72,80.63,80.56,80.51,80.45,80.43,80.39,80.33,80.26,80.21,80.19,80.18,80.17,80.16,80.18,80.16,80.13,80.11,80.11,80.17,80.25,80.32,80.38,80.38,80.33,80.31,80.35,80.47,80.57,80.62,80.58,80.38,80.18,80.05,79.97,79.92,79.88,79.86,79.86,79.85,79.82,79.81,79.81,79.82,79.81,79.81,79.79,79.77,79.76,79.76,79.74,79.69,79.64,79.65,79.64,79.65,79.66,79.67,79.58,79.51,79.48,79.48,79.42,79.43,79.43,79.42,79.37,79.36,79.38,79.43,79.52,79.62,79.57,79.48,79.41,79.44,79.38,79.36,79.39,79.44,79.26,79.17,79.09,78.96,78.75,78.83,78.96,79.05,79.06,79.12,79.13,79.08,79.01,79.05,79.10,79.11,79.08,79.02,79.06,79.08,79.07,79.07,79.09,79.08,79.06,79.04,79.06,78.96,78.92,78.88,78.63,78.67,78.78,78.87,78.87,78.87,78.88,78.89,78.89,78.90,78.90,78.89,78.85,78.70,78.69,78.71,78.75,78.80,78.82,78.86,78.88,78.88,78.88,78.89,78.88,78.85,78.78,78.80,78.85,78.89,78.90,78.89,78.83,78.79,78.77,78.70,78.70,78.69,78.66,78.63,78.70,78.73,78.67,78.54,78.50,78.62,78.63,78.59,78.59,78.56,78.47,78.40,78.37,78.27,78.13,77.98,77.83,77.67,77.59,77.70,77.91,78.14,78.21,78.19,78.14,78.07,78.02,78.02,78.00,77.94,77.83,77.77,77.76,77.69,77.54,77.59,77.58,77.56,77.55,77.57,77.54,77.55,77.55,77.52,77.55,77.50,77.43,77.40,77.41,77.44,77.48,77.51,77.50,77.50,77.45,77.39,77.32,77.35,77.36,77.32,77.25,77.17,77.12,77.08,77.06,77.05,77.10,77.15,77.15,77.10,76.96,76.91
80.32,80.35,80.34,80.30,80.21,80.14,80.17,80.32,80.47,80.50,80.53,80.55,80.45,80.32,80.34,80.47,80.62,80.68,80.58,80.48,80.44,80.47,80.49,80.48,80.46,80.44,80.44,80.46,80.48,80.50,80.52,80.53,80.58,80.63,80.65,80.58,80.53,80.48,80.45,80.42,80.38,80.31,80.25,80.20,80.19,80.19,80.19,80.16,80.15,80.13,80.12,80.10,80.10,80.11,80.14,80.18,80.25,80.27,80.25,80.24,80.33,80.48,80.57,80.58,80.47,80.27,80.14,80.03,79.95,79.90,79.86,79.83,79.81,79.79,79.79,79.78,79.78,79.79,79.83,79.84,79.82,79.80,79.81,79.83,79.79,79.73,79.67,79.64,79.68,79.72,79.74,79.71,79.63,79.57,79.53,79.50,79.46,79.47,79.50,79.54,79.50,79.46,79.49,79.57,79.66,79.73,79.68,79.61,79.56,79.54,79.50,79.51,79.54,79.54,79.37,79.30,79.25,79.15,78.84,78.96,79.06,79.06,79.08,79.12,79.12,79.09,79.06,79.08,79.11,79.12,79.09,79.02,79.06,79.09,79.10,79.14,79.11,79.12,79.12,79.09,79.13,79.09,79.07,79.00,78.64,78.64,78.74,78.85,78.89,78.89,78.90,78.90,78.90,78.90,78.90,78.90,78.85,78.70,78.70,78.73,78.77,78.80,78.85,78.88,78.90,78.90,78.90,78.90,78.89,78.86,78.80,78.81,78.83,78.87,78.90,78.89,78.83,78.80,78.79,78.75,78.72,78.70,78.69,78.68,78.71,78.75,78.71,78.60,78.58,78.62,78.61,78.57,78.54,78.48,78.39,78.32,78.29,78.23,78.12,78.00,77.87,77.71,77.60,77.68,77.85,78.01,78.12,78.13,78.08,78.00,77.93,77.92,77.92,77.90,77.82,77.74,77.71,77.65,77.54,77.59,77.59,77.58,77.57,77.58,77.54,77.52,77.49,77.46,77.53,77.49,77.43,77.41,77.43,77.46,77.49,77.49,77.46,77.44,77.39,77.33,77.30,77.32,77.33,77.30,77.22,77.16,77.12,77.10,77.09,77.10,77.13,77.17,77.17,77.09,76.87,76.76
80.30,80.36,80.36,80.31,80.21,80.12,80.15,80.30,80.46,80.50,80.53,80.55,80.46,80.34,80.38,80.50,80.64,80.70,80.63,80.54,80.46,80.49,80.51,80.49,80.44,80.41,80.42,80.44,80.44,80.45,80.48,80.49,80.51,80.54,80.56,80.52,80.48,80.44,80.42,80.39,80.35,80.30,80.25,80.20,80.20,80.22,80.21,80.16,80.12,80.11,80.11,80.10,80.09,80.06,80.05,80.07,80.12,80.17,80.17,80.19,80.28,80.46,80.56,80.51,80.35,80.18,80.11,80.03,79.94,79.89,79.83,79.80,79.78,79.75,79.77,79.74,79.75,79.79,79.86,79.87,79.85,79.83,79.85,79.87,79.83,79.76,79.69,79.63,79.71,79.77,79.80,79.74,79.65,79.60,79.56,79.51,79.49,79.49,79.55,79.62,79.60,79.54,79.59,79.69,79.77,79.79,79.74,79.71,79.68,79.61,79.59,79.62,79.64,79.61,79.47,79.42,79.41,79.37,79.01,79.13,79.16,79.07,79.09,79.10,79.11,79.11,79.11,79.10,79.10,79.10,79.09,79.02,79.06,79.08,79.11,79.18,79.12,79.15,79.17,79.14,79.19,79.20,79.19,79.08,78.65,78.61,78.70,78.83,78.90,78.90,78.90,78.90,78.90,78.90,78.90,78.90,78.85,78.69,78.70,78.75,78.80,78.81,78.89,78.90,78.90,78.90,78.90,78.90,78.89,78.87,78.82,78.82,78.82,78.84,78.89,78.88,78.83,78.81,78.81,78.80,78.74,78.71,78.72,78.73,78.75,78.78,78.75,78.66,78.65,78.62,78.59,78.55,78.48,78.39,78.32,78.27,78.22,78.19,78.11,78.03,77.91,77.74,77.62,77.68,77.82,77.93,78.05,78.07,78.03,77.94,77.84,77.82,77.85,77.87,77.80,77.70,77.65,77.60,77.54,77.59,77.60,77.60,77.60,77.58,77.55,77.51,77.45,77.41,77.50,77.46,77.42,77.43,77.46,77.50,77.51,77.48,77.43,77.39,77.34,77.30,77.29,77.28,77.29,77.26,77.19,77.15,77.13,77.12,77.13,77.14,77.14,77.18,77.18,77.09,76.84,76.68
80.24,80.30,80.32,80.29,80.20,80.12,80.14,80.26,80.43,80.49,80.52,80.51,80.44,80.34,80.37,80.50,80.64,80.69,80.64,80.56,80.49,80.52,80.56,80.55,80.50,80.44,80.41,80.41,80.42,80.45,80.52,80.55,80.55,80.53,80.48,80.45,80.41,80.36,80.30,80.29,80.30,80.30,80.28,80.23,80.26,80.26,80.21,80.12,80.11,80.10,80.10,80.10,80.10,80.06,80.05,80.07,80.11,80.12,80.12,80.13,80.20,80.37,80.47,80.43,80.26,80.13,80.10,80.04,79.94,79.85,79.78,79.77,79.77,79.75,79.77,79.72,79.73,79.81,79.88,79.85,79.82,79.81,79.81,79.82,79.78,79.71,79.64,79.61,79.70,79.80,79.84,79.81,79.64,79.55,79.51,79.50,79.45,79.46,79.52,79.58,79.60,79.59,79.66,79.75,79.79,79.75,79.73,79.72,79.70,79.60,79.58,79.59,79.60,79.59,79.52,79.50,79.51,79.52,79.29,79.27,79.24,79.16,79.12,79.12,79.13,79.16,79.16,79.12,79.10,79.10,79.09,79.03,79.03,79.03,79.05,79.15,79.10,79.11,79.17,79.23,79.20,79.19,79.15,79.02,78.65,78.61,78.70,78.82,78.88,78.90,78.90,78.90,78.90,78.90,78.90,78.90,78.85,78.67,78.69,78.75,78.81,78.84,78.89,78.90,78.90,78.90,78.88,78.88,78.89,78.89,78.88,78.87,78.85,78.85,78.87,78.85,78.84,78.84,78.84,78.82,78.78,78.75,78.75,78.79,78.82,78.85,78.83,78.76,78.75,78.68,78.61,78.55,78.47,78.37,78.34,78.31,78.26,78.19,78.11,78.02,77.90,77.72,77.63,77.72,77.88,77.98,78.02,78.05,78.00,77.88,77.75,77.76,77.83,77.88,77.81,77.66,77.62,77.59,77.54,77.59,77.61,77.62,77.62,77.60,77.59,77.55,77.50,77.45,77.49,77.44,77.42,77.46,77.49,77.51,77.51,77.49,77.44,77.41,77.36,77.31,77.26,77.22,77.21,77.18,77.14,77.13,77.12,77.12,77.13,77.14,77.12,77.12,77.13,77.10,76.95,76.78
80.21,80.28,80.30,80.27,80.18,80.11,80.12,80.24,80.40,80.44,80.48,80.49,80.43,80.32,80.35,80.47,80.64,80.69,80.64,80.56,80.49,80.51,80.57,80.58,80.53,80.45,80.39,80.39,80.41,80.46,80.54,80.58,80.58,80.53,80.47,80.46,80.43,80.38,80.31,80.27,80.27,80.27,80.27,80.24,80.24,80.21,80.16,80.10,80.10,80.10,80.11,80.11,80.12,80.09,80.08,80.10,80.11,80.10,80.10,80.11,80.14,80.26,80.33,80.30,80.19,80.12,80.11,80.05,79.95,79.84,79.79,79.78,79.78,79.77,79.78,79.74,79.74,79.78,79.84,79.82,79.81,79.80,79.80,79.80,79.76,79.69,79.62,79.60,79.70,79.79,79.85,79.85,79.66,79.55,79.51,79.51,79.48,79.48,79.50,79.54,79.59,79.60,79.67,79.76,79.79,79.77,79.75,79.75,79.72,79.63,79.58,79.55,79.54,79.54,79.54,79.54,79.55,79.55,79.41,79.34,79.28,79.20,79.16,79.15,79.15,79.15,79.15,79.11,79.11,79.12,79.13,79.08,79.06,79.04,79.03,79.05,79.04,79.08,79.14,79.20,79.18,79.16,79.10,78.97,78.64,78.61,78.70,78.81,78.86,78.89,78.90,78.90,78.90,78.90,78.90,78.90,78.86,78.74,78.74,78.79,78.84,78.87,78.89,78.90,78.89,78.87,78.82,78.82,78.83,78.85,78.86,78.87,78.87,78.86,78.86,78.86,78.86,78.86,78.86,78.85,78.81,78.78,78.78,78.81,78.84,78.86,78.84,78.80,78.79,78.73,78.64,78.53,78.43,78.38,78.36,78.33,78.26,78.17,78.11,78.03,77.91,77.74,77.63,77.70,77.85,78.00,78.02,78.04,77.97,77.80,77.63,77.68,77.78,77.83,77.74,77.64,77.59,77.56,77.52,77.59,77.61,77.62,77.63,77.60,77.60,77.57,77.52,77.47,77.52,77.49,77.48,77.50,77.50,77.50,77.49,77.46,77.42,77.41,77.37,77.30,77.23,77.20,77.18,77.16,77.13,77.11,77.11,77.11,77.10,77.09,77.05,77.04,77.05,77.05,76.96,76.82
80.21,80.27,80.29,80.26,80.16,80.08,80.10,80.23,80.35,80.38,80.43,80.47,80.42,80.30,80.31,80.44,80.63,80.69,80.64,80.55,80.47,80.48,80.56,80.59,80.56,80.46,80.37,80.37,80.41,80.46,80.55,80.59,80.59,80.55,80.50,80.51,80.50,80.46,80.38,80.29,80.24,80.24,80.25,80.24,80.18,80.13,80.10,80.10,80.10,80.11,80.11,80.12,80.15,80.14,80.13,80.14,80.13,80.11,80.10,80.10,80.10,80.14,80.16,80.15,80.13,80.12,80.13,80.07,79.97,79.85,79.83,79.82,79.81,79.80,79.80,79.79,79.76,79.73,79.77,79.79,79.80,79.80,79.80,79.80,79.76,79.69,79.62,79.58,79.69,79.78,79.83,79.88,79.69,79.57,79.52,79.53,79.54,79.51,79.50,79.51,79.58,79.60,79.67,79.75,79.79,79.80,79.80,79.79,79.76,79.69,79.58,79.50,79.47,79.49,79.53,79.57,79.57,79.52,79.43,79.38,79.30,79.22,79.20,79.20,79.16,79.11,79.10,79.10,79.12,79.16,79.19,79.16,79.12,79.08,79.02,78.91,78.97,79.04,79.09,79.10,79.14,79.12,79.06,78.94,78.64,78.61,78.69,78.80,78.85,78.89,78.90,78.90,78.90,78.90,78.90,78.90,78.89,78.85,78.82,78.84,78.87,78.90,78.90,78.90,78.87,78.82,78.74,78.73,78.75,78.77,78.78,78.82,78.87,78.88,78.87,78.90,78.90,78.89,78.87,78.89,78.82,78.80,78.80,78.80,78.83,78.83,78.81,78.80,78.80,78.77,78.65,78.50,78.37,78.39,78.39,78.34,78.25,78.14,78.10,78.03,77.94,77.79,77.63,77.65,77.80,78.00,78.02,78.03,77.92,77.70,77.51,77.61,77.71,77.74,77.64,77.61,77.57,77.52,77.48,77.59,77.61,77.62,77.62,77.60,77.60,77.57,77.52,77.49,77.57,77.57,77.56,77.54,77.50,77.48,77.44,77.41,77.40,77.40,77.36,77.29,77.21,77.19,77.18,77.17,77.14,77.10,77.10,77.08,77.05,77.01,76.98,76.96,76.96,76.96,76.92,76.82
80.23,80.29,80.29,80.25,80.17,80.10,80.12,80.22,80.37,80.41,80.44,80.46,80.41,80.29,80.31,80.42,80.58,80.65,80.63,80.57,80.50,80.46,80.54,80.58,80.55,80.44,80.36,80.34,80.38,80.46,80.56,80.63,80.63,80.57,80.50,80.53,80.55,80.54,80.47,80.35,80.30,80.32,80.37,80.33,80.22,80.15,80.11,80.11,80.11,80.11,80.12,80.13,80.13,80.12,80.12,80.14,80.14,80.12,80.12,80.12,80.11,80.12,80.12,80.13,80.14,80.18,80.19,80.14,80.05,79.91,79.87,79.85,79.84,79.83,79.82,79.79,79.76,79.74,79.76,79.76,79.78,79.79,79.80,79.80,79.76,79.69,79.62,79.55,79.67,79.77,79.84,79.88,79.76,79.62,79.55,79.56,79.60,79.64,79.66,79.66,79.68,79.68,79.71,79.76,79.79,79.83,79.82,79.77,79.69,79.60,79.53,79.48,79.45,79.48,79.48,79.52,79.52,79.45,79.41,79.39,79.32,79.22,79.20,79.20,79.16,79.11,79.10,79.10,79.12,79.16,79.21,79.19,79.13,79.08,79.01,78.89,78.93,78.97,78.99,78.99,79.05,79.09,79.08,78.99,78.69,78.62,78.67,78.78,78.88,78.90,78.90,78.90,78.90,78.90,78.86,78.85,78.85,78.88,78.87,78.85,78.84,78.85,78.85,78.85,78.83,78.78,78.66,78.62,78.61,78.62,78.63,78.65,78.74,78.83,78.89,78.89,78.86,78.86,78.87,78.83,78.76,78.74,78.76,78.80,78.81,78.77,78.75,78.74,78.74,78.72,78.64,78.51,78.38,78.35,78.33,78.29,78.20,78.12,78.10,78.08,78.04,77.97,77.70,77.67,77.80,77.96,78.01,78.03,77.92,77.70,77.53,77.60,77.68,77.69,77.61,77.59,77.54,77.49,77.47,77.60,77.65,77.66,77.64,77.60,77.60,77.57,77.51,77.45,77.53,77.57,77.58,77.55,77.50,77.47,77.43,77.40,77.39,77.37,77.32,77.25,77.20,77.19,77.19,77.16,77.10,77.03,77.03,77.01,76.98,76.95,76.93,76.87,76.84,76.84,76.80,76.73
80.23,80.30,80.29,80.25,80.15,80.09,80.10,80.19,80.38,80.44,80.46,80.45,80.40,80.29,80.30,80.40,80.55,80.62,80.62,80.58,80.52,80.45,80.53,80.57,80.53,80.42,80.34,80.32,80.35,80.44,80.57,80.66,80.64,80.56,80.49,80.53,80.57,80.57,80.50,80.38,80.34,80.37,80.44,80.38,80.25,80.15,80.11,80.12,80.15,80.15,80.14,80.13,80.10,80.08,80.09,80.11,80.13,80.12,80.13,80.14,80.14,80.11,80.10,80.11,80.15,80.22,80.23,80.20,80.10,79.95,79.90,79.87,79.86,79.85,79.84,79.81,79.79,79.77,79.76,79.76,79.76,79.77,79.78,79.78,79.75,79.70,79.62,79.54,79.66,79.77,79.83,79.88,79.81,79.67,79.58,79.59,79.64,79.72,79.77,79.77,79.77,79.77,79.78,79.79,79.80,79.83,79.82,79.75,79.64,79.52,79.48,79.44,79.41,79.48,79.47,79.48,79.46,79.40,79.41,79.38,79.30,79.20,79.20,79.20,79.17,79.12,79.10,79.10,79.11,79.14,79.16,79.15,79.10,79.05,78.97,78.86,78.90,78.92,78.92,78.93,79.02,79.08,79.09,79.02,78.72,78.63,78.66,78.76,78.87,78.89,78.90,78.90,78.90,78.87,78.83,78.81,78.83,78.87,78.87,78.84,78.81,78.79,78.81,78.81,78.79,78.73,78.61,78.55,78.53,78.53,78.53,78.54,78.67,78.81,78.89,78.89,78.84,78.83,78.84,78.79,78.72,78.69,78.70,78.74,78.75,78.70,78.66,78.63,78.62,78.60,78.54,78.43,78.32,78.28,78.26,78.23,78.16,78.07,78.05,78.05,78.05,78.00,77.73,77.69,77.79,77.92,77.98,77.99,77.89,77.69,77.53,77.55,77.59,77.61,77.56,77.55,77.50,77.47,77.47,77.59,77.63,77.64,77.62,77.59,77.58,77.55,77.50,77.43,77.47,77.51,77.51,77.48,77.45,77.41,77.36,77.32,77.32,77.28,77.23,77.19,77.14,77.13,77.13,77.10,77.04,76.96,76.95,76.91,76.88,76.85,76.83,76.77,76.73,76.71,76.69,76.64
80.22,80.29,80.31,80.26,80.12,80.05,80.05,80.13,80.37,80.46,80.49,80.46,80.39,80.29,80.28,80.37,80.52,80.60,80.63,80.58,80.51,80.47,80.55,80.57,80.51,80.38,80.32,80.30,80.33,80.40,80.57,80.66,80.63,80.52,80.45,80.50,80.55,80.54,80.47,80.37,80.35,80.39,80.44,80.40,80.27,80.15,80.09,80.12,80.22,80.24,80.20,80.10,80.05,80.04,80.04,80.07,80.10,80.11,80.13,80.16,80.17,80.14,80.11,80.12,80.17,80.25,80.27,80.23,80.13,79.98,79.92,79.87,79.86,79.87,79.87,79.87,79.85,79.81,79.78,79.78,79.76,79.74,79.73,79.73,79.75,79.72,79.63,79.54,79.65,79.75,79.82,79.87,79.84,79.72,79.62,79.60,79.66,79.74,79.80,79.82,79.86,79.86,79.87,79.85,79.82,79.81,79.81,79.74,79.62,79.47,79.43,79.38,79.37,79.47,79.48,79.45,79.40,79.35,79.44,79.34,79.22,79.15,79.19,79.20,79.19,79.16,79.11,79.10,79.10,79.08,79.04,79.03,79.02,78.97,78.90,78.82,78.87,78.90,78.90,78.92,79.05,79.09,79.10,79.03,78.74,78.63,78.65,78.73,78.81,78.88,78.90,78.90,78.89,78.82,78.80,78.80,78.80,78.81,78.81,78.80,78.77,78.72,78.79,78.80,78.76,78.68,78.60,78.53,78.50,78.50,78.50,78.52,78.68,78.82,78.88,78.87,78.82,78.79,78.78,78.76,78.70,78.63,78.60,78.61,78.65,78.61,78.54,78.47,78.41,78.39,78.33,78.26,78.19,78.18,78.18,78.16,78.12,77.99,77.94,77.94,77.94,77.86,77.73,77.71,77.77,77.88,77.93,77.92,77.83,77.69,77.53,77.46,77.47,77.50,77.49,77.48,77.47,77.47,77.49,77.54,77.55,77.54,77.55,77.57,77.54,77.51,77.47,77.42,77.37,77.36,77.35,77.34,77.32,77.26,77.22,77.18,77.16,77.11,77.09,77.08,77.05,77.00,76.99,76.97,76.93,76.88,76.85,76.79,76.73,76.69,76.67,76.64,76.61,76.58,76.56,76.55
80.17,80.27,80.32,80.28,80.13,80.04,80.03,80.10,80.35,80.46,80.49,80.45,80.38,80.29,80.30,80.40,80.57,80.63,80.60,80.53,80.44,80.47,80.56,80.56,80.48,80.38,80.34,80.31,80.32,80.38,80.53,80.63,80.62,80.52,80.44,80.52,80.57,80.55,80.45,80.35,80.33,80.37,80.44,80.40,80.26,80.14,80.08,80.12,80.25,80.28,80.23,80.12,80.05,80.04,80.05,80.08,80.10,80.08,80.09,80.12,80.14,80.10,80.08,80.11,80.17,80.25,80.28,80.24,80.14,80.01,79.94,79.88,79.85,79.87,79.89,79.89,79.88,79.86,79.81,79.80,79.76,79.73,79.71,79.71,79.74,79.72,79.64,79.54,79.65,79.75,79.82,79.87,79.83,79.71,79.60,79.59,79.62,79.67,79.71,79.75,79.81,79.86,79.86,79.84,79.80,79.80,79.74,79.66,79.56,79.48,79.43,79.37,79.36,79.46,79.48,79.42,79.34,79.27,79.27,79.21,79.14,79.08,79.08,79.12,79.16,79.17,79.16,79.12,79.07,79.03,79.01,79.01,79.00,78.98,78.93,78.86,78.90,78.90,78.91,78.94,79.04,79.09,79.11,79.06,78.73,78.60,78.62,78.71,78.77,78.79,78.81,78.83,78.83,78.79,78.80,78.77,78.75,78.78,78.75,78.73,78.70,78.68,78.71,78.71,78.68,78.61,78.55,78.49,78.47,78.47,78.48,78.48,78.57,78.65,78.68,78.68,78.67,78.63,78.58,78.57,78.53,78.48,78.44,78.43,78.42,78.40,78.36,78.31,78.24,78.21,78.17,78.12,78.06,78.05,78.02,77.99,77.97,77.88,77.85,77.84,77.83,77.77,77.71,77.69,77.70,77.72,77.73,77.73,77.69,77.60,77.47,77.44,77.44,77.45,77.44,77.43,77.41,77.39,77.39,77.41,77.40,77.39,77.38,77.40,77.40,77.39,77.37,77.34,77.31,77.30,77.29,77.27,77.25,77.22,77.19,77.17,77.13,77.10,77.08,77.05,77.00,76.97,76.96,76.95,76.92,76.88,76.83,76.75,76.67,76.63,76.65,76.66,76.64,76.59,76.56,76.56
80.12,80.24,80.31,80.29,80.13,80.04,80.01,80.07,80.30,80.43,80.47,80.44,80.36,80.28,80.30,80.41,80.60,80.63,80.57,80.47,80.40,80.46,80.56,80.56,80.48,80.42,80.36,80.32,80.32,80.37,80.49,80.60,80.61,80.54,80.44,80.53,80.58,80.56,80.45,80.33,80.31,80.36,80.44,80.40,80.25,80.12,80.06,80.11,80.28,80.32,80.26,80.14,80.09,80.09,80.11,80.14,80.15,80.11,80.07,80.06,80.08,80.05,80.06,80.11,80.19,80.25,80.26,80.22,80.13,80.03,79.95,79.89,79.86,79.87,79.89,79.90,79.90,79.88,79.83,79.81,79.77,79.73,79.72,79.71,79.74,79.72,79.63,79.53,79.64,79.74,79.81,79.86,79.80,79.66,79.57,79.56,79.56,79.58,79.62,79.68,79.75,79.82,79.83,79.80,79.78,79.77,79.68,79.57,79.48,79.45,79.40,79.35,79.33,79.42,79.44,79.38,79.27,79.18,79.11,79.11,79.08,79.03,78.99,79.05,79.11,79.16,79.18,79.11,79.03,78.99,78.99,78.99,78.99,78.98,78.95,78.90,78.91,78.90,78.90,78.94,79.03,79.06,79.09,79.04,78.71,78.58,78.60,78.68,78.72,78.70,78.73,78.75,78.76,78.75,78.77,78.72,78.68,78.74,78.70,78.65,78.62,78.62,78.62,78.61,78.58,78.54,78.49,78.44,78.42,78.42,78.45,78.44,78.46,78.48,78.48,78.48,78.52,78.49,78.42,78.40,78.40,78.36,78.31,78.26,78.23,78.22,78.20,78.17,78.10,78.05,78.03,78.00,77.94,77.93,77.88,77.85,77.84,77.82,77.81,77.79,77.75,77.72,77.71,77.69,77.65,77.61,77.60,77.61,77.60,77.55,77.45,77.46,77.47,77.45,77.42,77.40,77.37,77.33,77.31,77.31,77.30,77.29,77.27,77.27,77.30,77.31,77.30,77.29,77.28,77.29,77.28,77.25,77.24,77.24,77.22,77.20,77.17,77.15,77.12,77.06,76.99,76.97,76.97,76.97,76.96,76.93,76.83,76.73,76.65,76.61,76.65,76.69,76.68,76.62,76.59,76.59
80.09,80.19,80.26,80.27,80.13,80.01,79.98,80.05,80.19,80.33,80.42,80.43,80.34,80.24,80.25,80.35,80.51,80.54,80.49,80.44,80.41,80.43,80.55,80.60,80.59,80.52,80.39,80.32,80.32,80.37,80.48,80.60,80.63,80.57,80.45,80.49,80.55,80.56,80.48,80.33,80.30,80.35,80.43,80.37,80.19,80.06,80.03,80.11,80.32,80.39,80.33,80.19,80.21,80.26,80.29,80.31,80.34,80.27,80.14,80.03,79.99,80.03,80.09,80.16,80.23,80.23,80.17,80.11,80.06,79.98,79.92,79.90,79.89,79.88,79.89,79.89,79.88,79.86,79.82,79.81,79.79,79.78,79.78,79.77,79.74,79.69,79.60,79.48,79.58,79.71,79.81,79.84,79.67,79.57,79.54,79.54,79.48,79.52,79.58,79.63,79.68,79.73,79.76,79.76,79.73,79.68,79.61,79.51,79.39,79.33,79.29,79.26,79.26,79.31,79.33,79.29,79.21,79.11,79.08,79.10,79.10,79.04,78.97,79.03,79.05,79.08,79.13,79.07,78.98,78.94,78.94,78.94,78.94,78.92,78.89,78.87,78.90,78.87,78.84,78.85,79.00,78.99,78.95,78.88,78.65,78.60,78.60,78.62,78.63,78.65,78.67,78.68,78.67,78.65,78.67,78.64,78.59,78.63,78.62,78.57,78.53,78.53,78.50,78.49,78.48,78.47,78.46,78.39,78.35,78.34,78.37,78.37,78.38,78.37,78.35,78.39,78.42,78.43,78.41,78.42,78.39,78.36,78.30,78.19,78.18,78.16,78.12,78.05,77.98,77.96,77.94,77.90,77.86,77.86,77.83,77.81,77.82,77.85,77.88,77.85,77.80,77.80,77.79,77.75,77.71,77.69,77.68,77.68,77.67,77.62,77.57,77.58,77.58,77.55,77.49,77.45,77.40,77.37,77.36,77.36,77.36,77.37,77.36,77.31,77.35,77.36,77.34,77.31,77.35,77.36,77.34,77.32,77.36,77.37,77.35,77.32,77.32,77.32,77.24,77.13,77.05,77.05,77.06,77.08,77.09,77.05,76.90,76.77,76.67,76.64,76.65,76.68,76.67,76.62,76.61,76.62
80.05,80.14,80.22,80.25,80.15,80.02,79.97,80.03,80.15,80.30,80.41,80.43,80.33,80.22,80.22,80.31,80.48,80.53,80.49,80.43,80.38,80.38,80.52,80.60,80.60,80.52,80.35,80.29,80.30,80.36,80.50,80.61,80.63,80.56,80.44,80.45,80.50,80.53,80.46,80.31,80.28,80.33,80.42,80.38,80.20,80.05,80.00,80.09,80.30,80.38,80.34,80.22,80.25,80.30,80.34,80.37,80.40,80.32,80.17,80.03,79.95,79.99,80.06,80.14,80.21,80.15,80.05,79.99,79.96,79.93,79.91,79.89,79.88,79.86,79.86,79.84,79.81,79.78,79.78,79.78,79.77,79.77,79.77,79.74,79.71,79.64,79.55,79.45,79.52,79.62,79.69,79.68,79.53,79.47,79.45,79.45,79.39,79.42,79.48,79.53,79.55,79.56,79.57,79.59,79.57,79.49,79.46,79.39,79.28,79.23,79.18,79.16,79.16,79.18,79.19,79.17,79.11,79.05,79.04,79.04,79.03,79.00,78.95,78.98,78.99,78.99,79.03,78.99,78.94,78.91,78.90,78.88,78.89,78.88,78.86,78.86,78.87,78.83,78.80,78.81,78.90,78.88,78.84,78.77,78.63,78.60,78.61,78.63,78.63,78.68,78.67,78.67,78.68,78.63,78.64,78.64,78.63,78.65,78.67,78.63,78.60,78.62,78.59,78.56,78.54,78.52,78.53,78.53,78.50,78.47,78.49,78.49,78.43,78.42,78.50,78.54,78.57,78.58,78.58,78.59,78.57,78.55,78.47,78.29,78.19,78.14,78.08,78.00,77.92,77.89,77.85,77.82,77.82,77.82,77.81,77.80,77.82,77.88,77.90,77.89,77.85,77.85,77.84,77.80,77.76,77.75,77.74,77.74,77.71,77.67,77.64,77.65,77.65,77.63,77.59,77.54,77.47,77.43,77.43,77.46,77.46,77.45,77.41,77.35,77.38,77.39,77.37,77.36,77.38,77.39,77.38,77.37,77.42,77.47,77.47,77.44,77.41,77.41,77.36,77.27,77.15,77.14,77.16,77.17,77.16,77.12,76.96,76.79,76.66,76.63,76.64,76.66,76.66,76.64,76.65,76.66
80.00,80.09,80.18,80.22,80.15,80.04,79.97,80.00,80.15,80.30,80.41,80.43,80.33,80.20,80.19,80.29,80.48,80.56,80.52,80.43,80.34,80.32,80.48,80.58,80.58,80.47,80.30,80.24,80.26,80.36,80.51,80.62,80.63,80.54,80.42,80.40,80.45,80.48,80.43,80.28,80.25,80.31,80.40,80.40,80.23,80.06,79.98,80.06,80.24,80.33,80.32,80.24,80.24,80.28,80.32,80.37,80.40,80.32,80.19,80.05,79.94,79.93,79.99,80.08,80.14,80.04,79.92,79.87,79.86,79.87,79.89,79.88,79.84,79.81,79.80,79.76,79.71,79.68,79.71,79.73,79.73,79.72,79.73,79.69,79.66,79.59,79.49,79.43,79.47,79.52,79.53,79.47,79.40,79.36,79.35,79.34,79.31,79.33,79.37,79.41,79.40,79.36,79.35,79.36,79.36,79.29,79.28,79.25,79.17,79.15,79.09,79.05,79.04,79.04,79.06,79.03,79.01,79.01,79.01,78.97,78.95,78.95,78.95,78.95,78.93,78.92,78.94,78.92,78.91,78.89,78.87,78.82,78.85,78.87,78.87,78.87,78.83,78.80,78.80,78.81,78.79,78.78,78.75,78.69,78.62,78.60,78.63,78.67,78.68,78.73,78.71,78.70,78.74,78.66,78.64,78.67,78.71,78.72,78.77,78.76,78.75,78.79,78.78,78.73,78.67,78.64,78.64,78.74,78.73,78.69,78.69,78.70,78.55,78.56,78.77,78.79,78.80,78.81,78.81,78.83,78.83,78.81,78.70,78.47,78.24,78.14,78.06,77.97,77.90,77.83,77.77,77.75,77.80,77.80,77.80,77.80,77.83,77.89,77.90,77.90,77.89,77.90,77.88,77.84,77.80,77.80,77.80,77.79,77.75,77.70,77.70,77.70,77.70,77.70,77.69,77.64,77.56,77.50,77.52,77.58,77.57,77.52,77.46,77.39,77.40,77.40,77.40,77.40,77.40,77.40,77.40,77.41,77.45,77.54,77.57,77.53,77.47,77.47,77.48,77.41,77.25,77.23,77.24,77.23,77.18,77.15,76.99,76.79,76.64,76.60,76.63,76.65,76.66,76.65,76.70,76.70
80.00,80.02,80.05,80.07,80.02,79.96,79.95,80.00,80.12,80.26,80.37,80.40,80.35,80.23,80.21,80.29,80.46,80.56,80.53,80.44,80.34,80.33,80.51,80.59,80.58,80.47,80.32,80.24,80.23,80.29,80.43,80.56,80.58,80.50,80.36,80.38,80.46,80.50,80.43,80.26,80.23,80.29,80.40,80.40,80.23,80.06,79.98,80.06,80.25,80.36,80.37,80.27,80.22,80.26,80.31,80.36,80.38,80.30,80.18,80.05,79.94,79.91,79.95,79.99,79.99,79.91,79.85,79.81,79.79,79.79,79.81,79.78,79.74,79.71,79.70,79.67,79.64,79.63,79.65,79.64,79.63,79.63,79.62,79.62,79.60,79.54,79.45,79.41,79.42,79.44,79.43,79.38,79.36,79.34,79.33,79.31,79.29,79.36,79.42,79.42,79.35,79.42,79.39,79.32,79.25,79.25,79.24,79.21,79.18,79.17,79.11,79.08,79.06,79.03,79.08,79.10,79.12,79.15,79.09,79.02,79.00,79.02,79.03,79.03,79.02,79.02,79.02,78.98,78.97,78.96,78.94,78.88,78.92,78.97,78.99,78.96,78.89,78.95,79.01,78.98,78.93,78.92,78.88,78.79,78.63,78.56,78.61,78.70,78.75,78.78,78.80,78.82,78.83,78.76,78.70,78.69,78.72,78.77,78.79,78.78,78.80,78.86,78.80,78.82,78.82,78.81,78.81,78.85,78.84,78.81,78.76,78.82,78.78,78.76,78.79,78.80,78.80,78.81,78.82,78.88,78.88,78.86,78.75,78.52,78.24,78.13,78.05,77.97,77.90,77.82,77.76,77.74,77.79,77.80,77.80,77.78,77.77,77.87,77.85,77.83,77.83,77.85,77.87,77.84,77.81,77.82,77.86,77.85,77.80,77.75,77.75,77.71,77.70,77.70,77.70,77.67,77.62,77.59,77.61,77.66,77.64,77.56,77.47,77.41,77.40,77.40,77.40,77.41,77.41,77.41,77.41,77.41,77.41,77.46,77.49,77.49,77.44,77.43,77.43,77.37,77.22,77.15,77.13,77.11,77.06,76.97,76.83,76.71,76.63,76.63,76.65,76.67,76.69,76.72,76.74,76.73
80.04,80.03,80.03,80.00,79.96,79.93,79.93,79.99,80.08,80.20,80.29,80.33,80.32,80.23,80.20,80.26,80.41,80.52,80.51,80.42,80.33,80.34,80.50,80.57,80.54,80.44,80.31,80.23,80.20,80.25,80.36,80.50,80.54,80.46,80.32,80.38,80.47,80.50,80.41,80.25,80.22,80.30,80.41,80.40,80.23,80.06,79.97,80.04,80.24,80.38,80.40,80.29,80.21,80.26,80.32,80.35,80.35,80.28,80.16,80.04,79.96,79.93,79.93,79.92,79.91,79.86,79.83,79.79,79.77,79.76,79.77,79.75,79.71,79.68,79.66,79.64,79.63,79.63,79.64,79.62,79.62,79.62,79.61,79.62,79.60,79.56,79.48,79.41,79.39,79.40,79.38,79.33,79.37,79.38,79.38,79.38,79.38,79.46,79.53,79.52,79.43,79.51,79.48,79.38,79.28,79.31,79.30,79.27,79.23,79.22,79.20,79.18,79.16,79.12,79.18,79.21,79.24,79.25,79.18,79.09,79.06,79.09,79.11,79.11,79.11,79.11,79.11,79.05,79.03,79.01,78.99,78.96,79.02,79.09,79.12,79.07,78.99,79.08,79.15,79.09,79.03,79.03,79.01,78.91,78.69,78.56,78.60,78.72,78.79,78.80,78.85,78.88,78.88,78.81,78.73,78.70,78.72,78.77,78.79,78.80,78.83,78.89,78.84,78.85,78.88,78.89,78.90,78.90,78.88,78.85,78.80,78.88,78.89,78.86,78.81,78.83,78.81,78.80,78.82,78.90,78.90,78.88,78.80,78.61,78.26,78.15,78.09,78.01,77.94,77.86,77.79,77.74,77.77,77.79,77.79,77.77,77.76,77.85,77.83,77.80,77.79,77.83,77.87,77.85,77.84,77.87,77.87,77.82,77.77,77.73,77.75,77.71,77.70,77.70,77.72,77.70,77.67,77.65,77.66,77.70,77.66,77.59,77.50,77.43,77.42,77.42,77.43,77.44,77.44,77.44,77.42,77.40,77.37,77.40,77.42,77.42,77.39,77.37,77.37,77.30,77.17,77.07,77.03,76.98,76.93,76.83,76.72,76.67,76.66,76.69,76.71,76.72,76.74,76.77,76.76,76.74
80.11,80.12,80.11,80.03,79.97,79.92,79.91,79.95,80.03,80.12,80.17,80.21,80.26,80.21,80.18,80.21,80.33,80.45,80.45,80.38,80.29,80.33,80.47,80.51,80.46,80.38,80.27,80.20,80.18,80.22,80.30,80.45,80.50,80.45,80.31,80.40,80.48,80.48,80.36,80.24,80.23,80.31,80.43,80.40,80.23,80.06,79.97,80.02,80.22,80.38,80.41,80.29,80.22,80.29,80.34,80.34,80.32,80.26,80.14,80.03,79.99,79.98,79.93,79.90,79.89,79.89,79.85,79.81,79.79,79.79,79.79,79.79,79.76,79.72,79.69,79.69,79.68,79.68,79.69,79.68,79.68,79.68,79.68,79.68,79.68,79.65,79.58,79.42,79.38,79.38,79.38,79.33,79.41,79.46,79.51,79.55,79.58,79.63,79.69,79.73,79.63,79.65,79.63,79.56,79.43,79.46,79.47,79.43,79.33,79.30,79.34,79.37,79.36,79.31,79.35,79.37,79.36,79.31,79.29,79.19,79.15,79.18,79.19,79.20,79.20,79.19,79.19,79.12,79.10,79.07,79.03,79.07,79.15,79.23,79.26,79.21,79.14,79.19,79.22,79.12,79.10,79.14,79.14,79.05,78.81,78.60,78.61,78.73,78.80,78.80,78.85,78.89,78.89,78.81,78.73,78.70,78.70,78.71,78.76,78.79,78.83,78.90,78.88,78.83,78.84,78.88,78.90,78.90,78.85,78.80,78.80,78.87,78.89,78.87,78.83,78.88,78.83,78.79,78.81,78.90,78.90,78.88,78.85,78.75,78.29,78.19,78.16,78.10,78.02,77.95,77.86,77.76,77.72,77.78,77.78,77.77,77.77,77.83,77.82,77.80,77.79,77.84,77.88,77.89,77.91,77.95,77.83,77.72,77.65,77.64,77.70,77.69,77.69,77.70,77.75,77.72,77.71,77.70,77.68,77.70,77.65,77.60,77.55,77.48,77.45,77.45,77.47,77.49,77.49,77.47,77.44,77.40,77.34,77.37,77.37,77.34,77.30,77.29,77.28,77.22,77.10,77.00,76.92,76.85,76.79,76.71,76.66,76.68,76.73,76.78,76.81,76.81,76.81,76.80,76.76,76.75
80.12,80.15,80.15,80.07,79.95,79.91,79.91,79.94,80.02,80.10,80.15,80.17,80.17,80.15,80.13,80.16,80.27,80.42,80.44,80.36,80.28,80.32,80.45,80.49,80.44,80.34,80.23,80.17,80.17,80.21,80.29,80.43,80.49,80.43,80.28,80.37,80.46,80.45,80.30,80.17,80.19,80.28,80.38,80.34,80.19,80.04,79.96,80.01,80.21,80.35,80.37,80.26,80.24,80.30,80.33,80.32,80.30,80.21,80.11,80.05,80.05,80.03,79.98,79.96,79.95,79.92,79.89,79.86,79.85,79.82,79.83,79.83,79.81,79.77,79.76,79.73,79.72,79.73,79.75,79.70,79.68,79.68,79.70,79.70,79.70,79.67,79.60,79.42,79.42,79.45,79.45,79.39,79.48,79.54,79.58,79.60,79.64,79.68,79.73,79.76,79.70,79.69,79.68,79.62,79.54,79.55,79.53,79.47,79.38,79.33,79.36,79.40,79.42,79.36,79.36,79.38,79.38,79.32,79.31,79.24,79.20,79.21,79.22,79.29,79.28,79.22,79.19,79.12,79.10,79.09,79.07,79.11,79.20,79.27,79.29,79.27,79.23,79.24,79.23,79.16,79.11,79.13,79.15,79.08,78.79,78.59,78.62,78.74,78.80,78.80,78.82,78.85,78.86,78.79,78.74,78.71,78.70,78.70,78.73,78.77,78.82,78.87,78.84,78.81,78.81,78.82,78.87,78.87,78.84,78.80,78.80,78.81,78.86,78.89,78.87,78.89,78.85,78.80,78.80,78.90,78.90,78.88,78.84,78.75,78.29,78.20,78.18,78.14,78.07,78.04,77.97,77.90,77.83,77.87,77.87,77.88,77.91,77.93,77.92,77.90,77.88,77.91,77.95,77.98,78.01,78.01,77.72,77.62,77.60,77.63,77.69,77.67,77.65,77.67,77.72,77.69,77.64,77.61,77.61,77.62,77.56,77.52,77.50,77.46,77.48,77.50,77.50,77.49,77.45,77.41,77.38,77.34,77.30,77.32,77.31,77.27,77.24,77.21,77.18,77.12,77.02,76.90,76.82,76.77,76.73,76.71,76.70,76.74,76.79,76.84,76.85,76.84,76.83,76.82,76.81,76.82
80.12,80.16,80.18,80.11,79.97,79.92,79.92,79.95,80.05,80.13,80.17,80.17,80.12,80.12,80.12,80.14,80.21,80.35,80.37,80.31,80.24,80.29,80.43,80.47,80.43,80.32,80.20,80.15,80.16,80.21,80.29,80.44,80.50,80.44,80.25,80.32,80.41,80.41,80.25,80.13,80.15,80.22,80.29,80.26,80.14,80.02,79.96,80.00,80.20,80.33,80.34,80.23,80.23,80.29,80.32,80.30,80.27,80.15,80.09,80.08,80.10,80.07,80.04,80.02,80.00,79.94,79.91,79.90,79.89,79.86,79.87,79.87,79.85,79.83,79.82,79.77,79.74,79.75,79.78,79.72,79.69,79.69,79.71,79.70,79.70,79.68,79.62,79.42,79.44,79.48,79.50,79.46,79.53,79.60,79.63,79.64,79.67,79.71,79.75,79.78,79.75,79.72,79.69,79.64,79.59,79.58,79.54,79.48,79.41,79.36,79.37,79.41,79.43,79.38,79.36,79.39,79.40,79.33,79.33,79.29,79.26,79.25,79.25,79.37,79.35,79.25,79.17,79.13,79.12,79.11,79.12,79.15,79.25,79.30,79.31,79.30,79.30,79.27,79.24,79.19,79.13,79.13,79.14,79.08,78.78,78.58,78.63,78.76,78.80,78.80,78.81,78.83,78.85,78.77,78.75,78.73,78.71,78.71,78.71,78.75,78.80,78.83,78.81,78.79,78.77,78.76,78.83,78.83,78.82,78.81,78.81,78.78,78.85,78.90,78.89,78.90,78.87,78.81,78.79,78.88,78.90,78.87,78.81,78.70,78.28,78.19,78.19,78.18,78.11,78.09,78.07,78.02,77.95,77.97,77.97,77.98,78.03,78.03,78.02,78.00,77.97,77.97,78.02,78.05,78.07,78.02,77.64,77.56,77.58,77.63,77.67,77.64,77.62,77.63,77.68,77.65,77.58,77.54,77.54,77.55,77.48,77.45,77.45,77.44,77.49,77.52,77.52,77.47,77.41,77.36,77.32,77.29,77.26,77.26,77.24,77.20,77.17,77.10,77.06,77.01,76.92,76.81,76.76,76.74,76.75,76.76,76.79,76.82,76.86,76.89,76.89,76.88,76.87,76.86,76.88,76.89
80.11,80.14,80.18,80.15,80.06,79.99,79.96,79.98,80.13,80.23,80.27,80.24,80.19,80.18,80.18,80.18,80.18,80.18,80.17,80.15,80.14,80.21,80.36,80.45,80.44,80.32,80.21,80.16,80.16,80.21,80.34,80.50,80.55,80.47,80.24,80.25,80.31,80.34,80.24,80.16,80.13,80.13,80.14,80.13,80.07,80.00,79.96,80.00,80.21,80.32,80.31,80.20,80.17,80.24,80.30,80.29,80.20,80.10,80.08,80.11,80.12,80.10,80.08,80.05,80.00,79.94,79.91,79.90,79.90,79.89,79.89,79.89,79.89,79.88,79.84,79.78,79.73,79.71,79.73,79.74,79.73,79.73,79.73,79.71,79.70,79.69,79.63,79.44,79.40,79.43,79.49,79.51,79.56,79.62,79.67,79.68,79.67,79.72,79.77,79.79,79.79,79.72,79.66,79.60,79.54,79.48,79.48,79.45,79.39,79.38,79.39,79.39,79.37,79.36,79.40,79.45,79.43,79.34,79.36,79.35,79.33,79.33,79.33,79.42,79.41,79.30,79.15,79.17,79.16,79.16,79.19,79.22,79.30,79.34,79.34,79.31,79.30,79.29,79.26,79.20,79.16,79.14,79.13,79.06,78.84,78.61,78.63,78.76,78.80,78.80,78.83,78.85,78.85,78.78,78.78,78.77,78.76,78.75,78.76,78.75,78.75,78.76,78.79,78.76,78.73,78.72,78.75,78.75,78.80,78.86,78.86,78.83,78.87,78.88,78.85,78.89,78.89,78.84,78.80,78.84,78.88,78.85,78.73,78.53,78.25,78.16,78.16,78.18,78.11,78.10,78.09,78.08,78.07,78.07,78.07,78.07,78.08,78.08,78.08,78.07,78.04,78.01,78.06,78.05,78.02,77.96,77.65,77.58,77.59,77.61,77.62,77.61,77.60,77.61,77.63,77.61,77.55,77.51,77.51,77.50,77.44,77.41,77.41,77.41,77.44,77.49,77.50,77.47,77.39,77.32,77.27,77.24,77.24,77.18,77.14,77.12,77.08,76.96,76.90,76.86,76.81,76.76,76.78,76.83,76.89,76.93,76.94,76.95,76.96,76.97,76.97,76.97,76.96,76.96,76.97,76.98
80.02,80.06,80.11,80.13,80.07,80.00,79.96,80.00,80.17,80.28,80.31,80.27,80.22,80.21,80.20,80.20,80.18,80.17,80.16,80.15,80.15,80.18,80.27,80.35,80.37,80.29,80.20,80.15,80.15,80.21,80.33,80.49,80.54,80.45,80.23,80.20,80.25,80.28,80.21,80.12,80.08,80.06,80.06,80.04,80.01,79.97,79.94,79.99,80.20,80.32,80.31,80.20,80.16,80.23,80.29,80.27,80.14,80.06,80.08,80.13,80.14,80.13,80.11,80.07,80.01,79.94,79.91,79.90,79.90,79.90,79.90,79.90,79.90,79.90,79.86,79.81,79.75,79.70,79.69,79.73,79.76,79.77,79.76,79.73,79.70,79.66,79.59,79.42,79.38,79.42,79.49,79.57,79.57,79.61,79.64,79.65,79.64,79.71,79.77,79.80,79.80,79.73,79.65,79.58,79.54,79.48,79.47,79.44,79.37,79.38,79.40,79.39,79.37,79.37,79.43,79.46,79.43,79.36,79.39,79.38,79.38,79.37,79.37,79.40,79.40,79.34,79.20,79.23,79.22,79.22,79.25,79.27,79.33,79.36,79.33,79.27,79.29,79.30,79.26,79.18,79.15,79.13,79.09,79.00,78.88,78.62,78.64,78.78,78.84,78.84,78.86,78.88,78.86,78.76,78.78,78.79,78.78,78.78,78.78,78.75,78.72,78.72,78.75,78.76,78.75,78.74,78.76,78.76,78.76,78.77,78.80,78.79,78.83,78.84,78.82,78.82,78.84,78.83,78.79,78.78,78.86,78.81,78.64,78.39,78.19,78.13,78.15,78.18,78.11,78.10,78.10,78.10,78.10,78.10,78.10,78.10,78.10,78.10,78.09,78.07,78.03,78.01,78.04,78.03,77.99,77.93,77.69,77.61,77.62,77.64,77.64,77.61,77.60,77.60,77.60,77.56,77.53,77.50,77.50,77.49,77.44,77.42,77.43,77.41,77.43,77.46,77.47,77.42,77.35,77.31,77.28,77.26,77.23,77.13,77.06,77.01,76.95,76.84,76.79,76.78,76.78,76.82,76.87,76.93,76.98,77.02,77.02,77.00,76.99,77.00,77.01,77.00,76.99,76.99,76.99,76.98
79.90,79.95,80.01,80.07,80.03,79.97,79.95,80.01,80.19,80.30,80.33,80.29,80.23,80.21,80.20,80.20,80.20,80.22,80.22,80.21,80.19,80.18,80.19,80.23,80.27,80.26,80.18,80.14,80.14,80.20,80.30,80.44,80.48,80.40,80.21,80.18,80.20,80.22,80.16,80.07,80.03,80.01,80.00,79.97,79.95,79.92,79.91,79.97,80.19,80.31,80.32,80.21,80.16,80.23,80.28,80.24,80.08,80.04,80.08,80.14,80.16,80.16,80.15,80.10,80.02,79.94,79.91,79.90,79.90,79.90,79.90,79.90,79.90,79.89,79.88,79.84,79.78,79.70,79.65,79.72,79.77,79.80,79.79,79.75,79.69,79.62,79.54,79.39,79.37,79.41,79.49,79.60,79.57,79.58,79.59,79.57,79.58,79.68,79.76,79.79,79.78,79.72,79.63,79.57,79.56,79.51,79.49,79.44,79.36,79.39,79.40,79.39,79.38,79.39,79.45,79.45,79.43,79.40,79.41,79.40,79.40,79.40,79.40,79.36,79.37,79.36,79.28,79.29,79.29,79.29,79.30,79.30,79.36,79.36,79.30,79.22,79.27,79.29,79.25,79.14,79.12,79.10,79.04,78.95,78.90,78.63,78.65,78.80,78.87,78.88,78.89,78.89,78.87,78.74,78.78,78.80,78.80,78.80,78.79,78.74,78.70,78.70,78.71,78.76,78.79,78.78,78.78,78.78,78.70,78.65,78.71,78.71,78.76,78.79,78.78,78.72,78.77,78.79,78.77,78.72,78.84,78.76,78.55,78.28,78.13,78.11,78.14,78.17,78.11,78.10,78.10,78.10,78.10,78.10,78.10,78.10,78.10,78.10,78.08,78.04,78.00,78.00,78.00,78.00,77.99,77.93,77.72,77.64,77.65,77.69,77.68,77.62,77.60,77.60,77.59,77.53,77.52,77.51,77.50,77.48,77.44,77.45,77.47,77.42,77.43,77.45,77.44,77.37,77.31,77.30,77.30,77.28,77.21,77.09,76.99,76.90,76.83,76.73,76.71,76.74,76.79,76.91,76.98,77.02,77.05,77.07,77.05,77.01,76.99,77.00,77.02,77.00,76.98,76.97,76.96,76.94
79.90,79.92,79.94,79.96,79.96,79.94,79.95,80.02,80.15,80.24,80.27,80.24,80.17,80.17,80.19,80.20,80.20,80.23,80.26,80.27,80.26,80.24,80.21,80.22,80.25,80.24,80.18,80.13,80.12,80.15,80.21,80.27,80.28,80.25,80.17,80.14,80.12,80.11,80.09,80.05,80.00,79.96,79.94,79.92,79.90,79.86,79.86,79.93,80.13,80.27,80.29,80.20,80.13,80.19,80.22,80.17,80.04,80.06,80.11,80.15,80.16,80.18,80.18,80.15,80.08,79.98,79.90,79.87,79.88,79.90,79.87,79.87,79.87,79.87,79.87,79.85,79.79,79.72,79.68,79.73,79.78,79.79,79.76,79.72,79.67,79.61,79.51,79.35,79.31,79.35,79.42,79.48,79.50,79.52,79.53,79.52,79.49,79.59,79.67,79.68,79.63,79.59,79.57,79.56,79.54,79.51,79.50,79.48,79.45,79.46,79.43,79.40,79.39,79.40,79.38,79.42,79.46,79.47,79.47,79.43,79.41,79.40,79.40,79.35,79.33,79.32,79.29,79.30,79.30,79.30,79.30,79.30,79.36,79.30,79.18,79.14,79.20,79.26,79.26,79.18,79.07,79.04,79.03,79.02,78.92,78.64,78.62,78.74,78.81,78.82,78.83,78.83,78.81,78.72,78.80,78.84,78.83,78.78,78.73,78.73,78.74,78.74,78.70,78.74,78.74,78.71,78.71,78.67,78.63,78.61,78.62,78.63,78.66,78.67,78.65,78.64,78.69,78.72,78.71,78.69,78.72,78.66,78.51,78.28,78.13,78.10,78.11,78.12,78.10,78.10,78.10,78.10,78.09,78.10,78.10,78.10,78.10,78.08,78.04,78.01,78.00,78.00,78.00,78.00,77.99,77.93,77.72,77.64,77.64,77.67,77.63,77.62,77.61,77.62,77.67,77.61,77.58,77.55,77.50,77.48,77.45,77.46,77.49,77.46,77.44,77.45,77.43,77.37,77.32,77.29,77.26,77.20,77.07,76.96,76.87,76.81,76.80,76.77,76.78,76.80,76.82,76.92,76.98,77.02,77.03,77.00,76.99,76.96,76.93,76.91,76.92,76.91,76.89,76.86,76.83,76.77
79.88,79.89,79.90,79.91,79.92,79.92,79.94,79.99,80.07,80.14,80.17,80.14,80.07,80.11,80.15,80.17,80.17,80.20,80.25,80.28,80.28,80.25,80.21,80.21,80.21,80.20,80.15,80.12,80.11,80.13,80.17,80.19,80.20,80.20,80.21,80.21,80.17,80.14,80.13,80.11,80.06,80.02,80.00,80.00,79.96,79.89,79.86,79.91,80.10,80.24,80.27,80.20,80.12,80.15,80.16,80.11,80.04,80.10,80.13,80.13,80.15,80.19,80.19,80.15,80.08,79.98,79.90,79.87,79.88,79.90,79.87,79.87,79.87,79.85,79.85,79.82,79.77,79.72,79.69,79.73,79.75,79.76,79.72,79.70,79.64,79.56,79.46,79.31,79.28,79.32,79.38,79.41,79.46,79.48,79.48,79.48,79.44,79.54,79.59,79.59,79.54,79.52,79.54,79.56,79.53,79.51,79.50,79.50,79.49,79.49,79.44,79.41,79.39,79.39,79.36,79.41,79.47,79.49,79.49,79.44,79.41,79.40,79.37,79.32,79.31,79.32,79.31,79.30,79.30,79.30,79.29,79.28,79.32,79.25,79.13,79.11,79.18,79.22,79.22,79.15,79.03,79.00,79.01,79.02,78.92,78.65,78.59,78.67,78.74,78.77,78.77,78.76,78.74,78.67,78.73,78.76,78.73,78.68,78.64,78.65,78.68,78.67,78.63,78.66,78.65,78.61,78.61,78.58,78.56,78.56,78.56,78.58,78.60,78.59,78.56,78.58,78.63,78.67,78.67,78.65,78.63,78.59,78.50,78.31,78.13,78.10,78.10,78.10,78.10,78.10,78.10,78.09,78.06,78.09,78.10,78.09,78.08,78.05,78.02,78.00,78.00,78.00,78.00,78.00,77.99,77.93,77.72,77.64,77.62,77.64,77.61,77.62,77.61,77.63,77.73,77.68,77.65,77.59,77.51,77.49,77.46,77.47,77.49,77.49,77.46,77.43,77.39,77.34,77.29,77.23,77.15,77.05,76.93,76.87,76.81,76.79,76.83,76.83,76.84,76.84,76.83,76.90,76.96,77.00,76.99,76.96,76.94,76.91,76.87,76.84,76.84,76.83,76.82,76.79,76.76,76.69
79.84,79.87,79.90,79.90,79.90,79.90,79.91,79.93,79.96,80.01,80.02,79.99,79.96,80.02,80.08,80.11,80.12,80.15,80.21,80.25,80.26,80.22,80.20,80.19,80.16,80.12,80.11,80.10,80.11,80.14,80.18,80.19,80.21,80.25,80.32,80.36,80.35,80.31,80.28,80.25,80.20,80.18,80.18,80.19,80.12,80.00,79.90,79.90,80.10,80.23,80.27,80.19,80.11,80.10,80.08,80.06,80.09,80.17,80.14,80.10,80.12,80.19,80.17,80.11,80.03,79.95,79.91,79.90,79.90,79.90,79.90,79.90,79.88,79.84,79.81,79.77,79.73,79.70,79.70,79.70,79.70,79.70,79.69,79.68,79.60,79.50,79.39,79.28,79.27,79.31,79.37,79.39,79.44,79.44,79.44,79.46,79.43,79.50,79.53,79.52,79.50,79.51,79.54,79.57,79.53,79.51,79.50,79.50,79.49,79.47,79.43,79.40,79.38,79.38,79.39,79.43,79.47,79.48,79.48,79.43,79.41,79.40,79.30,79.28,79.32,79.36,79.32,79.30,79.30,79.29,79.26,79.25,79.27,79.21,79.12,79.14,79.19,79.20,79.15,79.08,79.00,78.98,78.97,78.96,78.91,78.64,78.57,78.61,78.67,78.72,78.72,78.69,78.66,78.59,78.58,78.55,78.52,78.51,78.51,78.51,78.51,78.51,78.51,78.51,78.51,78.51,78.51,78.51,78.50,78.50,78.51,78.55,78.57,78.55,78.51,78.56,78.59,78.64,78.66,78.61,78.56,78.55,78.50,78.36,78.14,78.10,78.10,78.10,78.10,78.10,78.10,78.07,78.02,78.08,78.09,78.08,78.05,78.01,78.00,78.00,78.00,78.00,78.00,78.00,77.99,77.93,77.72,77.63,77.60,77.60,77.61,77.62,77.62,77.65,77.79,77.75,77.72,77.65,77.53,77.50,77.46,77.46,77.47,77.50,77.47,77.40,77.32,77.27,77.22,77.11,76.97,76.83,76.81,76.80,76.81,76.85,76.90,76.90,76.88,76.85,76.82,76.87,76.92,76.95,76.95,76.94,76.90,76.85,76.82,76.80,76.80,76.78,76.76,76.76,76.75,76.69
79.83,79.87,79.90,79.89,79.89,79.89,79.90,79.91,79.92,79.94,79.94,79.93,79.92,79.95,79.98,80.03,80.08,80.14,80.19,80.20,80.19,80.17,80.18,80.18,80.17,80.13,80.11,80.10,80.11,80.15,80.22,80.28,80.31,80.32,80.36,80.41,80.42,80.40,80.39,80.36,80.30,80.28,80.28,80.31,80.23,80.07,79.92,79.89,80.08,80.22,80.25,80.18,80.08,80.05,80.04,80.04,80.10,80.12,80.08,80.06,80.10,80.14,80.10,80.03,79.96,79.92,79.90,79.89,79.88,79.87,79.87,79.88,79.87,79.83,79.77,79.73,79.70,79.68,79.69,79.70,79.70,79.69,79.66,79.57,79.46,79.37,79.32,79.25,79.27,79.31,79.35,79.37,79.42,79.43,79.43,79.43,79.42,79.45,79.48,79.48,79.48,79.51,79.55,79.56,79.52,79.50,79.50,79.48,79.45,79.39,79.36,79.34,79.32,79.33,79.37,79.41,79.43,79.43,79.41,79.34,79.28,79.21,79.12,79.11,79.20,79.27,79.23,79.22,79.20,79.16,79.10,79.12,79.19,79.14,79.04,79.01,79.02,79.02,79.02,79.02,78.95,78.93,78.93,78.91,78.83,78.61,78.56,78.60,78.63,78.63,78.60,78.59,78.59,78.54,78.53,78.52,78.50,78.50,78.50,78.50,78.50,78.50,78.50,78.50,78.51,78.53,78.53,78.53,78.53,78.53,78.50,78.52,78.52,78.51,78.50,78.52,78.55,78.61,78.65,78.57,78.57,78.54,78.45,78.29,78.13,78.10,78.10,78.10,78.09,78.07,78.06,78.04,78.01,78.05,78.06,78.04,78.02,78.00,78.00,77.98,77.96,77.97,77.99,78.00,77.99,77.93,77.72,77.63,77.60,77.60,77.60,77.61,77.63,77.66,77.71,77.69,77.64,77.56,77.46,77.40,77.36,77.36,77.40,77.45,77.42,77.32,77.19,77.07,77.01,76.93,76.85,76.79,76.84,76.84,76.83,76.85,76.90,76.89,76.91,76.92,76.91,76.94,76.99,77.02,77.02,77.02,77.01,76.99,76.95,76.90,76.90,76.90,76.92,76.93,76.91,76.85
79.82,79.86,79.89,79.87,79.87,79.87,79.87,79.88,79.87,79.89,79.90,79.89,79.88,79.90,79.91,79.95,80.03,80.10,80.13,80.13,80.12,80.11,80.15,80.16,80.16,80.14,80.11,80.10,80.11,80.14,80.23,80.32,80.36,80.36,80.36,80.40,80.42,80.41,80.41,80.38,80.34,80.31,80.32,80.35,80.27,80.11,79.94,79.88,80.06,80.19,80.22,80.15,80.05,80.01,80.00,80.02,80.09,80.07,80.03,80.02,80.08,80.10,80.04,79.96,79.90,79.89,79.89,79.88,79.85,79.83,79.84,79.84,79.83,79.80,79.73,79.68,79.66,79.66,79.68,79.70,79.70,79.67,79.62,79.49,79.37,79.30,79.29,79.24,79.26,79.30,79.34,79.36,79.40,79.42,79.41,79.39,79.38,79.39,79.40,79.41,79.41,79.47,79.50,79.51,79.50,79.46,79.46,79.44,79.38,79.32,79.28,79.25,79.23,79.26,79.33,79.36,79.36,79.34,79.31,79.23,79.12,79.01,78.93,78.94,79.03,79.12,79.09,79.08,79.05,78.99,78.92,78.96,79.04,79.01,78.91,78.86,78.85,78.83,78.85,78.92,78.87,78.86,78.85,78.83,78.75,78.58,78.55,78.58,78.58,78.55,78.51,78.50,78.53,78.50,78.50,78.50,78.50,78.50,78.50,78.50,78.51,78.52,78.52,78.52,78.54,78.57,78.57,78.57,78.57,78.55,78.52,78.50,78.48,78.48,78.50,78.50,78.52,78.59,78.63,78.55,78.57,78.52,78.40,78.23,78.11,78.09,78.10,78.10,78.09,78.04,78.02,78.02,78.00,78.02,78.02,78.02,78.00,78.00,77.99,77.96,77.93,77.95,77.97,77.98,77.97,77.92,77.74,77.65,77.62,77.62,77.62,77.62,77.64,77.64,77.62,77.60,77.55,77.47,77.38,77.30,77.25,77.27,77.33,77.38,77.31,77.18,77.03,76.91,76.86,76.83,76.80,76.80,76.88,76.87,76.86,76.86,76.89,76.89,76.95,77.00,77.01,77.03,77.06,77.08,77.09,77.09,77.12,77.12,77.08,77.00,77.00,77.02,77.04,77.07,77.05,77.00
79.82,79.86,79.86,79.81,79.81,79.81,79.81,79.82,79.82,79.87,79.88,79.87,79.86,79.89,79.90,79.91,79.93,79.95,79.99,80.03,80.05,80.05,80.08,80.10,80.11,80.11,80.10,80.10,80.10,80.11,80.17,80.26,80.31,80.32,80.31,80.30,80.28,80.27,80.25,80.25,80.24,80.23,80.22,80.24,80.20,80.07,79.93,79.87,80.02,80.12,80.15,80.09,80.02,79.99,79.99,80.01,80.06,80.02,80.00,80.00,80.06,80.04,79.96,79.89,79.86,79.88,79.88,79.84,79.80,79.78,79.80,79.80,79.77,79.72,79.66,79.63,79.61,79.62,79.66,79.69,79.68,79.65,79.58,79.48,79.40,79.35,79.33,79.26,79.23,79.26,79.32,79.37,79.38,79.37,79.35,79.34,79.32,79.28,79.26,79.25,79.25,79.33,79.38,79.41,79.43,79.32,79.35,79.35,79.28,79.25,79.18,79.11,79.08,79.16,79.24,79.25,79.22,79.18,79.15,79.07,78.96,78.84,78.78,78.78,78.82,78.86,78.85,78.84,78.83,78.78,78.73,78.75,78.77,78.75,78.71,78.69,78.69,78.65,78.65,78.73,78.72,78.71,78.71,78.70,78.67,78.56,78.52,78.53,78.53,78.51,78.47,78.46,78.50,78.50,78.50,78.50,78.50,78.50,78.50,78.50,78.52,78.57,78.57,78.57,78.58,78.59,78.59,78.59,78.59,78.59,78.56,78.51,78.50,78.50,78.50,78.50,78.50,78.55,78.60,78.57,78.54,78.47,78.35,78.19,78.06,78.07,78.10,78.10,78.09,78.03,78.00,78.00,78.00,78.00,78.00,78.00,78.00,78.00,77.99,77.96,77.93,77.97,77.93,77.92,77.91,77.89,77.79,77.71,77.68,77.68,77.68,77.67,77.63,77.58,77.52,77.51,77.45,77.37,77.29,77.21,77.16,77.18,77.24,77.25,77.08,76.94,76.85,76.82,76.83,76.86,76.88,76.88,76.90,76.89,76.89,76.89,76.91,76.94,77.02,77.09,77.11,77.14,77.12,77.10,77.10,77.13,77.19,77.20,77.17,77.09,77.08,77.08,77.09,77.09,77.10,77.10
79.83,79.85,79.84,79.79,79.77,79.75,79.74,79.75,79.77,79.84,79.87,79.87,79.88,79.89,79.90,79.90,79.90,79.91,79.93,79.95,79.97,79.99,80.03,80.06,80.07,80.07,80.07,80.08,80.08,80.09,80.09,80.13,80.17,80.20,80.19,80.18,80.16,80.13,80.10,80.10,80.09,80.07,80.05,80.06,80.04,79.97,79.88,79.85,79.94,80.01,80.03,80.01,79.97,79.97,79.98,80.00,80.01,79.99,79.97,79.98,80.00,79.97,79.90,79.84,79.83,79.83,79.82,79.78,79.75,79.74,79.74,79.72,79.68,79.63,79.56,79.53,79.52,79.53,79.56,79.57,79.55,79.51,79.47,79.41,79.35,79.32,79.29,79.24,79.20,79.20,79.22,79.24,79.23,79.21,79.19,79.17,79.17,79.13,79.10,79.08,79.05,79.10,79.12,79.15,79.19,79.09,79.10,79.11,79.06,79.05,78.98,78.93,78.93,78.99,79.01,79.01,78.98,78.95,78.93,78.89,78.82,78.74,78.69,78.68,78.71,78.74,78.71,78.70,78.69,78.67,78.64,78.65,78.68,78.68,78.67,78.63,78.66,78.64,78.64,78.69,78.65,78.69,78.71,78.67,78.60,78.50,78.51,78.55,78.55,78.48,78.44,78.43,78.45,78.49,78.50,78.50,78.50,78.50,78.50,78.52,78.56,78.59,78.59,78.59,78.59,78.60,78.60,78.60,78.60,78.60,78.59,78.55,78.52,78.50,78.50,78.50,78.50,78.54,78.60,78.58,78.52,78.47,78.37,78.19,78.01,78.02,78.05,78.05,78.05,78.04,78.02,78.00,78.00,78.00,78.00,78.00,78.00,78.00,77.99,77.95,77.92,77.98,77.94,77.92,77.90,77.88,77.81,77.77,77.75,77.74,77.72,77.69,77.65,77.59,77.49,77.45,77.39,77.31,77.23,77.16,77.12,77.08,77.05,77.04,76.93,76.86,76.83,76.85,76.87,76.90,76.91,76.90,76.90,76.91,76.91,76.92,76.94,76.97,77.05,77.11,77.14,77.18,77.16,77.13,77.13,77.16,77.19,77.19,77.17,77.14,77.13,77.12,77.12,77.11,77.14,77.15
79.80,79.82,79.80,79.78,79.74,79.71,79.68,79.67,79.73,79.81,79.86,79.88,79.90,79.90,79.90,79.90,79.90,79.90,79.90,79.90,79.91,79.93,79.98,80.02,80.04,80.03,80.03,80.04,80.06,80.06,80.00,79.99,80.01,80.05,80.05,80.05,80.03,80.00,79.96,79.96,79.94,79.91,79.88,79.88,79.87,79.85,79.83,79.83,79.86,79.89,79.92,79.93,79.93,79.94,79.97,79.98,79.95,79.94,79.94,79.93,79.92,79.88,79.82,79.79,79.78,79.76,79.73,79.70,79.68,79.68,79.65,79.62,79.58,79.53,79.46,79.43,79.42,79.43,79.44,79.41,79.38,79.35,79.33,79.32,79.29,79.25,79.23,79.20,79.16,79.13,79.11,79.09,79.06,79.04,79.02,78.98,79.01,78.98,78.95,78.94,78.91,78.90,78.88,78.89,78.93,78.88,78.87,78.86,78.85,78.85,78.80,78.79,78.82,78.84,78.81,78.79,78.77,78.76,78.75,78.74,78.74,78.72,78.67,78.66,78.68,78.69,78.64,78.63,78.62,78.61,78.62,78.63,78.68,78.70,78.69,78.63,78.68,78.70,78.72,78.71,78.65,78.73,78.76,78.69,78.54,78.45,78.49,78.58,78.59,78.45,78.41,78.40,78.41,78.47,78.49,78.50,78.50,78.50,78.50,78.55,78.60,78.60,78.60,78.60,78.60,78.60,78.60,78.60,78.60,78.60,78.60,78.60,78.54,78.50,78.50,78.50,78.50,78.54,78.60,78.59,78.52,78.50,78.42,78.22,77.97,77.96,77.99,78.00,78.01,78.05,78.04,78.00,78.00,78.00,78.00,78.00,78.00,78.00,77.97,77.94,77.93,77.97,77.97,77.93,77.90,77.88,77.81,77.81,77.80,77.77,77.73,77.69,77.67,77.62,77.50,77.43,77.35,77.26,77.18,77.11,77.08,76.98,76.86,76.84,76.84,76.84,76.87,76.92,76.94,76.93,76.92,76.91,76.91,76.92,76.92,76.93,76.97,77.00,77.06,77.11,77.14,77.19,77.19,77.17,77.16,77.19,77.16,77.14,77.15,77.19,77.17,77.15,77.14,77.13,77.17,77.18
79.65,79.69,79.72,79.75,79.76,79.74,79.69,79.65,79.72,79.80,79.86,79.89,79.90,79.90,79.90,79.90,79.90,79.90,79.90,79.90,79.90,79.92,79.95,79.99,80.01,79.99,79.98,79.99,79.99,79.96,79.93,79.93,79.93,79.93,79.92,79.95,79.93,79.90,79.86,79.86,79.86,79.88,79.88,79.86,79.81,79.80,79.81,79.84,79.82,79.83,79.85,79.88,79.90,79.94,79.95,79.95,79.88,79.86,79.83,79.80,79.77,79.73,79.68,79.65,79.62,79.58,79.55,79.53,79.53,79.51,79.48,79.45,79.41,79.37,79.35,79.34,79.34,79.34,79.34,79.31,79.27,79.24,79.21,79.22,79.23,79.21,79.16,79.13,79.12,79.11,79.12,79.16,79.10,79.02,78.98,78.99,79.01,78.98,79.00,79.08,79.15,79.14,79.05,78.96,78.93,78.95,78.94,78.91,78.90,78.90,78.87,78.91,78.96,78.97,79.03,79.03,79.02,79.01,78.96,78.91,78.91,78.96,78.97,78.96,78.93,78.87,78.78,78.76,78.70,78.71,78.80,78.86,78.82,78.79,78.78,78.75,78.76,78.80,78.83,78.84,78.82,78.85,78.86,78.81,78.63,78.48,78.48,78.53,78.54,78.44,78.41,78.41,78.42,78.42,78.47,78.50,78.50,78.50,78.50,78.55,78.60,78.60,78.60,78.60,78.60,78.60,78.60,78.60,78.60,78.60,78.60,78.60,78.55,78.51,78.50,78.50,78.50,78.54,78.59,78.58,78.53,78.51,78.48,78.41,78.03,77.94,77.96,78.00,78.00,78.02,78.01,78.00,78.00,78.00,78.00,78.00,78.00,77.97,77.93,77.92,77.93,77.92,77.92,77.91,77.88,77.85,77.78,77.77,77.75,77.71,77.65,77.66,77.65,77.62,77.55,77.49,77.39,77.26,77.13,77.02,76.98,76.93,76.86,76.88,76.88,76.89,76.91,76.96,77.00,76.99,76.96,76.94,76.95,76.96,76.96,76.94,76.96,76.98,77.03,77.09,77.12,77.16,77.19,77.20,77.20,77.20,77.15,77.15,77.19,77.24,77.24,77.23,77.19,77.15,77.16,77.17
79.58,79.61,79.64,79.67,79.70,79.68,79.65,79.63,79.70,79.79,79.86,79.90,79.90,79.90,79.90,79.90,79.90,79.90,79.90,79.90,79.90,79.91,79.93,79.95,79.96,79.95,79.94,79.93,79.92,79.89,79.90,79.90,79.89,79.88,79.86,79.88,79.88,79.86,79.83,79.81,79.83,79.86,79.89,79.87,79.81,79.79,79.80,79.83,79.82,79.83,79.85,79.87,79.90,79.92,79.93,79.91,79.86,79.84,79.82,79.78,79.74,79.70,79.66,79.62,79.58,79.55,79.52,79.52,79.54,79.55,79.55,79.52,79.47,79.40,79.36,79.36,79.36,79.36,79.37,79.35,79.33,79.30,79.28,79.29,79.27,79.23,79.16,79.12,79.11,79.14,79.21,79.29,79.22,79.11,79.05,79.08,79.10,79.05,79.06,79.16,79.26,79.28,79.19,79.08,79.03,79.06,79.04,79.01,78.98,78.97,78.94,78.97,79.02,79.04,79.13,79.15,79.16,79.18,79.14,79.06,79.04,79.08,79.09,79.05,79.00,78.92,78.84,78.84,78.79,78.79,78.87,78.96,78.91,78.87,78.85,78.83,78.82,78.83,78.86,78.90,78.90,78.88,78.88,78.86,78.69,78.50,78.47,78.51,78.54,78.47,78.45,78.45,78.44,78.41,78.46,78.49,78.50,78.50,78.51,78.56,78.60,78.60,78.60,78.60,78.60,78.60,78.60,78.60,78.60,78.60,78.60,78.60,78.56,78.52,78.50,78.50,78.50,78.54,78.60,78.59,78.58,78.56,78.53,78.48,78.01,77.91,77.95,78.00,78.00,78.00,78.00,78.00,78.00,78.00,78.00,78.00,77.99,77.96,77.92,77.92,77.93,77.90,77.90,77.89,77.86,77.80,77.75,77.72,77.70,77.67,77.62,77.65,77.66,77.64,77.59,77.45,77.31,77.18,77.05,76.95,76.93,76.92,76.91,76.94,76.93,76.93,76.96,77.02,77.07,77.04,77.01,76.99,76.99,76.99,76.98,76.97,76.97,76.98,77.02,77.06,77.09,77.14,77.17,77.20,77.22,77.22,77.14,77.14,77.18,77.22,77.22,77.22,77.19,77.16,77.17,77.17
79.58,79.59,79.57,79.54,79.57,79.55,79.56,79.61,79.66,79.77,79.85,79.90,79.90,79.89,79.90,79.90,79.90,79.90,79.90,79.90,79.90,79.90,79.90,79.90,79.90,79.90,79.90,79.88,79.86,79.85,79.89,79.90,79.90,79.89,79.86,79.85,79.87,79.89,79.85,79.81,79.82,79.86,79.90,79.89,79.86,79.82,79.79,79.79,79.84,79.88,79.90,79.90,79.90,79.90,79.88,79.86,79.86,79.89,79.88,79.85,79.81,79.78,79.75,79.70,79.66,79.62,79.62,79.65,79.70,79.74,79.80,79.80,79.73,79.60,79.48,79.47,79.48,79.48,79.49,79.52,79.51,79.49,79.50,79.50,79.41,79.31,79.21,79.15,79.13,79.21,79.35,79.48,79.41,79.29,79.22,79.24,79.24,79.17,79.15,79.19,79.27,79.33,79.29,79.23,79.19,79.19,79.16,79.13,79.10,79.05,79.01,78.98,78.99,79.07,79.13,79.17,79.22,79.28,79.27,79.19,79.12,79.09,79.07,78.99,78.91,78.86,78.84,78.88,78.87,78.86,78.87,78.93,78.95,78.93,78.90,78.89,78.86,78.83,78.84,78.89,78.90,78.85,78.85,78.86,78.73,78.52,78.46,78.52,78.59,78.55,78.55,78.53,78.49,78.42,78.46,78.49,78.50,78.50,78.54,78.58,78.60,78.60,78.60,78.60,78.60,78.60,78.60,78.60,78.60,78.60,78.60,78.60,78.57,78.53,78.50,78.50,78.50,78.54,78.61,78.64,78.65,78.63,78.57,78.44,77.94,77.88,77.95,78.00,78.00,78.00,78.00,78.00,78.00,78.00,78.00,78.00,78.00,77.96,77.92,77.91,77.92,77.90,77.90,77.89,77.84,77.73,77.70,77.64,77.63,77.65,77.62,77.67,77.68,77.66,77.61,77.31,77.14,77.04,76.96,76.89,76.90,76.94,76.99,77.03,76.98,76.98,77.03,77.10,77.14,77.10,77.07,77.07,77.06,77.02,77.00,77.00,77.00,77.00,77.01,77.02,77.06,77.10,77.14,77.18,77.23,77.24,77.14,77.12,77.14,77.14,77.14,77.14,77.14,77.16,77.19,77.18
79.54,79.60,79.66,79.70,79.62,79.57,79.57,79.60,79.61,79.67,79.75,79.81,79.82,79.77,79.80,79.85,79.89,79.88,79.89,79.89,79.90,79.90,79.90,79.91,79.91,79.90,79.90,79.87,79.85,79.84,79.89,79.90,79.90,79.89,79.86,79.85,79.87,79.89,79.86,79.81,79.82,79.85,79.87,79.85,79.80,79.76,79.75,79.77,79.84,79.88,79.90,79.89,79.89,79.89,79.88,79.86,79.87,79.89,79.89,79.88,79.87,79.85,79.82,79.77,79.73,79.70,79.70,79.73,79.79,79.84,79.86,79.85,79.78,79.68,79.60,79.60,79.59,79.58,79.60,79.66,79.68,79.66,79.61,79.57,79.43,79.29,79.18,79.13,79.13,79.24,79.41,79.53,79.45,79.36,79.30,79.29,79.28,79.21,79.18,79.19,79.24,79.26,79.24,79.21,79.20,79.20,79.17,79.14,79.10,79.06,79.05,79.05,79.06,79.09,79.11,79.12,79.15,79.21,79.25,79.18,79.12,79.09,79.04,78.95,78.89,78.87,78.87,78.87,78.85,78.83,78.83,78.90,78.95,78.94,78.91,78.88,78.87,78.84,78.84,78.89,78.90,78.86,78.86,78.86,78.73,78.52,78.46,78.50,78.59,78.65,78.68,78.64,78.54,78.46,78.48,78.50,78.50,78.50,78.52,78.57,78.60,78.60,78.60,78.60,78.60,78.60,78.60,78.60,78.58,78.56,78.60,78.56,78.53,78.51,78.50,78.50,78.47,78.50,78.57,78.61,78.63,78.60,78.53,78.42,77.92,77.84,77.89,77.95,77.95,77.99,78.00,78.00,78.00,78.00,77.97,77.93,77.90,77.88,77.86,77.87,77.88,77.79,77.79,77.78,77.72,77.60,77.60,77.60,77.59,77.57,77.56,77.57,77.51,77.40,77.27,77.13,77.05,76.99,76.94,76.95,76.96,76.98,77.02,77.07,77.05,77.05,77.08,77.13,77.20,77.14,77.09,77.08,77.07,77.02,77.00,77.00,77.00,77.00,77.01,77.05,77.10,77.16,77.19,77.23,77.27,77.28,77.21,77.14,77.09,77.08,77.09,77.08,77.08,77.12,77.15,77.16
79.53,79.62,79.73,79.81,79.70,79.63,79.59,79.58,79.58,79.62,79.68,79.73,79.74,79.67,79.70,79.78,79.85,79.84,79.84,79.86,79.89,79.90,79.91,79.92,79.92,79.90,79.89,79.87,79.83,79.81,79.88,79.89,79.89,79.88,79.86,79.85,79.87,79.89,79.86,79.82,79.82,79.83,79.84,79.81,79.75,79.72,79.72,79.76,79.85,79.89,79.89,79.88,79.88,79.88,79.87,79.86,79.87,79.88,79.89,79.90,79.90,79.90,79.86,79.81,79.77,79.76,79.76,79.79,79.84,79.89,79.89,79.86,79.81,79.74,79.70,79.69,79.68,79.66,79.68,79.76,79.79,79.76,79.69,79.61,79.45,79.29,79.18,79.13,79.12,79.25,79.42,79.52,79.45,79.38,79.34,79.31,79.29,79.24,79.21,79.20,79.22,79.20,79.20,79.20,79.20,79.19,79.16,79.13,79.10,79.07,79.08,79.09,79.10,79.10,79.10,79.08,79.09,79.14,79.21,79.16,79.12,79.09,79.02,78.93,78.88,78.88,78.89,78.85,78.82,78.80,78.81,78.89,78.94,78.94,78.90,78.84,78.86,78.84,78.84,78.88,78.90,78.86,78.85,78.83,78.73,78.51,78.44,78.50,78.60,78.71,78.75,78.70,78.60,78.50,78.50,78.50,78.50,78.50,78.51,78.56,78.59,78.58,78.58,78.58,78.59,78.60,78.60,78.58,78.55,78.53,78.58,78.53,78.51,78.50,78.50,78.50,78.46,78.47,78.53,78.60,78.61,78.58,78.52,78.41,77.90,77.81,77.86,77.92,77.92,77.96,77.98,77.98,77.98,77.97,77.93,77.88,77.82,77.82,77.82,77.82,77.81,77.69,77.68,77.66,77.61,77.51,77.52,77.55,77.53,77.48,77.45,77.43,77.32,77.18,77.04,77.02,77.01,77.00,76.97,77.01,77.02,77.03,77.05,77.11,77.11,77.11,77.11,77.15,77.22,77.15,77.10,77.10,77.08,77.04,77.02,77.01,77.01,77.00,77.02,77.07,77.13,77.18,77.20,77.23,77.26,77.26,77.21,77.11,77.02,77.00,77.02,76.98,76.98,77.02,77.04,77.07
79.57,79.67,79.77,79.81,79.79,79.73,79.64,79.56,79.58,79.62,79.66,79.68,79.67,79.59,79.59,79.65,79.74,79.75,79.76,79.80,79.87,79.90,79.92,79.94,79.94,79.88,79.87,79.85,79.81,79.77,79.84,79.85,79.86,79.86,79.86,79.85,79.87,79.89,79.87,79.84,79.82,79.81,79.80,79.77,79.71,79.69,79.70,79.76,79.85,79.89,79.89,79.88,79.88,79.88,79.87,79.86,79.85,79.84,79.86,79.88,79.90,79.90,79.85,79.80,79.77,79.79,79.79,79.81,79.83,79.87,79.87,79.84,79.80,79.77,79.74,79.74,79.74,79.72,79.73,79.77,79.78,79.75,79.70,79.61,79.48,79.34,79.22,79.14,79.11,79.21,79.36,79.45,79.39,79.32,79.29,79.28,79.26,79.25,79.24,79.22,79.21,79.19,79.19,79.19,79.20,79.16,79.13,79.11,79.10,79.09,79.09,79.10,79.10,79.10,79.10,79.07,79.05,79.09,79.12,79.11,79.10,79.09,79.02,78.94,78.90,78.90,78.90,78.84,78.81,78.80,78.82,78.93,78.93,78.92,78.87,78.76,78.79,78.80,78.83,78.88,78.90,78.85,78.80,78.74,78.71,78.47,78.42,78.51,78.59,78.68,78.71,78.70,78.66,78.53,78.50,78.50,78.50,78.50,78.50,78.55,78.57,78.52,78.52,78.51,78.55,78.60,78.60,78.54,78.51,78.51,78.51,78.51,78.50,78.50,78.50,78.50,78.49,78.49,78.52,78.60,78.60,78.59,78.54,78.41,77.91,77.81,77.85,77.90,77.90,77.91,77.91,77.91,77.91,77.91,77.90,77.86,77.80,77.80,77.80,77.76,77.70,77.61,77.55,77.53,77.51,77.49,77.50,77.49,77.45,77.38,77.30,77.23,77.13,77.04,77.02,77.03,77.07,77.09,77.08,77.08,77.08,77.09,77.10,77.13,77.15,77.13,77.12,77.18,77.19,77.14,77.10,77.10,77.09,77.07,77.06,77.05,77.03,77.01,77.05,77.09,77.13,77.15,77.16,77.16,77.16,77.15,77.09,76.99,76.91,76.90,76.91,76.84,76.80,76.82,76.83,76.88
79.64,79.73,79.80,79.84,79.84,79.77,79.65,79.55,79.61,79.69,79.74,79.75,79.73,79.66,79.61,79.63,79.74,79.75,79.71,79.71,79.77,79.81,79.86,79.89,79.90,79.86,79.86,79.83,79.78,79.74,79.78,79.78,79.79,79.80,79.81,79.82,79.83,79.83,79.81,79.79,79.77,79.76,79.76,79.74,79.69,79.66,79.66,79.71,79.81,79.87,79.89,79.87,79.85,79.86,79.87,79.87,79.83,79.80,79.83,79.87,79.90,79.90,79.84,79.79,79.77,79.80,79.80,79.80,79.82,79.84,79.83,79.82,79.80,79.79,79.78,79.78,79.76,79.73,79.72,79.74,79.74,79.72,79.67,79.59,79.47,79.34,79.22,79.12,79.09,79.16,79.26,79.32,79.31,79.28,79.26,79.26,79.22,79.23,79.23,79.19,79.15,79.15,79.15,79.14,79.11,79.05,79.04,79.06,79.09,79.12,79.09,79.12,79.16,79.16,79.13,79.09,79.07,79.09,79.10,79.10,79.09,79.06,79.02,79.00,78.98,78.95,78.91,78.87,78.83,78.81,78.82,78.91,78.89,78.88,78.87,78.81,78.84,78.85,78.86,78.88,78.86,78.80,78.73,78.66,78.61,78.42,78.39,78.48,78.59,78.67,78.70,78.70,78.68,78.54,78.50,78.49,78.50,78.50,78.50,78.52,78.52,78.50,78.49,78.49,78.51,78.55,78.55,78.49,78.48,78.50,78.49,78.49,78.47,78.45,78.45,78.45,78.45,78.47,78.50,78.54,78.56,78.55,78.47,78.29,77.93,77.84,77.86,77.90,77.90,77.90,77.90,77.90,77.90,77.90,77.90,77.87,77.81,77.80,77.78,77.73,77.66,77.59,77.53,77.48,77.46,77.45,77.43,77.40,77.34,77.27,77.16,77.15,77.10,77.06,77.09,77.09,77.14,77.17,77.15,77.14,77.12,77.12,77.13,77.15,77.15,77.10,77.09,77.15,77.17,77.12,77.08,77.06,77.03,77.02,77.02,77.00,76.96,76.92,76.94,76.97,76.99,77.02,77.01,76.99,76.97,76.94,76.89,76.78,76.70,76.71,76.71,76.65,76.62,76.64,76.66,76.70
79.70,79.79,79.84,79.87,79.86,79.78,79.66,79.55,79.64,79.75,79.82,79.84,79.81,79.75,79.64,79.62,79.77,79.77,79.69,79.65,79.67,79.70,79.77,79.80,79.81,79.83,79.84,79.81,79.75,79.70,79.71,79.72,79.73,79.74,79.75,79.79,79.79,79.77,79.74,79.74,79.73,79.72,79.72,79.71,79.68,79.63,79.62,79.66,79.77,79.85,79.88,79.85,79.81,79.83,79.87,79.88,79.82,79.78,79.81,79.87,79.90,79.90,79.84,79.79,79.77,79.81,79.81,79.81,79.80,79.80,79.80,79.80,79.80,79.80,79.79,79.79,79.76,79.73,79.70,79.70,79.70,79.67,79.62,79.55,79.44,79.33,79.22,79.10,79.07,79.10,79.16,79.19,79.24,79.24,79.24,79.24,79.18,79.20,79.19,79.14,79.10,79.10,79.11,79.08,79.03,78.95,78.95,78.99,79.06,79.13,79.09,79.13,79.21,79.22,79.15,79.12,79.11,79.12,79.11,79.10,79.07,79.03,79.02,79.07,79.06,79.01,78.94,78.91,78.85,78.81,78.81,78.87,78.84,78.85,78.88,78.88,78.89,78.90,78.89,78.87,78.81,78.74,78.67,78.59,78.51,78.38,78.36,78.45,78.58,78.66,78.69,78.70,78.68,78.53,78.49,78.48,78.50,78.50,78.50,78.48,78.47,78.47,78.47,78.47,78.48,78.50,78.50,78.45,78.46,78.49,78.47,78.47,78.43,78.40,78.40,78.40,78.39,78.42,78.45,78.46,78.51,78.49,78.39,78.19,77.95,77.88,77.88,77.90,77.90,77.90,77.90,77.90,77.90,77.90,77.92,77.89,77.83,77.80,77.77,77.71,77.64,77.59,77.54,77.47,77.42,77.39,77.35,77.29,77.24,77.17,77.07,77.12,77.12,77.13,77.18,77.17,77.21,77.22,77.20,77.18,77.15,77.14,77.14,77.15,77.13,77.07,77.05,77.11,77.15,77.09,77.04,77.01,76.95,76.95,76.94,76.91,76.87,76.82,76.81,76.82,76.81,76.85,76.82,76.78,76.75,76.72,76.67,76.56,76.48,76.49,76.49,76.45,76.44,76.47,76.49,76.52
79.67,79.78,79.85,79.83,79.82,79.77,79.69,79.61,79.69,79.77,79.81,79.82,79.82,79.76,79.62,79.58,79.75,79.80,79.81,79.77,79.70,79.62,79.59,79.61,79.67,79.74,79.76,79.75,79.70,79.64,79.68,79.75,79.77,79.75,79.72,79.73,79.76,79.80,79.82,79.77,79.75,79.74,79.74,79.71,79.68,79.63,79.60,79.67,79.80,79.82,79.82,79.81,79.80,79.83,79.85,79.86,79.83,79.85,79.87,79.88,79.89,79.87,79.83,79.81,79.83,79.86,79.86,79.85,79.83,79.83,79.82,79.80,79.79,79.78,79.75,79.72,79.70,79.69,79.69,79.69,79.67,79.63,79.56,79.49,79.41,79.34,79.27,79.15,79.07,79.06,79.10,79.13,79.17,79.19,79.20,79.20,79.19,79.17,79.12,79.08,79.09,79.13,79.14,79.10,79.03,78.96,78.93,78.93,78.96,79.03,79.07,79.11,79.16,79.16,79.15,79.15,79.15,79.16,79.13,79.10,79.08,79.07,79.08,79.09,79.08,79.04,78.99,78.95,78.86,78.80,78.80,78.87,78.85,78.85,78.86,78.85,78.87,78.87,78.86,78.83,78.77,78.73,78.66,78.57,78.49,78.37,78.36,78.44,78.55,78.64,78.68,78.70,78.67,78.51,78.46,78.46,78.48,78.50,78.48,78.44,78.42,78.42,78.42,78.40,78.42,78.47,78.50,78.46,78.45,78.45,78.42,78.45,78.42,78.40,78.40,78.40,78.35,78.33,78.35,78.38,78.42,78.45,78.42,78.31,77.97,77.87,77.87,77.90,77.90,77.90,77.90,77.90,77.90,77.91,77.94,77.93,77.83,77.80,77.76,77.69,77.60,77.55,77.53,77.48,77.41,77.34,77.28,77.21,77.16,77.13,77.14,77.17,77.20,77.23,77.26,77.24,77.26,77.25,77.21,77.21,77.16,77.13,77.11,77.07,77.06,77.03,77.03,77.06,77.07,77.00,76.94,76.89,76.86,76.89,76.88,76.85,76.82,76.74,76.70,76.69,76.69,76.65,76.60,76.56,76.55,76.54,76.51,76.43,76.34,76.31,76.31,76.28,76.26,76.25,76.27,76.30
79.66,79.79,79.87,79.84,79.82,79.77,79.69,79.63,79.74,79.78,79.80,79.82,79.82,79.75,79.61,79.57,79.75,79.81,79.86,79.84,79.76,79.64,79.59,79.63,79.70,79.74,79.71,79.70,79.67,79.62,79.69,79.77,79.79,79.78,79.76,79.78,79.81,79.84,79.87,79.81,79.78,79.78,79.79,79.77,79.73,79.66,79.61,79.64,79.74,79.76,79.77,79.79,79.78,79.79,79.81,79.82,79.82,79.85,79.86,79.86,79.86,79.84,79.81,79.82,79.84,79.86,79.85,79.84,79.82,79.80,79.78,79.76,79.75,79.75,79.71,79.67,79.65,79.64,79.65,79.64,79.61,79.57,79.53,79.48,79.42,79.35,79.28,79.15,79.06,79.04,79.07,79.09,79.11,79.12,79.14,79.15,79.16,79.14,79.10,79.07,79.09,79.14,79.13,79.09,79.03,78.97,78.92,78.90,78.90,78.96,79.01,79.04,79.05,79.05,79.08,79.12,79.15,79.14,79.09,79.06,79.07,79.09,79.09,79.09,79.07,79.04,78.99,78.95,78.86,78.79,78.78,78.85,78.85,78.84,78.84,78.84,78.84,78.84,78.83,78.80,78.76,78.70,78.61,78.50,78.41,78.34,78.34,78.41,78.54,78.63,78.68,78.69,78.65,78.50,78.47,78.45,78.45,78.47,78.43,78.39,78.37,78.38,78.40,78.38,78.38,78.42,78.47,78.42,78.41,78.41,78.43,78.44,78.39,78.38,78.42,78.36,78.26,78.21,78.21,78.22,78.30,78.33,78.33,78.27,77.94,77.87,77.87,77.87,77.87,77.87,77.86,77.85,77.87,77.85,77.88,77.85,77.74,77.72,77.69,77.61,77.53,77.49,77.44,77.39,77.34,77.29,77.23,77.19,77.18,77.20,77.21,77.23,77.24,77.25,77.26,77.25,77.24,77.22,77.19,77.15,77.11,77.09,77.07,77.03,77.02,77.01,77.00,76.99,76.99,76.92,76.86,76.82,76.79,76.83,76.82,76.77,76.73,76.66,76.62,76.60,76.60,76.56,76.49,76.45,76.44,76.44,76.42,76.36,76.30,76.26,76.23,76.21,76.19,76.17,76.20,76.23
79.67,79.81,79.89,79.88,79.86,79.77,79.67,79.62,79.79,79.78,79.81,79.86,79.80,79.72,79.59,79.58,79.77,79.81,79.86,79.87,79.83,79.75,79.71,79.79,79.87,79.81,79.68,79.66,79.65,79.63,79.73,79.78,79.80,79.82,79.86,79.89,79.90,79.90,79.89,79.85,79.82,79.81,79.84,79.87,79.81,79.71,79.63,79.58,79.62,79.68,79.73,79.78,79.75,79.74,79.75,79.77,79.78,79.80,79.80,79.80,79.81,79.80,79.79,79.80,79.81,79.80,79.80,79.80,79.78,79.73,79.69,79.69,79.70,79.70,79.67,79.63,79.60,79.59,79.60,79.56,79.52,79.50,79.51,79.52,79.45,79.37,79.27,79.12,79.03,79.03,79.06,79.07,79.06,79.05,79.06,79.09,79.12,79.12,79.11,79.10,79.10,79.12,79.11,79.07,79.05,78.97,78.92,78.89,78.87,78.92,78.92,78.91,78.90,78.89,78.95,79.06,79.12,79.07,79.01,79.00,79.03,79.08,79.06,79.08,79.06,79.00,78.96,78.94,78.86,78.78,78.75,78.81,78.83,78.83,78.81,78.83,78.82,78.81,78.80,78.80,78.76,78.66,78.52,78.39,78.30,78.30,78.30,78.36,78.53,78.63,78.68,78.68,78.62,78.50,78.49,78.46,78.41,78.43,78.36,78.34,78.33,78.34,78.39,78.38,78.35,78.35,78.42,78.36,78.33,78.37,78.47,78.44,78.33,78.33,78.44,78.28,78.13,78.06,78.04,78.00,78.14,78.16,78.14,78.12,77.88,77.87,77.87,77.82,77.82,77.82,77.79,77.77,77.82,77.76,77.75,77.69,77.56,77.56,77.56,77.50,77.43,77.40,77.29,77.24,77.23,77.22,77.20,77.21,77.27,77.33,77.28,77.27,77.25,77.22,77.21,77.20,77.17,77.15,77.15,77.04,77.01,77.01,77.01,77.00,77.00,76.99,76.96,76.91,76.89,76.84,76.80,76.77,76.73,76.77,76.74,76.67,76.61,76.59,76.54,76.52,76.53,76.54,76.45,76.40,76.40,76.40,76.38,76.35,76.33,76.32,76.22,76.20,76.20,76.20,76.23,76.28
79.65,79.76,79.84,79.82,79.79,79.70,79.61,79.55,79.69,79.77,79.83,79.85,79.80,79.70,79.57,79.55,79.72,79.77,79.80,79.82,79.81,79.72,79.69,79.77,79.86,79.83,79.73,79.66,79.61,79.58,79.70,79.78,79.82,79.84,79.84,79.85,79.85,79.84,79.81,79.77,79.77,79.80,79.85,79.87,79.81,79.70,79.59,79.53,79.59,79.65,79.71,79.74,79.72,79.69,79.68,79.69,79.71,79.73,79.75,79.76,79.75,79.74,79.74,79.73,79.74,79.74,79.77,79.79,79.78,79.73,79.68,79.66,79.66,79.66,79.65,79.64,79.62,79.61,79.60,79.54,79.47,79.44,79.48,79.47,79.39,79.29,79.21,79.13,79.04,79.01,79.03,79.06,79.06,79.03,79.01,79.03,79.06,79.03,78.99,78.96,78.96,78.99,79.03,79.04,79.01,78.91,78.88,78.87,78.84,78.86,78.84,78.78,78.73,78.72,78.79,78.91,78.98,78.97,78.91,78.90,78.92,78.93,78.90,78.90,78.90,78.87,78.80,78.80,78.75,78.70,78.67,78.67,78.66,78.69,78.75,78.80,78.71,78.66,78.66,78.68,78.64,78.52,78.39,78.28,78.20,78.26,78.29,78.34,78.46,78.47,78.48,78.47,78.44,78.39,78.35,78.32,78.28,78.25,78.22,78.20,78.20,78.20,78.22,78.19,78.16,78.15,78.18,78.15,78.11,78.10,78.14,78.12,78.08,78.07,78.12,78.05,77.99,77.96,77.94,77.88,77.93,77.94,77.93,77.92,77.83,77.79,77.76,77.75,77.75,77.70,77.67,77.66,77.68,77.66,77.65,77.61,77.52,77.52,77.47,77.43,77.39,77.34,77.30,77.28,77.27,77.26,77.22,77.25,77.29,77.32,77.31,77.34,77.32,77.28,77.28,77.27,77.23,77.20,77.18,77.09,77.04,77.03,77.06,77.12,77.09,77.08,77.08,77.09,77.05,77.01,76.99,76.99,76.93,76.93,76.91,76.91,76.97,76.95,76.94,76.94,76.94,76.91,76.82,76.81,76.87,76.88,76.55,76.40,76.37,76.36,76.29,76.29,76.33,76.44,76.62,76.74
79.63,79.71,79.80,79.78,79.72,79.64,79.56,79.50,79.63,79.75,79.82,79.83,79.77,79.68,79.54,79.51,79.66,79.72,79.76,79.79,79.79,79.69,79.65,79.72,79.82,79.84,79.75,79.66,79.58,79.53,79.66,79.76,79.81,79.81,79.78,79.78,79.78,79.77,79.72,79.70,79.73,79.78,79.83,79.85,79.78,79.66,79.54,79.48,79.55,79.62,79.67,79.69,79.67,79.64,79.62,79.64,79.65,79.69,79.71,79.70,79.68,79.66,79.65,79.65,79.65,79.65,79.68,79.72,79.75,79.71,79.65,79.62,79.61,79.61,79.61,79.62,79.61,79.60,79.59,79.51,79.41,79.37,79.42,79.41,79.32,79.22,79.15,79.13,79.04,78.98,78.96,78.99,79.02,78.98,78.94,78.93,78.95,78.90,78.85,78.81,78.80,78.84,78.91,78.94,78.90,78.81,78.80,78.79,78.76,78.77,78.72,78.63,78.55,78.54,78.63,78.73,78.79,78.79,78.74,78.73,78.74,78.73,78.68,78.68,78.70,78.68,78.59,78.61,78.59,78.56,78.54,78.51,78.48,78.51,78.59,78.66,78.54,78.48,78.48,78.51,78.47,78.38,78.28,78.20,78.16,78.23,78.28,78.32,78.38,78.34,78.32,78.31,78.30,78.30,78.25,78.22,78.18,78.14,78.13,78.13,78.14,78.13,78.13,78.09,78.06,78.05,78.05,78.05,78.01,77.97,77.98,77.97,77.95,77.95,77.95,77.93,77.96,77.96,77.92,77.86,77.86,77.85,77.83,77.83,77.83,77.78,77.73,77.72,77.73,77.69,77.65,77.61,77.59,77.57,77.56,77.53,77.47,77.45,77.39,77.36,77.35,77.30,77.31,77.30,77.30,77.29,77.26,77.32,77.35,77.35,77.38,77.43,77.42,77.40,77.40,77.39,77.35,77.31,77.29,77.20,77.12,77.11,77.15,77.25,77.20,77.19,77.22,77.27,77.25,77.23,77.22,77.21,77.15,77.12,77.09,77.12,77.24,77.25,77.28,77.31,77.30,77.25,77.15,77.14,77.20,77.15,76.66,76.44,76.40,76.38,76.36,76.40,76.52,76.72,76.99,77.11
