74.40,74.47,74.47,74.46,74.47,74.38,74.32,74.27,74.25,74.28,74.35,74.36,74.30,74.18,74.18,74.23,74.30,74.36,74.38,74.34,74.24,74.13,74.09,74.03,73.97,73.91,73.84,73.86,73.84,73.81,73.78,73.72,73.70,73.67,73.60,73.53,73.55,73.46,73.33,73.23,73.26,73.32,73.37,73.42,73.47,73.44,73.38,73.32,73.28,73.22,73.19,73.16,73.11,73.10,73.08,73.04,72.97,72.91,72.84,72.81,72.80,72.78,72.69,72.70,72.71,72.70,72.68,72.68,72.73,72.77,72.76,72.64,72.71,72.81,72.84,72.79,72.82,72.82,72.75,72.62,72.62,72.65,72.68,72.69,72.69,72.74,72.75,72.71,72.76,72.74,72.55,72.32,72.23,72.34,72.44,72.50,72.50,72.53,72.54,72.55,72.53,72.44,72.43,72.41,72.39,72.39,72.39,72.39,72.38,72.35,72.28,72.26,72.40,72.55,72.48,72.52,72.53,72.53,72.52,72.48,72.51,72.54,72.55,72.52,72.45,72.41,72.40,72.40,72.38,72.29,72.16,72.03,71.93,71.94,72.00,72.06,72.10,71.90,71.63,71.46,71.48,71.56,71.80,72.30,73.20,74.77,76.30,76.80,76.54,75.83,74.26,72.98,72.17,71.86,71.98,72.25,72.37,72.41,72.52,72.77,73.15,73.54,73.85,73.93,73.96,74.00,74.05,74.12,74.22,74.37,74.60,74.90,75.06,75.03,74.93,74.83,74.80,74.74,74.62,74.49,74.39,74.33,74.28,74.27,74.35,74.56,74.77,74.95,75.14,75.43,75.80,76.14,76.40,76.59,76.71,76.85,76.98,77.12,77.27,77.44,77.61,77.76,77.88,78.00,78.15,78.30,78.41,78.45,78.49,78.55,78.61,78.66,78.69,78.66,78.61,78.56,78.50,78.39,78.06,77.40,76.28,75.66,75.50,75.90,77.01,77.95,78.41,78.58,78.61,78.60,78.59,78.57,78.55,78.50,78.50,78.40,78.16,77.79,77.87,78.02,78.14,78.17,78.23,78.27,78.32,78.39,78.44,78.45,78.41,78.34,78.27,78.30,78.37,78.39,78.35,78.34
74.31,74.40,74.42,74.41,74.39,74.32,74.29,74.27,74.24,74.27,74.31,74.29,74.22,74.13,74.16,74.22,74.29,74.34,74.36,74.34,74.27,74.18,74.13,74.08,74.04,73.98,73.92,73.93,73.90,73.86,73.81,73.74,73.70,73.66,73.59,73.52,73.49,73.40,73.30,73.22,73.27,73.33,73.38,73.40,73.45,73.46,73.43,73.39,73.34,73.24,73.21,73.16,73.10,73.10,73.07,73.03,72.99,72.93,72.89,72.87,72.84,72.80,72.73,72.68,72.67,72.69,72.69,72.67,72.68,72.69,72.66,72.62,72.69,72.78,72.80,72.75,72.78,72.78,72.74,72.63,72.61,72.62,72.63,72.61,72.61,72.66,72.67,72.64,72.69,72.65,72.46,72.26,72.23,72.32,72.42,72.48,72.49,72.48,72.49,72.50,72.51,72.50,72.46,72.39,72.34,72.34,72.34,72.33,72.32,72.29,72.24,72.28,72.44,72.58,72.53,72.54,72.56,72.56,72.55,72.50,72.51,72.55,72.58,72.52,72.45,72.41,72.40,72.39,72.35,72.23,72.08,71.94,71.90,71.96,72.03,72.08,72.07,71.82,71.60,71.47,71.49,71.58,71.75,72.24,73.27,75.16,76.43,76.73,76.28,75.33,73.68,72.28,71.36,70.99,71.10,71.30,71.45,71.61,71.86,72.21,72.66,73.08,73.36,73.40,73.44,73.47,73.49,73.48,73.51,73.63,73.83,74.12,74.36,74.45,74.41,74.31,74.30,74.37,74.36,74.31,74.24,74.22,74.20,74.19,74.21,74.24,74.26,74.27,74.32,74.54,74.94,75.39,75.83,76.19,76.36,76.56,76.75,76.93,77.08,77.23,77.40,77.56,77.72,77.87,78.07,78.25,78.35,78.40,78.47,78.55,78.61,78.66,78.67,78.64,78.58,78.54,78.47,78.38,78.13,77.59,76.59,75.85,75.49,75.71,76.76,77.79,78.28,78.46,78.49,78.51,78.52,78.54,78.55,78.48,78.39,78.15,77.84,77.63,77.88,78.07,78.19,78.23,78.30,78.33,78.38,78.43,78.48,78.49,78.45,78.38,78.31,78.30,78.33,78.34,78.32,78.31
74.24,74.31,74.35,74.34,74.29,74.24,74.25,74.26,74.26,74.28,74.28,74.22,74.15,74.10,74.16,74.23,74.28,74.30,74.32,74.32,74.28,74.22,74.16,74.12,74.09,74.06,74.02,73.99,73.96,73.92,73.85,73.77,73.70,73.64,73.58,73.52,73.41,73.34,73.28,73.22,73.27,73.32,73.36,73.39,73.43,73.47,73.47,73.45,73.39,73.29,73.24,73.17,73.09,73.09,73.03,73.00,72.99,72.96,72.95,72.93,72.88,72.82,72.80,72.69,72.65,72.70,72.71,72.67,72.63,72.59,72.56,72.59,72.67,72.73,72.72,72.69,72.72,72.75,72.73,72.65,72.61,72.60,72.59,72.55,72.54,72.57,72.56,72.54,72.57,72.50,72.34,72.21,72.26,72.30,72.39,72.46,72.48,72.42,72.44,72.45,72.46,72.53,72.48,72.38,72.31,72.31,72.29,72.29,72.26,72.23,72.21,72.32,72.48,72.59,72.59,72.56,72.58,72.60,72.59,72.54,72.51,72.54,72.59,72.51,72.45,72.41,72.39,72.38,72.31,72.16,71.99,71.86,71.87,71.97,72.05,72.07,72.00,71.71,71.55,71.51,71.53,71.60,71.73,72.27,73.45,75.61,76.55,76.63,76.01,74.80,73.21,71.84,70.90,70.45,70.47,70.57,70.71,70.92,71.28,71.73,72.24,72.67,72.92,72.94,72.97,72.98,72.95,72.86,72.82,72.88,73.03,73.29,73.59,73.83,73.89,73.80,73.80,73.96,74.06,74.07,74.05,74.09,74.11,74.10,74.02,73.86,73.69,73.53,73.44,73.58,73.97,74.50,75.10,75.66,75.96,76.23,76.47,76.68,76.85,77.01,77.16,77.33,77.52,77.71,77.94,78.14,78.25,78.30,78.42,78.52,78.59,78.64,78.64,78.59,78.53,78.48,78.40,78.33,78.16,77.77,76.94,76.07,75.52,75.56,76.47,77.56,78.11,78.32,78.37,78.39,78.43,78.48,78.52,78.45,78.23,77.86,77.54,77.54,77.93,78.13,78.24,78.29,78.37,78.40,78.44,78.48,78.50,78.50,78.46,78.40,78.33,78.31,78.30,78.30,78.30,78.29
74.35,74.30,74.26,74.24,74.23,74.21,74.21,74.24,74.27,74.29,74.28,74.22,74.14,74.10,74.17,74.24,74.28,74.30,74.35,74.34,74.29,74.22,74.19,74.14,74.08,74.03,74.00,73.98,73.99,73.99,73.95,73.81,73.67,73.59,73.54,73.48,73.38,73.32,73.28,73.22,73.24,73.28,73.32,73.36,73.42,73.44,73.44,73.42,73.42,73.40,73.37,73.27,73.13,73.07,73.00,72.98,72.99,72.99,72.98,72.97,72.93,72.89,72.78,72.67,72.66,72.75,72.81,72.76,72.64,72.54,72.52,72.54,72.60,72.61,72.57,72.60,72.68,72.75,72.75,72.64,72.57,72.58,72.59,72.56,72.48,72.47,72.44,72.39,72.42,72.37,72.28,72.22,72.29,72.35,72.39,72.44,72.49,72.46,72.47,72.45,72.44,72.50,72.42,72.37,72.36,72.34,72.26,72.24,72.20,72.17,72.23,72.42,72.52,72.56,72.59,72.54,72.57,72.63,72.67,72.66,72.52,72.48,72.51,72.44,72.42,72.40,72.37,72.33,72.28,72.10,71.94,71.84,71.89,71.97,72.01,71.97,71.85,71.64,71.54,71.50,71.51,71.57,71.87,72.81,74.36,76.33,76.70,76.53,75.76,74.36,72.90,71.86,71.13,70.68,70.54,70.55,70.49,70.49,70.79,71.53,72.19,72.63,72.76,72.74,72.68,72.61,72.51,72.32,72.23,72.20,72.29,72.54,72.94,73.30,73.50,73.56,73.59,73.66,73.73,73.78,73.83,73.89,73.92,73.85,73.66,73.40,73.25,73.09,72.94,72.95,73.14,73.33,73.75,74.60,75.51,75.91,76.11,76.29,76.44,76.63,76.80,76.96,77.15,77.37,77.65,77.90,78.07,78.15,78.27,78.36,78.43,78.54,78.59,78.55,78.45,78.33,78.23,78.20,78.14,77.93,77.21,76.25,75.58,75.39,75.81,77.02,77.85,78.27,78.32,78.32,78.29,78.30,78.32,78.27,77.90,77.56,77.44,77.71,78.08,78.24,78.31,78.36,78.40,78.44,78.47,78.49,78.50,78.50,78.46,78.40,78.34,78.31,78.31,78.31,78.30,78.25
74.45,74.32,74.24,74.22,74.22,74.20,74.18,74.18,74.21,74.25,74.26,74.21,74.14,74.10,74.19,74.26,74.31,74.33,74.37,74.35,74.30,74.24,74.23,74.16,74.08,74.02,74.00,74.00,74.04,74.07,74.02,73.83,73.66,73.57,73.52,73.45,73.36,73.30,73.27,73.24,73.25,73.28,73.30,73.33,73.38,73.41,73.41,73.41,73.42,73.48,73.48,73.38,73.20,73.06,72.97,72.95,72.96,72.97,72.99,72.99,72.97,72.94,72.75,72.68,72.72,72.81,72.87,72.83,72.69,72.55,72.56,72.53,72.54,72.52,72.44,72.47,72.55,72.63,72.68,72.62,72.54,72.55,72.55,72.51,72.43,72.42,72.38,72.32,72.30,72.27,72.25,72.25,72.30,72.34,72.38,72.43,72.49,72.46,72.45,72.42,72.39,72.46,72.39,72.37,72.36,72.30,72.23,72.21,72.19,72.20,72.35,72.49,72.55,72.57,72.60,72.58,72.63,72.69,72.73,72.74,72.59,72.51,72.49,72.44,72.41,72.39,72.37,72.32,72.23,72.03,71.88,71.84,71.93,71.98,71.97,71.88,71.69,71.54,71.45,71.43,71.46,71.51,72.01,73.32,75.14,76.68,76.72,76.31,75.33,73.72,72.48,71.76,71.29,70.98,70.84,70.78,70.59,70.41,70.47,71.05,71.66,72.13,72.34,72.29,72.24,72.20,72.14,71.97,71.85,71.81,71.88,72.12,72.47,72.84,73.14,73.32,73.40,73.42,73.46,73.51,73.60,73.67,73.69,73.61,73.39,73.11,72.94,72.76,72.58,72.53,72.62,72.67,72.97,73.80,74.85,75.22,75.30,75.33,75.51,75.90,76.25,76.53,76.78,77.00,77.31,77.64,77.92,78.07,78.18,78.26,78.33,78.44,78.51,78.47,78.35,78.21,78.13,78.11,78.10,77.98,77.45,76.58,75.84,75.40,75.42,76.58,77.56,78.16,78.27,78.22,78.14,78.06,77.99,77.86,77.50,77.38,77.55,77.98,78.23,78.33,78.38,78.43,78.45,78.47,78.49,78.50,78.50,78.50,78.46,78.41,78.36,78.33,78.34,78.34,78.31,78.24
74.54,74.37,74.27,74.25,74.26,74.20,74.14,74.11,74.11,74.17,74.22,74.19,74.13,74.10,74.21,74.30,74.35,74.37,74.39,74.35,74.31,74.28,74.28,74.19,74.09,74.02,74.00,74.05,74.11,74.14,74.08,73.83,73.67,73.57,73.50,73.42,73.34,73.28,73.25,73.27,73.28,73.29,73.30,73.30,73.31,73.37,73.40,73.40,73.41,73.52,73.56,73.49,73.29,73.07,72.95,72.91,72.91,72.91,72.97,73.00,73.00,72.97,72.70,72.72,72.80,72.88,72.90,72.89,72.75,72.63,72.67,72.54,72.51,72.44,72.32,72.32,72.33,72.42,72.53,72.60,72.53,72.51,72.48,72.41,72.40,72.40,72.36,72.28,72.21,72.20,72.25,72.30,72.30,72.30,72.36,72.43,72.49,72.41,72.40,72.36,72.33,72.40,72.40,72.39,72.33,72.20,72.20,72.20,72.21,72.29,72.56,72.53,72.55,72.60,72.61,72.69,72.75,72.79,72.79,72.79,72.71,72.60,72.50,72.48,72.42,72.40,72.39,72.35,72.18,71.95,71.83,71.85,71.98,71.99,71.94,71.80,71.54,71.40,71.31,71.30,71.39,71.43,72.16,73.81,75.80,76.74,76.63,76.00,74.75,72.94,71.98,71.57,71.40,71.32,71.32,71.20,70.93,70.60,70.29,70.35,70.77,71.29,71.70,71.65,71.68,71.76,71.84,71.78,71.64,71.64,71.75,71.95,72.15,72.45,72.79,73.10,73.24,73.24,73.23,73.27,73.37,73.41,73.44,73.38,73.21,72.95,72.74,72.52,72.32,72.28,72.34,72.39,72.62,73.22,74.03,74.26,74.15,73.94,74.18,74.89,75.54,76.04,76.41,76.60,76.94,77.37,77.80,78.03,78.14,78.20,78.25,78.35,78.41,78.36,78.24,78.11,78.07,78.05,78.02,77.93,77.67,77.03,76.25,75.56,75.26,76.22,77.26,78.00,78.22,78.11,77.96,77.78,77.56,77.26,77.03,77.28,77.82,78.31,78.40,78.42,78.45,78.48,78.50,78.50,78.50,78.50,78.50,78.50,78.46,78.42,78.40,78.37,78.38,78.38,78.34,78.25
74.45,74.34,74.29,74.27,74.25,74.20,74.22,74.20,74.14,74.10,74.10,74.11,74.13,74.12,74.18,74.25,74.31,74.33,74.33,74.32,74.30,74.28,74.25,74.14,74.05,74.02,74.05,74.15,74.19,74.19,74.12,73.85,73.68,73.59,73.54,73.44,73.38,73.30,73.26,73.28,73.29,73.30,73.30,73.31,73.35,73.38,73.40,73.42,73.45,73.55,73.58,73.56,73.45,73.16,72.95,72.86,72.86,72.90,72.88,72.88,72.88,72.86,72.72,72.74,72.82,72.89,72.90,72.85,72.76,72.69,72.74,72.66,72.60,72.54,72.48,72.44,72.37,72.36,72.40,72.41,72.41,72.42,72.41,72.39,72.35,72.34,72.32,72.28,72.24,72.17,72.18,72.25,72.30,72.25,72.32,72.39,72.42,72.39,72.35,72.30,72.28,72.37,72.40,72.40,72.31,72.13,72.26,72.24,72.23,72.32,72.52,72.55,72.58,72.60,72.61,72.67,72.71,72.74,72.74,72.77,72.71,72.63,72.55,72.51,72.44,72.40,72.37,72.32,72.24,72.08,71.92,71.82,71.88,71.88,71.79,71.64,71.45,71.39,71.35,71.35,71.42,71.58,72.40,74.29,76.38,76.75,76.42,75.33,73.81,72.25,71.68,71.45,71.36,71.31,71.27,71.21,71.03,70.75,70.44,70.50,70.54,70.62,70.76,70.84,70.97,71.14,71.32,71.44,71.48,71.53,71.62,71.77,71.95,72.14,72.38,72.64,72.85,72.88,72.92,73.00,73.13,73.20,73.22,73.16,73.01,72.78,72.56,72.35,72.18,72.16,72.18,72.21,72.35,72.70,73.21,73.33,73.18,72.90,72.90,73.33,73.92,74.57,75.24,75.78,76.31,76.88,77.47,77.85,78.00,78.07,78.12,78.22,78.29,78.27,78.20,78.11,78.03,77.95,77.91,77.89,77.72,77.18,76.37,75.59,75.21,75.80,76.78,77.65,78.07,77.98,77.72,77.33,76.93,76.74,76.77,77.07,77.47,77.77,77.81,77.83,77.87,77.96,78.09,78.26,78.39,78.48,78.50,78.50,78.48,78.46,78.44,78.43,78.43,78.42,78.37,78.26
74.41,74.33,74.30,74.29,74.25,74.22,74.26,74.27,74.19,74.08,74.03,74.06,74.11,74.09,74.12,74.20,74.26,74.29,74.27,74.28,74.28,74.27,74.22,74.09,74.01,74.01,74.09,74.22,74.24,74.22,74.12,73.83,73.66,73.59,73.55,73.44,73.41,73.33,73.27,73.27,73.30,73.32,73.33,73.35,73.39,73.41,73.43,73.45,73.49,73.56,73.58,73.58,73.52,73.19,72.94,72.84,72.84,72.89,72.84,72.81,72.80,72.79,72.73,72.77,72.83,72.89,72.89,72.82,72.76,72.74,72.77,72.74,72.67,72.61,72.59,72.55,72.43,72.37,72.35,72.28,72.32,72.33,72.33,72.34,72.30,72.29,72.28,72.25,72.22,72.14,72.14,72.20,72.29,72.23,72.28,72.34,72.36,72.35,72.32,72.28,72.28,72.38,72.43,72.43,72.34,72.15,72.32,72.27,72.27,72.36,72.50,72.55,72.57,72.59,72.60,72.64,72.67,72.69,72.71,72.73,72.70,72.64,72.58,72.53,72.46,72.41,72.36,72.30,72.30,72.20,72.05,71.88,71.83,71.79,71.67,71.52,71.40,71.39,71.37,71.38,71.46,71.74,72.75,74.71,76.70,76.70,76.15,74.66,72.92,71.66,71.40,71.33,71.32,71.28,71.21,71.20,71.07,70.83,70.53,70.60,70.45,70.27,70.20,70.26,70.39,70.59,70.82,71.07,71.27,71.40,71.49,71.60,71.75,71.87,72.03,72.24,72.47,72.55,72.62,72.73,72.90,73.02,73.05,72.99,72.84,72.63,72.42,72.22,72.07,72.03,72.02,72.04,72.11,72.26,72.52,72.55,72.40,72.13,72.03,72.21,72.61,73.18,73.88,74.62,75.36,76.14,76.94,77.43,77.68,77.85,77.98,78.09,78.18,78.20,78.15,78.07,77.96,77.80,77.73,77.74,77.63,77.19,76.44,75.65,75.19,75.44,76.34,77.32,77.93,77.90,77.48,76.92,76.43,76.40,76.65,76.95,77.21,77.34,77.37,77.37,77.41,77.51,77.65,77.86,78.04,78.15,78.18,78.17,78.20,78.26,78.36,78.44,78.47,78.46,78.39,78.26
74.43,74.34,74.30,74.29,74.28,74.24,74.25,74.26,74.25,74.15,74.08,74.06,74.06,73.99,74.03,74.13,74.22,74.25,74.20,74.22,74.23,74.21,74.19,74.03,73.97,74.00,74.11,74.22,74.26,74.21,74.04,73.77,73.60,73.53,73.49,73.42,73.41,73.35,73.29,73.25,73.30,73.36,73.40,73.42,73.42,73.46,73.48,73.49,73.50,73.55,73.55,73.53,73.44,73.13,72.93,72.87,72.88,72.90,72.85,72.82,72.79,72.77,72.74,72.79,72.85,72.89,72.88,72.79,72.76,72.75,72.75,72.75,72.69,72.63,72.60,72.59,72.50,72.46,72.44,72.29,72.26,72.26,72.25,72.24,72.26,72.27,72.24,72.20,72.13,72.13,72.14,72.18,72.26,72.25,72.26,72.28,72.31,72.31,72.30,72.31,72.36,72.48,72.49,72.48,72.43,72.32,72.37,72.31,72.33,72.44,72.50,72.51,72.53,72.56,72.56,72.61,72.64,72.67,72.69,72.67,72.65,72.62,72.58,72.54,72.49,72.43,72.36,72.31,72.34,72.29,72.21,72.08,71.87,71.74,71.60,71.47,71.40,71.39,71.38,71.40,71.51,71.93,73.26,75.06,76.60,76.55,75.80,73.99,72.14,71.21,71.13,71.20,71.25,71.23,71.20,71.16,71.02,70.79,70.48,70.59,70.56,70.44,70.26,70.08,70.05,70.16,70.37,70.69,71.00,71.23,71.37,71.43,71.54,71.65,71.78,71.94,72.11,72.25,72.37,72.49,72.68,72.88,72.95,72.90,72.75,72.54,72.34,72.15,71.99,71.90,71.88,71.89,71.91,71.94,72.03,72.01,71.92,71.81,71.84,71.85,71.87,71.97,72.26,72.90,73.88,75.00,76.06,76.60,77.08,77.49,77.82,77.99,78.10,78.13,78.09,77.98,77.81,77.57,77.43,77.40,77.30,77.00,76.44,75.78,75.25,75.18,75.97,77.03,77.83,77.88,77.27,76.58,76.14,76.34,76.75,77.01,77.12,77.14,77.18,77.18,77.17,77.18,77.18,77.25,77.29,77.30,77.33,77.30,77.43,77.69,78.05,78.34,78.46,78.47,78.40,78.26
74.49,74.40,74.34,74.30,74.29,74.25,74.23,74.23,74.23,74.16,74.10,74.08,74.07,74.01,74.01,74.06,74.11,74.11,74.08,74.11,74.13,74.12,74.09,73.97,73.92,73.95,74.05,74.14,74.18,74.11,73.91,73.73,73.61,73.53,73.49,73.42,73.40,73.37,73.33,73.30,73.36,73.43,73.47,73.47,73.46,73.49,73.51,73.51,73.48,73.47,73.42,73.36,73.26,73.05,72.94,72.90,72.90,72.90,72.88,72.82,72.78,72.77,72.76,72.81,72.84,72.86,72.81,72.76,72.74,72.73,72.74,72.71,72.65,72.60,72.57,72.57,72.48,72.46,72.47,72.38,72.32,72.30,72.29,72.26,72.24,72.21,72.20,72.18,72.11,72.15,72.17,72.19,72.23,72.27,72.27,72.28,72.30,72.27,72.29,72.33,72.40,72.50,72.53,72.51,72.46,72.37,72.32,72.30,72.36,72.47,72.50,72.50,72.49,72.50,72.53,72.56,72.60,72.64,72.65,72.63,72.62,72.59,72.54,72.48,72.46,72.41,72.35,72.29,72.36,72.37,72.31,72.17,71.95,71.81,71.66,71.51,71.41,71.43,71.44,71.48,71.64,72.26,74.15,75.73,76.50,76.30,75.12,73.30,71.70,71.03,70.97,71.05,71.11,71.12,71.11,71.07,70.92,70.69,70.41,70.51,70.53,70.49,70.38,70.26,70.17,70.08,70.07,70.34,70.76,71.10,71.30,71.35,71.40,71.48,71.59,71.75,71.90,72.04,72.18,72.33,72.50,72.64,72.74,72.77,72.71,72.57,72.40,72.22,72.06,71.94,71.89,71.86,71.85,71.84,71.79,71.75,71.71,71.67,71.63,71.61,71.60,71.64,71.76,72.09,72.66,73.33,74.04,74.94,75.95,76.77,77.34,77.74,77.94,78.00,77.92,77.74,77.47,77.19,77.04,77.04,77.04,76.87,76.52,76.00,75.38,75.12,75.65,76.59,77.52,77.63,76.93,76.28,75.98,76.20,76.58,76.87,77.03,77.06,77.10,77.07,77.04,77.03,77.00,77.01,77.02,77.03,77.06,77.03,77.11,77.29,77.54,77.73,77.80,77.81,77.79,77.81
74.56,74.49,74.40,74.34,74.31,74.26,74.22,74.21,74.19,74.15,74.11,74.10,74.10,74.07,74.03,74.02,74.00,73.97,73.96,73.99,74.02,74.02,73.97,73.90,73.88,73.91,73.98,74.05,74.08,73.99,73.80,73.73,73.65,73.57,73.50,73.42,73.41,73.39,73.37,73.37,73.43,73.50,73.53,73.52,73.51,73.50,73.52,73.52,73.45,73.34,73.26,73.17,73.07,72.98,72.96,72.93,72.91,72.89,72.89,72.82,72.76,72.77,72.79,72.82,72.83,72.81,72.74,72.73,72.72,72.70,72.72,72.66,72.60,72.55,72.53,72.53,72.45,72.45,72.48,72.47,72.40,72.37,72.35,72.30,72.22,72.16,72.16,72.17,72.11,72.16,72.19,72.19,72.20,72.28,72.30,72.30,72.29,72.23,72.27,72.34,72.42,72.49,72.54,72.52,72.46,72.38,72.26,72.29,72.38,72.47,72.49,72.49,72.46,72.44,72.49,72.52,72.57,72.60,72.60,72.59,72.58,72.55,72.49,72.43,72.42,72.39,72.34,72.27,72.38,72.42,72.37,72.22,72.01,71.89,71.74,71.58,71.44,71.48,71.51,71.58,71.81,72.68,75.02,76.34,76.40,76.03,74.40,72.66,71.36,70.92,70.85,70.88,70.93,70.96,70.95,70.91,70.78,70.58,70.35,70.42,70.48,70.50,70.49,70.49,70.38,70.14,69.94,70.12,70.59,70.98,71.21,71.25,71.27,71.32,71.41,71.54,71.66,71.80,71.97,72.16,72.33,72.38,72.51,72.62,72.66,72.60,72.48,72.32,72.15,72.01,71.94,71.89,71.85,71.81,71.66,71.60,71.60,71.59,71.47,71.45,71.49,71.55,71.58,71.63,71.71,71.83,72.09,73.26,74.69,75.84,76.63,77.26,77.59,77.71,77.64,77.40,77.06,76.77,76.63,76.67,76.78,76.72,76.52,76.13,75.47,75.10,75.35,76.10,77.09,77.20,76.50,75.96,75.83,76.00,76.29,76.60,76.84,76.92,76.94,76.90,76.85,76.83,76.80,76.79,76.81,76.84,76.87,76.89,76.94,77.00,77.08,77.12,77.13,77.13,77.17,77.32
74.60,74.57,74.52,74.47,74.41,74.32,74.27,74.23,74.20,74.15,74.11,74.11,74.14,74.18,74.12,74.06,74.02,73.98,73.94,73.92,73.92,73.90,73.87,73.87,73.88,73.93,74.01,74.03,74.01,73.94,73.85,73.81,73.75,73.66,73.56,73.44,73.44,73.44,73.44,73.45,73.51,73.55,73.57,73.56,73.56,73.53,73.52,73.49,73.38,73.13,73.07,73.04,72.98,72.97,72.95,72.92,72.89,72.85,72.84,72.81,72.78,72.79,72.80,72.81,72.79,72.74,72.67,72.69,72.70,72.67,72.60,72.60,72.53,72.48,72.50,72.46,72.46,72.45,72.45,72.49,72.42,72.39,72.39,72.36,72.23,72.15,72.12,72.13,72.10,72.12,72.13,72.15,72.20,72.28,72.30,72.30,72.29,72.22,72.22,72.31,72.41,72.43,72.50,72.47,72.37,72.26,72.28,72.34,72.39,72.42,72.43,72.47,72.45,72.41,72.43,72.50,72.56,72.57,72.53,72.53,72.52,72.51,72.50,72.47,72.42,72.39,72.36,72.31,72.39,72.39,72.31,72.16,72.00,71.91,71.80,71.68,71.55,71.52,71.52,71.64,72.02,73.29,75.30,76.34,76.28,75.78,73.88,72.19,71.10,70.80,70.73,70.69,70.67,70.66,70.60,70.54,70.52,70.49,70.37,70.38,70.44,70.49,70.49,70.50,70.45,70.37,70.32,70.44,70.69,70.89,70.98,70.96,71.04,71.12,71.17,71.17,71.13,71.31,71.58,71.89,72.14,72.21,72.29,72.39,72.48,72.50,72.45,72.35,72.20,72.03,71.96,71.94,71.93,71.87,71.70,71.62,71.59,71.57,71.47,71.45,71.45,71.46,71.49,71.57,71.64,71.71,71.84,72.50,73.50,74.48,75.32,75.92,76.45,76.86,77.01,76.81,76.53,76.34,76.25,76.28,76.41,76.35,76.11,75.73,75.24,75.03,75.09,75.56,76.37,76.35,75.87,75.56,75.54,75.64,75.84,76.09,76.30,76.36,76.34,76.30,76.25,76.22,76.21,76.23,76.25,76.28,76.38,76.61,76.81,76.97,77.08,77.13,77.17,77.20,77.22,77.26
74.66,74.65,74.61,74.56,74.50,74.42,74.34,74.27,74.22,74.16,74.14,74.16,74.20,74.26,74.20,74.16,74.12,74.09,74.03,73.96,73.89,73.84,73.81,73.85,73.90,73.94,73.99,73.98,73.97,73.93,73.89,73.87,73.82,73.72,73.59,73.44,73.46,73.47,73.49,73.51,73.56,73.60,73.62,73.62,73.60,73.56,73.54,73.47,73.31,73.03,72.96,72.95,72.93,72.94,72.93,72.91,72.90,72.89,72.84,72.81,72.81,72.83,72.81,72.78,72.73,72.67,72.59,72.63,72.64,72.61,72.56,72.56,72.48,72.44,72.45,72.42,72.44,72.44,72.45,72.50,72.45,72.42,72.40,72.39,72.24,72.14,72.11,72.13,72.21,72.20,72.14,72.10,72.15,72.21,72.24,72.26,72.25,72.20,72.22,72.29,72.37,72.40,72.44,72.40,72.30,72.22,72.31,72.37,72.39,72.39,72.41,72.44,72.43,72.40,72.40,72.48,72.53,72.53,72.50,72.50,72.48,72.49,72.50,72.49,72.42,72.40,72.38,72.35,72.39,72.38,72.27,72.11,71.99,71.95,71.87,71.76,71.68,71.64,71.66,71.88,72.48,73.92,75.52,76.24,76.02,75.26,73.33,71.81,70.92,70.69,70.65,70.56,70.51,70.50,70.42,70.39,70.42,70.44,70.40,70.37,70.41,70.47,70.48,70.50,70.50,70.48,70.49,70.56,70.69,70.72,70.66,70.53,70.69,70.86,70.93,70.86,70.63,70.79,71.13,71.54,71.86,72.01,72.11,72.21,72.31,72.37,72.36,72.31,72.21,72.04,71.95,71.93,71.91,71.84,71.73,71.65,71.60,71.58,71.51,71.49,71.46,71.43,71.41,71.47,71.53,71.59,71.68,71.98,72.56,73.25,73.97,74.60,75.32,75.89,76.16,76.00,75.75,75.58,75.51,75.52,75.53,75.46,75.29,75.06,74.79,74.81,74.90,75.20,75.71,75.67,75.43,75.32,75.38,75.42,75.51,75.63,75.74,75.79,75.77,75.74,75.72,75.72,75.75,75.79,75.81,75.89,76.10,76.51,76.79,76.96,77.04,77.09,77.15,77.20,77.22,77.23
74.74,74.73,74.67,74.62,74.59,74.53,74.43,74.32,74.23,74.19,74.19,74.22,74.26,74.30,74.29,74.28,74.28,74.26,74.21,74.06,73.92,73.82,73.80,73.85,73.92,73.96,73.94,73.92,73.95,73.96,73.93,73.90,73.85,73.75,73.61,73.45,73.47,73.49,73.52,73.57,73.60,73.65,73.69,73.69,73.62,73.61,73.56,73.45,73.25,73.02,72.93,72.90,72.90,72.90,72.90,72.90,72.92,72.98,72.87,72.81,72.83,72.88,72.83,72.75,72.66,72.59,72.53,72.56,72.55,72.53,72.59,72.52,72.45,72.41,72.40,72.40,72.39,72.42,72.47,72.49,72.49,72.44,72.40,72.39,72.25,72.15,72.11,72.17,72.39,72.35,72.19,72.05,72.06,72.09,72.15,72.18,72.18,72.19,72.25,72.28,72.31,72.38,72.38,72.32,72.25,72.22,72.35,72.38,72.38,72.38,72.40,72.40,72.40,72.40,72.39,72.46,72.48,72.49,72.50,72.49,72.45,72.46,72.50,72.49,72.42,72.40,72.40,72.40,72.40,72.37,72.25,72.07,72.00,72.00,71.93,71.83,71.83,71.82,71.88,72.25,73.10,74.56,75.68,76.07,75.67,74.57,72.76,71.50,70.80,70.57,70.59,70.47,70.41,70.43,70.38,70.40,70.42,70.44,70.43,70.37,70.38,70.43,70.46,70.50,70.52,70.52,70.52,70.55,70.61,70.50,70.26,69.99,70.27,70.54,70.68,70.60,70.16,70.25,70.64,71.14,71.51,71.79,71.96,72.08,72.16,72.22,72.24,72.23,72.18,72.04,71.94,71.88,71.82,71.75,71.75,71.69,71.63,71.60,71.58,71.56,71.50,71.43,71.35,71.35,71.39,71.47,71.57,71.61,71.79,72.12,72.60,73.28,74.19,74.84,75.14,75.06,74.78,74.59,74.51,74.50,74.32,74.22,74.19,74.20,74.18,74.50,74.75,74.94,75.09,75.12,75.13,75.20,75.29,75.30,75.26,75.22,75.19,75.19,75.21,75.21,75.24,75.30,75.39,75.43,75.47,75.60,75.97,76.53,76.84,76.97,76.99,77.02,77.09,77.15,77.18,77.21
74.74,74.69,74.64,74.60,74.59,74.54,74.44,74.32,74.23,74.20,74.20,74.23,74.27,74.30,74.30,74.32,74.34,74.35,74.30,74.15,74.00,73.90,73.84,73.80,73.80,73.81,73.83,73.86,73.87,73.87,73.87,73.84,73.81,73.69,73.54,73.48,73.50,73.54,73.57,73.61,73.64,73.70,73.73,73.73,73.68,73.63,73.57,73.46,73.30,73.13,73.01,72.94,72.92,72.92,72.91,72.89,72.89,72.91,72.84,72.84,72.88,72.89,72.87,72.71,72.56,72.50,72.52,72.50,72.49,72.51,72.55,72.48,72.46,72.43,72.39,72.42,72.38,72.36,72.38,72.45,72.41,72.38,72.38,72.37,72.27,72.16,72.17,72.30,72.45,72.46,72.36,72.26,72.30,72.24,72.21,72.19,72.15,72.14,72.18,72.22,72.25,72.30,72.30,72.23,72.17,72.21,72.31,72.35,72.35,72.34,72.37,72.37,72.39,72.39,72.37,72.42,72.43,72.46,72.50,72.50,72.48,72.49,72.50,72.49,72.42,72.40,72.40,72.40,72.39,72.33,72.22,72.06,71.97,71.95,71.93,71.91,71.91,71.95,72.32,73.18,74.47,75.27,75.83,75.95,75.47,74.17,72.35,71.25,70.72,70.52,70.56,70.51,70.45,70.41,70.39,70.37,70.38,70.41,70.40,70.34,70.34,70.38,70.42,70.41,70.43,70.43,70.42,70.44,70.46,70.37,70.20,70.03,70.10,70.22,70.29,70.27,70.02,70.01,70.23,70.57,70.89,71.36,71.70,71.92,72.04,72.09,72.10,72.10,72.07,71.98,71.93,71.85,71.76,71.66,71.70,71.69,71.67,71.63,71.60,71.57,71.53,71.50,71.45,71.36,71.27,71.23,71.24,71.23,71.39,71.68,72.06,72.47,73.08,73.60,73.88,73.84,73.48,73.18,73.01,72.96,72.86,72.88,72.97,73.06,73.06,73.76,74.41,74.82,74.90,74.94,74.95,74.94,74.91,74.88,74.80,74.73,74.64,74.55,74.54,74.56,74.59,74.62,74.73,74.84,74.99,75.23,75.62,76.02,76.30,76.52,76.73,76.85,76.94,77.01,77.06,77.12
74.72,74.65,74.60,74.57,74.57,74.55,74.45,74.33,74.23,74.20,74.21,74.24,74.27,74.31,74.33,74.35,74.38,74.39,74.36,74.23,74.11,74.00,73.90,73.82,73.75,73.73,73.75,73.79,73.79,73.79,73.80,73.76,73.75,73.63,73.50,73.51,73.53,73.58,73.63,73.64,73.68,73.72,73.74,73.73,73.71,73.64,73.57,73.48,73.34,73.21,73.09,73.00,72.97,72.96,72.93,72.90,72.86,72.85,72.83,72.88,72.92,72.91,72.89,72.67,72.48,72.41,72.48,72.45,72.46,72.50,72.51,72.47,72.45,72.43,72.38,72.43,72.37,72.32,72.32,72.42,72.35,72.33,72.35,72.34,72.27,72.19,72.25,72.41,72.49,72.53,72.48,72.42,72.45,72.39,72.33,72.25,72.17,72.14,72.16,72.18,72.20,72.24,72.23,72.17,72.14,72.19,72.25,72.29,72.30,72.29,72.34,72.33,72.36,72.38,72.38,72.41,72.41,72.44,72.50,72.50,72.50,72.50,72.49,72.47,72.41,72.39,72.40,72.40,72.38,72.29,72.17,72.06,71.96,71.94,71.94,71.96,71.97,72.10,72.79,73.98,75.38,75.69,75.86,75.81,75.30,73.88,72.26,71.25,70.72,70.49,70.53,70.52,70.46,70.39,70.40,70.38,70.39,70.41,70.40,70.35,70.35,70.38,70.41,70.35,70.36,70.36,70.35,70.34,70.36,70.30,70.22,70.15,70.08,70.06,70.04,70.00,69.88,69.83,69.93,70.14,70.44,70.99,71.43,71.74,71.90,71.96,71.98,71.99,71.98,71.96,71.96,71.89,71.76,71.64,71.65,71.67,71.69,71.69,71.65,71.60,71.56,71.55,71.53,71.41,71.22,71.06,70.98,70.94,71.02,71.23,71.52,71.83,72.26,72.62,72.82,72.80,72.47,72.18,71.99,71.90,71.85,71.92,72.10,72.28,72.30,73.24,74.14,74.69,74.75,74.80,74.80,74.74,74.64,74.59,74.50,74.41,74.29,74.16,74.13,74.15,74.16,74.16,74.23,74.34,74.51,74.73,75.02,75.25,75.43,75.62,75.87,76.05,76.17,76.26,76.36,76.50
74.66,74.62,74.55,74.51,74.52,74.56,74.46,74.33,74.22,74.19,74.23,74.25,74.28,74.34,74.38,74.38,74.37,74.37,74.38,74.31,74.23,74.14,74.00,73.91,73.83,73.76,73.72,73.72,73.70,73.70,73.71,73.66,73.65,73.59,73.51,73.55,73.58,73.63,73.68,73.69,73.70,73.70,73.69,73.68,73.69,73.64,73.57,73.48,73.37,73.25,73.17,73.11,73.05,73.04,72.99,72.91,72.83,72.81,72.83,72.91,72.97,72.95,72.88,72.64,72.44,72.34,72.36,72.42,72.46,72.48,72.47,72.49,72.45,72.40,72.37,72.43,72.38,72.33,72.32,72.38,72.30,72.29,72.31,72.30,72.22,72.23,72.34,72.48,72.50,72.53,72.51,72.49,72.49,72.55,72.52,72.40,72.24,72.22,72.21,72.18,72.16,72.21,72.17,72.15,72.15,72.15,72.18,72.20,72.23,72.26,72.30,72.27,72.30,72.37,72.46,72.45,72.43,72.44,72.50,72.50,72.50,72.50,72.48,72.43,72.37,72.37,72.40,72.40,72.37,72.23,72.12,72.07,72.00,71.98,71.98,72.00,72.01,72.29,73.33,74.60,75.64,75.66,75.72,75.66,75.17,73.77,72.65,71.62,70.85,70.50,70.50,70.49,70.43,70.36,70.42,70.45,70.46,70.46,70.45,70.41,70.42,70.44,70.43,70.34,70.30,70.31,70.32,70.27,70.30,70.32,70.34,70.38,70.29,70.15,69.99,69.84,69.75,69.73,69.79,69.94,70.22,70.71,71.15,71.49,71.70,71.85,71.90,71.91,71.93,71.97,72.04,72.00,71.87,71.69,71.60,71.62,71.70,71.78,71.74,71.67,71.60,71.56,71.58,71.51,71.26,70.99,70.83,70.79,70.72,70.76,70.98,71.45,71.84,72.03,72.07,72.00,71.91,71.81,71.68,71.54,71.48,71.54,71.76,72.00,72.07,73.02,73.98,74.58,74.66,74.72,74.71,74.64,74.55,74.52,74.43,74.33,74.23,74.14,74.10,74.07,74.04,74.01,73.98,73.98,74.00,74.04,74.09,74.08,74.08,74.09,74.14,74.32,74.49,74.63,74.79,75.08
74.61,74.58,74.54,74.51,74.51,74.52,74.41,74.28,74.17,74.14,74.22,74.27,74.30,74.33,74.36,74.35,74.32,74.30,74.34,74.32,74.27,74.20,74.09,74.03,73.95,73.86,73.78,73.75,73.71,73.67,73.65,73.62,73.62,73.58,73.55,73.60,73.63,73.66,73.70,73.73,73.73,73.70,73.68,73.67,73.67,73.63,73.57,73.48,73.37,73.30,73.25,73.19,73.13,73.11,73.06,72.96,72.86,72.84,72.89,72.95,72.98,72.95,72.94,72.74,72.54,72.40,72.31,72.38,72.43,72.44,72.41,72.47,72.44,72.41,72.42,72.42,72.41,72.38,72.35,72.38,72.34,72.33,72.33,72.29,72.22,72.28,72.40,72.50,72.50,72.51,72.53,72.54,72.54,72.59,72.55,72.47,72.36,72.32,72.34,72.29,72.20,72.16,72.19,72.19,72.16,72.12,72.13,72.14,72.14,72.13,72.16,72.14,72.19,72.30,72.49,72.48,72.46,72.47,72.50,72.50,72.50,72.50,72.47,72.41,72.38,72.39,72.39,72.37,72.26,72.16,72.10,72.06,71.97,71.99,72.02,72.08,72.18,72.90,74.09,75.10,75.55,75.57,75.58,75.44,74.99,73.90,72.75,71.68,70.92,70.64,70.59,70.51,70.40,70.32,70.41,70.47,70.48,70.47,70.45,70.40,70.43,70.47,70.44,70.36,70.29,70.26,70.26,70.23,70.25,70.26,70.29,70.32,70.26,70.13,70.01,69.91,69.80,69.74,69.73,69.79,69.93,70.30,70.72,71.12,71.43,71.66,71.82,71.89,71.93,72.03,72.14,72.12,72.00,71.83,71.63,71.56,71.56,71.61,71.57,71.55,71.53,71.50,71.47,71.36,71.14,70.91,70.77,70.74,70.68,70.64,70.71,70.98,71.36,71.64,71.78,71.78,71.74,71.68,71.57,71.42,71.33,71.36,71.56,71.81,71.92,72.48,73.40,74.23,74.64,74.66,74.66,74.62,74.54,74.49,74.42,74.34,74.25,74.15,74.07,74.01,73.97,73.93,73.90,73.89,73.90,73.93,73.93,73.88,73.85,73.83,73.82,73.88,73.96,74.03,74.11,74.24
74.58,74.56,74.54,74.52,74.50,74.47,74.36,74.24,74.13,74.11,74.22,74.30,74.33,74.34,74.34,74.31,74.27,74.25,74.30,74.31,74.29,74.24,74.18,74.15,74.08,73.98,73.88,73.81,73.74,73.67,73.62,73.59,73.60,73.59,73.59,73.64,73.66,73.68,73.70,73.74,73.75,73.69,73.66,73.67,73.64,73.63,73.58,73.50,73.38,73.35,73.30,73.25,73.20,73.19,73.13,73.02,72.91,72.89,72.94,72.98,72.99,72.96,73.02,72.89,72.73,72.56,72.38,72.39,72.40,72.39,72.35,72.43,72.42,72.42,72.45,72.40,72.43,72.42,72.39,72.40,72.39,72.38,72.36,72.29,72.22,72.33,72.44,72.50,72.51,72.51,72.54,72.57,72.58,72.60,72.56,72.51,72.47,72.41,72.44,72.37,72.22,72.12,72.25,72.25,72.18,72.10,72.09,72.10,72.08,72.04,72.04,72.02,72.06,72.19,72.42,72.43,72.43,72.45,72.49,72.49,72.50,72.50,72.48,72.41,72.40,72.41,72.40,72.34,72.16,72.11,72.09,72.05,71.96,72.01,72.08,72.18,72.37,73.53,74.74,75.42,75.38,75.45,75.44,75.25,74.78,73.93,72.70,71.64,70.96,70.79,70.70,70.56,70.41,70.32,70.41,70.45,70.47,70.46,70.43,70.38,70.43,70.47,70.44,70.36,70.29,70.23,70.20,70.20,70.21,70.21,70.21,70.22,70.19,70.10,70.05,70.03,69.90,69.79,69.71,69.68,69.69,69.92,70.30,70.72,71.13,71.45,71.70,71.84,71.91,72.06,72.18,72.19,72.10,71.94,71.68,71.52,71.44,71.42,71.39,71.42,71.43,71.40,71.31,71.14,70.98,70.83,70.75,70.75,70.71,70.65,70.60,70.67,70.97,71.30,71.56,71.64,71.64,71.61,71.50,71.32,71.21,71.24,71.41,71.63,71.76,71.95,72.83,73.88,74.62,74.62,74.63,74.60,74.54,74.47,74.42,74.36,74.28,74.16,74.04,73.97,73.91,73.88,73.86,73.86,73.89,73.94,73.94,73.89,73.87,73.84,73.81,73.77,73.75,73.74,73.73,73.69
74.62,74.60,74.56,74.53,74.50,74.43,74.32,74.23,74.17,74.19,74.28,74.35,74.37,74.37,74.34,74.31,74.28,74.27,74.29,74.30,74.28,74.24,74.24,74.21,74.17,74.10,73.99,73.87,73.77,73.69,73.62,73.56,73.57,73.59,73.60,73.62,73.66,73.66,73.66,73.69,73.67,73.64,73.62,73.62,73.61,73.64,73.65,73.59,73.43,73.35,73.28,73.25,73.26,73.26,73.17,73.04,72.94,72.95,72.94,72.96,73.00,73.05,73.13,73.11,73.06,73.00,72.85,72.57,72.40,72.33,72.31,72.34,72.33,72.35,72.40,72.34,72.38,72.40,72.41,72.46,72.42,72.40,72.37,72.29,72.22,72.36,72.48,72.52,72.57,72.57,72.54,72.54,72.60,72.60,72.59,72.55,72.49,72.47,72.43,72.29,72.14,72.13,72.31,72.32,72.22,72.10,72.05,72.09,72.13,72.14,72.07,71.99,71.96,71.99,72.05,72.09,72.14,72.26,72.42,72.44,72.51,72.54,72.52,72.42,72.42,72.45,72.44,72.34,72.19,72.12,72.07,72.04,72.08,72.13,72.18,72.28,72.53,73.87,74.81,75.23,75.16,75.26,75.34,75.15,74.55,73.38,72.33,71.48,70.96,70.85,70.79,70.71,70.61,70.50,70.41,70.37,70.37,70.39,70.39,70.39,70.41,70.41,70.39,70.32,70.25,70.21,70.20,70.21,70.24,70.23,70.20,70.17,70.14,70.11,70.10,70.08,70.03,69.91,69.79,69.71,69.71,69.80,70.00,70.34,70.80,71.21,71.48,71.65,71.75,71.91,72.06,72.10,72.05,71.92,71.71,71.57,71.48,71.42,71.39,71.39,71.34,71.24,71.10,70.94,70.82,70.76,70.80,70.86,70.81,70.79,70.83,70.94,70.94,70.99,71.12,71.31,71.49,71.50,71.35,71.10,71.04,71.15,71.30,71.44,71.51,71.72,72.63,73.71,74.52,74.59,74.58,74.53,74.46,74.40,74.36,74.32,74.28,74.20,74.04,73.92,73.85,73.82,73.82,73.82,73.84,73.87,73.88,73.85,73.82,73.80,73.77,73.78,73.76,73.75,73.73,73.66
74.60,74.57,74.54,74.50,74.45,74.35,74.27,74.22,74.22,74.25,74.31,74.35,74.38,74.39,74.34,74.31,74.30,74.32,74.33,74.32,74.30,74.29,74.29,74.23,74.17,74.09,74.01,73.87,73.77,73.70,73.65,73.56,73.55,73.56,73.57,73.57,73.58,73.56,73.55,73.59,73.58,73.56,73.57,73.60,73.60,73.68,73.70,73.64,73.48,73.39,73.31,73.28,73.28,73.23,73.14,73.03,72.96,72.99,72.97,72.99,73.03,73.07,73.13,73.16,73.17,73.16,73.09,72.87,72.61,72.40,72.35,72.34,72.33,72.32,72.32,72.31,72.37,72.40,72.41,72.46,72.42,72.38,72.34,72.27,72.25,72.36,72.48,72.55,72.59,72.56,72.53,72.53,72.61,72.60,72.60,72.57,72.49,72.46,72.38,72.24,72.13,72.21,72.36,72.35,72.25,72.15,72.09,72.17,72.22,72.18,72.07,72.03,71.98,71.95,71.92,71.92,71.95,72.04,72.17,72.23,72.34,72.42,72.43,72.39,72.41,72.45,72.43,72.28,72.15,72.10,72.07,72.07,72.21,72.32,72.39,72.50,72.78,74.08,74.79,75.03,74.99,75.09,75.17,74.79,73.94,72.73,71.96,71.35,70.97,70.89,70.85,70.81,70.75,70.67,70.55,70.48,70.42,70.38,70.35,70.36,70.38,70.37,70.34,70.29,70.23,70.20,70.21,70.23,70.23,70.21,70.17,70.13,70.11,70.12,70.12,70.12,70.11,69.99,69.86,69.75,69.71,69.74,69.84,70.08,70.50,70.96,71.28,71.48,71.61,71.75,71.88,71.96,71.99,71.94,71.78,71.63,71.53,71.50,71.48,71.37,71.25,71.11,70.96,70.83,70.76,70.78,70.88,70.93,70.87,70.87,70.97,71.16,71.08,70.99,70.94,71.00,71.23,71.28,71.11,70.79,70.73,70.93,71.15,71.32,71.38,71.67,72.59,73.68,74.48,74.57,74.52,74.44,74.36,74.30,74.29,74.29,74.29,74.24,74.05,73.89,73.80,73.79,73.78,73.79,73.81,73.85,73.86,73.81,73.78,73.76,73.74,73.77,73.79,73.78,73.75,73.68
74.54,74.51,74.50,74.47,74.37,74.26,74.22,74.22,74.27,74.30,74.30,74.33,74.37,74.40,74.35,74.31,74.32,74.38,74.41,74.37,74.35,74.37,74.35,74.23,74.11,74.02,73.98,73.84,73.76,73.72,73.69,73.57,73.53,73.52,73.52,73.51,73.45,73.41,73.41,73.46,73.47,73.48,73.51,73.57,73.61,73.72,73.73,73.66,73.52,73.45,73.38,73.32,73.27,73.14,73.05,73.00,72.98,73.00,73.02,73.06,73.07,73.04,73.08,73.11,73.13,73.15,73.19,73.24,72.94,72.55,72.44,72.41,72.38,72.31,72.23,72.30,72.38,72.41,72.40,72.42,72.40,72.35,72.29,72.24,72.29,72.34,72.46,72.59,72.57,72.52,72.50,72.53,72.63,72.61,72.60,72.57,72.49,72.41,72.31,72.21,72.17,72.33,72.41,72.36,72.28,72.23,72.19,72.30,72.32,72.20,72.06,72.10,72.08,72.01,71.93,71.86,71.82,71.81,71.83,71.93,72.08,72.20,72.28,72.33,72.37,72.43,72.39,72.19,72.08,72.06,72.07,72.13,72.36,72.56,72.67,72.79,73.10,74.21,74.70,74.84,74.84,74.95,74.96,74.28,73.09,72.05,71.59,71.23,70.99,70.90,70.90,70.89,70.87,70.83,70.79,70.69,70.57,70.43,70.31,70.32,70.35,70.35,70.29,70.28,70.23,70.22,70.23,70.24,70.21,70.18,70.14,70.10,70.11,70.12,70.13,70.13,70.15,70.05,69.93,69.81,69.70,69.72,69.76,69.91,70.22,70.73,71.08,71.32,71.49,71.58,71.66,71.79,71.91,71.96,71.85,71.69,71.59,71.61,71.61,71.37,71.16,71.00,70.87,70.77,70.77,70.85,70.98,70.98,70.89,70.90,71.05,71.33,71.33,71.16,70.92,70.72,70.92,71.00,70.82,70.45,70.36,70.66,70.98,71.23,71.34,71.72,72.68,73.73,74.47,74.54,74.46,74.35,74.25,74.18,74.22,74.27,74.30,74.29,74.07,73.87,73.76,73.77,73.75,73.76,73.81,73.86,73.85,73.77,73.73,73.72,73.71,73.76,73.81,73.83,73.80,73.73
74.56,74.50,74.46,74.42,74.34,74.25,74.23,74.27,74.33,74.35,74.33,74.32,74.32,74.34,74.32,74.33,74.37,74.42,74.45,74.42,74.42,74.44,74.46,74.31,74.13,73.98,73.92,73.86,73.83,73.79,73.71,73.59,73.57,73.61,73.62,73.56,73.49,73.44,73.42,73.42,73.37,73.38,73.43,73.50,73.57,73.67,73.68,73.59,73.47,73.45,73.41,73.35,73.25,73.11,73.04,73.00,72.99,73.02,73.05,73.08,73.10,73.10,73.10,73.14,73.17,73.19,73.22,73.17,72.97,72.75,72.68,72.66,72.60,72.47,72.33,72.36,72.39,72.42,72.43,72.44,72.39,72.32,72.28,72.31,72.35,72.40,72.45,72.50,72.49,72.47,72.48,72.53,72.60,72.60,72.62,72.60,72.52,72.39,72.27,72.22,72.25,72.37,72.45,72.40,72.33,72.32,72.33,72.38,72.36,72.25,72.13,72.13,72.10,72.05,71.97,71.92,71.87,71.86,71.90,71.97,72.11,72.12,72.05,72.11,72.21,72.32,72.34,72.20,72.08,72.05,72.12,72.29,72.50,72.69,72.86,73.06,73.37,74.09,74.48,74.64,74.69,74.82,74.68,73.68,72.27,71.69,71.43,71.17,70.97,70.90,70.89,70.87,70.87,70.89,70.89,70.82,70.74,70.64,70.48,70.45,70.45,70.47,70.50,70.52,70.52,70.52,70.50,70.42,70.33,70.24,70.18,70.17,70.12,70.10,70.08,70.07,70.07,70.02,69.98,69.92,69.84,69.74,69.74,69.85,70.09,70.54,70.93,71.19,71.33,71.34,71.41,71.57,71.75,71.85,71.73,71.58,71.52,71.59,71.65,71.34,71.06,70.88,70.83,70.81,70.83,70.88,70.93,70.93,70.88,70.92,71.08,71.33,71.34,71.25,71.08,70.88,70.77,70.74,70.63,70.43,70.36,70.59,70.87,71.17,71.56,72.31,73.14,73.83,74.22,74.38,74.38,74.28,74.13,74.03,74.08,74.17,74.25,74.25,74.10,73.93,73.81,73.75,73.72,73.75,73.79,73.82,73.82,73.76,73.72,73.71,73.71,73.79,73.85,73.86,73.81,73.77
74.56,74.50,74.45,74.40,74.30,74.23,74.24,74.29,74.35,74.36,74.33,74.31,74.30,74.29,74.29,74.33,74.38,74.44,74.43,74.42,74.44,74.48,74.52,74.32,74.10,73.93,73.86,73.85,73.84,73.79,73.71,73.61,73.62,73.67,73.71,73.63,73.56,73.52,73.48,73.45,73.36,73.37,73.39,73.42,73.48,73.56,73.56,73.49,73.40,73.41,73.39,73.34,73.24,73.11,73.04,73.01,73.03,73.06,73.10,73.12,73.13,73.14,73.13,73.16,73.20,73.22,73.25,73.10,72.95,72.85,72.81,72.81,72.75,72.62,72.47,72.43,72.43,72.43,72.44,72.46,72.36,72.29,72.30,72.40,72.45,72.49,72.51,72.50,72.48,72.48,72.49,72.51,72.55,72.55,72.60,72.61,72.52,72.36,72.26,72.25,72.31,72.40,72.46,72.42,72.37,72.38,72.43,72.45,72.40,72.30,72.20,72.16,72.12,72.07,72.00,71.95,71.92,71.93,71.99,72.07,72.17,72.12,71.99,72.03,72.14,72.27,72.33,72.26,72.19,72.16,72.25,72.46,72.66,72.84,73.04,73.28,73.61,74.06,74.32,74.46,74.54,74.65,74.32,73.15,71.73,71.49,71.38,71.14,70.94,70.90,70.95,70.94,70.92,70.92,70.93,70.90,70.86,70.79,70.66,70.60,70.59,70.62,70.69,70.71,70.72,70.72,70.69,70.59,70.48,70.38,70.31,70.31,70.24,70.18,70.12,70.07,70.04,70.01,70.01,70.02,69.98,69.83,69.76,69.79,69.96,70.33,70.66,70.93,71.10,71.12,71.17,71.31,71.47,71.58,71.51,71.39,71.35,71.39,71.41,71.16,70.97,70.88,70.88,70.88,70.88,70.88,70.87,70.87,70.86,70.95,71.12,71.33,71.34,71.30,71.21,71.05,70.79,70.62,70.49,70.39,70.40,70.62,70.84,71.13,71.68,72.54,73.12,73.42,73.50,73.91,74.19,74.23,74.06,73.92,73.93,74.07,74.21,74.26,74.15,73.99,73.83,73.73,73.70,73.74,73.77,73.78,73.79,73.73,73.70,73.69,73.71,73.81,73.87,73.87,73.82,73.80
74.57,74.52,74.47,74.40,74.28,74.20,74.23,74.29,74.33,74.30,74.29,74.29,74.29,74.27,74.28,74.32,74.37,74.40,74.35,74.36,74.41,74.47,74.53,74.25,74.01,73.86,73.82,73.81,73.76,73.71,73.67,73.65,73.67,73.72,73.76,73.73,73.68,73.65,73.62,73.57,73.48,73.46,73.42,73.36,73.32,73.35,73.36,73.33,73.30,73.33,73.31,73.28,73.23,73.14,73.05,73.04,73.09,73.14,73.16,73.16,73.16,73.14,73.15,73.18,73.20,73.24,73.28,73.02,72.88,72.83,72.80,72.82,72.80,72.75,72.66,72.51,72.50,72.47,72.45,72.47,72.31,72.27,72.34,72.52,72.60,72.64,72.64,72.62,72.55,72.54,72.52,72.49,72.45,72.45,72.55,72.59,72.50,72.33,72.28,72.31,72.37,72.40,72.42,72.41,72.40,72.40,72.48,72.48,72.44,72.36,72.28,72.20,72.14,72.07,72.00,71.94,71.95,72.01,72.10,72.23,72.28,72.22,72.14,72.14,72.19,72.30,72.38,72.38,72.41,72.42,72.48,72.63,72.85,73.01,73.19,73.45,73.82,74.16,74.26,74.30,74.38,74.43,73.85,72.69,71.53,71.52,71.46,71.16,70.89,70.91,71.11,71.12,71.02,70.90,70.90,70.90,70.89,70.88,70.84,70.79,70.79,70.82,70.87,70.85,70.81,70.79,70.78,70.75,70.67,70.60,70.56,70.56,70.51,70.39,70.26,70.15,70.08,70.03,70.04,70.09,70.14,69.99,69.81,69.73,69.83,70.07,70.24,70.49,70.78,70.91,70.97,71.01,71.05,71.11,71.14,71.11,71.05,70.97,70.83,70.80,70.90,71.03,71.04,70.99,70.91,70.84,70.79,70.78,70.85,71.00,71.19,71.31,71.32,71.31,71.29,71.26,71.04,70.70,70.42,70.32,70.51,70.75,70.92,71.15,71.67,72.28,72.48,72.36,72.17,73.05,73.88,74.20,74.04,73.85,73.79,73.94,74.18,74.33,74.23,74.03,73.84,73.70,73.69,73.74,73.75,73.75,73.75,73.69,73.67,73.68,73.73,73.81,73.85,73.85,73.82,73.80
74.56,74.49,74.42,74.35,74.27,74.24,74.26,74.29,74.31,74.29,74.27,74.26,74.26,74.24,74.26,74.32,74.36,74.37,74.30,74.30,74.36,74.45,74.46,74.21,73.99,73.85,73.80,73.80,73.75,73.69,73.65,73.66,73.68,73.70,73.72,73.75,73.74,73.71,73.69,73.68,73.61,73.57,73.52,73.46,73.40,73.35,73.28,73.23,73.23,73.23,73.21,73.18,73.13,73.07,73.03,73.04,73.10,73.16,73.18,73.19,73.19,73.21,73.19,73.22,73.25,73.26,73.25,72.96,72.82,72.80,72.76,72.76,72.78,72.77,72.71,72.61,72.55,72.48,72.43,72.43,72.32,72.33,72.45,72.61,72.66,72.68,72.68,72.67,72.64,72.63,72.62,72.58,72.52,72.52,72.54,72.52,72.44,72.32,72.36,72.39,72.39,72.40,72.41,72.40,72.40,72.41,72.48,72.47,72.42,72.37,72.30,72.22,72.17,72.08,71.89,71.84,71.95,72.07,72.15,72.32,72.35,72.30,72.24,72.25,72.34,72.44,72.49,72.46,72.48,72.49,72.54,72.64,72.78,72.93,73.12,73.40,73.83,74.05,74.13,74.17,74.22,74.23,73.53,72.44,71.46,71.47,71.36,71.10,70.91,70.97,71.20,71.22,71.15,71.05,71.00,70.95,70.92,70.90,70.89,70.86,70.86,70.88,70.90,70.90,70.89,70.87,70.85,70.83,70.78,70.73,70.69,70.67,70.64,70.56,70.45,70.35,70.26,70.18,70.13,70.12,70.13,70.06,69.95,69.84,69.82,70.02,70.21,70.40,70.58,70.67,70.75,70.82,70.88,70.88,70.93,70.98,71.01,71.01,70.93,70.90,70.97,71.07,71.11,71.12,71.09,71.04,70.96,70.92,71.00,71.15,71.30,71.36,71.36,71.35,71.32,71.29,71.12,70.74,70.43,70.33,70.58,70.79,70.94,71.09,71.42,71.80,71.93,71.87,71.77,72.62,73.60,74.09,74.05,73.81,73.71,73.81,74.02,74.25,74.26,74.11,73.91,73.71,73.65,73.69,73.71,73.71,73.71,73.65,73.64,73.68,73.75,73.80,73.82,73.82,73.81,73.80
74.52,74.45,74.37,74.30,74.27,74.28,74.30,74.32,74.33,74.31,74.28,74.26,74.24,74.22,74.26,74.31,74.34,74.32,74.26,74.26,74.32,74.41,74.39,74.19,74.01,73.88,73.83,73.80,73.74,73.68,73.63,73.66,73.68,73.68,73.69,73.75,73.77,73.75,73.74,73.75,73.72,73.65,73.61,73.58,73.51,73.39,73.27,73.18,73.17,73.16,73.14,73.11,73.05,73.03,73.02,73.04,73.10,73.18,73.19,73.20,73.22,73.26,73.23,73.26,73.29,73.28,73.18,72.89,72.78,72.78,72.73,72.73,72.76,72.76,72.73,72.71,72.61,72.50,72.42,72.39,72.34,72.41,72.55,72.68,72.69,72.70,72.70,72.70,72.70,72.70,72.70,72.68,72.62,72.61,72.55,72.47,72.38,72.33,72.42,72.44,72.40,72.40,72.40,72.40,72.41,72.42,72.49,72.45,72.42,72.39,72.31,72.25,72.20,72.09,71.82,71.81,71.97,72.13,72.20,72.39,72.41,72.36,72.31,72.34,72.48,72.56,72.57,72.54,72.51,72.52,72.55,72.60,72.66,72.79,73.00,73.33,73.79,73.89,73.97,74.04,74.08,74.03,73.13,72.11,71.38,71.38,71.24,71.05,70.95,71.05,71.25,71.29,71.25,71.19,71.11,71.02,70.97,70.94,70.91,70.91,70.91,70.92,70.92,70.94,70.96,70.95,70.92,70.91,70.88,70.83,70.78,70.74,70.73,70.69,70.62,70.54,70.45,70.33,70.22,70.14,70.09,70.09,70.05,69.96,69.85,70.00,70.20,70.35,70.43,70.49,70.58,70.70,70.79,70.78,70.82,70.93,71.04,71.12,71.10,71.03,71.03,71.08,71.16,71.23,71.27,71.25,71.17,71.10,71.18,71.29,71.38,71.39,71.40,71.38,71.33,71.27,71.09,70.73,70.44,70.37,70.62,70.81,70.95,71.07,71.22,71.40,71.53,71.58,71.61,72.29,73.28,73.93,74.07,73.82,73.68,73.69,73.85,74.13,74.23,74.17,73.98,73.73,73.61,73.64,73.66,73.67,73.68,73.63,73.63,73.68,73.76,73.79,73.80,73.80,73.80,73.80
74.44,74.39,74.32,74.26,74.27,74.32,74.38,74.43,74.44,74.41,74.38,74.34,74.31,74.28,74.29,74.30,74.28,74.22,74.23,74.27,74.31,74.33,74.32,74.20,74.10,74.02,73.93,73.80,73.70,73.63,73.61,73.61,73.65,73.68,73.71,73.77,73.75,73.75,73.75,73.73,73.71,73.66,73.64,73.64,73.60,73.48,73.34,73.22,73.16,73.19,73.21,73.18,73.11,73.08,73.07,73.08,73.11,73.17,73.19,73.20,73.21,73.23,73.26,73.28,73.29,73.24,73.01,72.81,72.77,72.79,72.78,72.78,72.76,72.76,72.78,72.78,72.71,72.59,72.47,72.36,72.37,72.45,72.57,72.66,72.68,72.70,72.71,72.70,72.70,72.70,72.70,72.69,72.68,72.63,72.59,72.48,72.34,72.39,72.40,72.40,72.40,72.40,72.40,72.40,72.42,72.46,72.49,72.49,72.46,72.41,72.33,72.29,72.21,72.08,71.91,72.00,72.08,72.19,72.32,72.46,72.44,72.38,72.34,72.39,72.52,72.57,72.59,72.62,72.55,72.54,72.54,72.53,72.55,72.65,72.90,73.27,73.69,73.71,73.77,73.88,73.97,73.79,72.42,71.48,71.20,71.21,71.13,71.03,71.01,71.17,71.26,71.28,71.27,71.22,71.18,71.14,71.08,71.02,70.97,70.97,70.97,70.99,71.01,71.01,71.02,71.02,71.01,70.99,70.93,70.89,70.84,70.81,70.77,70.74,70.71,70.66,70.56,70.41,70.26,70.13,70.04,70.00,69.99,69.97,69.90,69.91,70.03,70.18,70.35,70.53,70.61,70.72,70.83,70.91,70.96,71.04,71.12,71.16,71.12,71.01,71.01,71.10,71.22,71.27,71.32,71.35,71.34,71.31,71.32,71.34,71.36,71.38,71.39,71.38,71.30,71.16,70.85,70.55,70.40,70.45,70.62,70.80,70.99,71.17,71.32,71.40,71.49,71.55,71.62,71.96,72.85,73.65,74.09,73.93,73.73,73.64,73.69,73.93,74.11,74.13,74.00,73.78,73.57,73.56,73.61,73.66,73.69,73.66,73.66,73.69,73.73,73.77,73.79,73.80,73.80,73.80
74.45,74.37,74.30,74.26,74.28,74.33,74.39,74.45,74.48,74.46,74.43,74.39,74.34,74.28,74.27,74.27,74.23,74.17,74.22,74.27,74.29,74.27,74.28,74.22,74.15,74.07,73.96,73.79,73.68,73.62,73.61,73.59,73.62,73.66,73.70,73.76,73.75,73.76,73.77,73.75,73.74,73.68,73.66,73.67,73.66,73.56,73.44,73.34,73.29,73.34,73.37,73.30,73.14,73.09,73.07,73.05,73.06,73.12,73.13,73.15,73.18,73.21,73.25,73.27,73.24,73.12,72.88,72.77,72.77,72.81,72.80,72.80,72.79,72.79,72.80,72.80,72.74,72.62,72.48,72.37,72.41,72.49,72.57,72.63,72.63,72.67,72.69,72.69,72.70,72.70,72.70,72.70,72.72,72.67,72.59,72.46,72.34,72.44,72.41,72.39,72.40,72.38,72.39,72.39,72.40,72.44,72.47,72.48,72.46,72.43,72.36,72.30,72.19,72.07,71.99,72.08,72.15,72.25,72.38,72.48,72.47,72.43,72.40,72.43,72.52,72.56,72.60,72.65,72.60,72.57,72.53,72.50,72.51,72.59,72.87,73.24,73.58,73.55,73.61,73.73,73.82,73.64,72.50,71.59,71.15,71.12,71.06,71.02,71.06,71.24,71.26,71.27,71.25,71.21,71.18,71.16,71.12,71.07,71.01,71.03,71.04,71.07,71.11,71.11,71.12,71.12,71.10,71.09,71.04,71.01,70.97,70.93,70.88,70.83,70.78,70.72,70.67,70.55,70.40,70.25,70.13,70.04,69.98,69.95,69.94,69.91,69.93,70.04,70.25,70.50,70.56,70.62,70.70,70.79,70.84,70.92,71.00,71.03,70.99,70.98,71.07,71.21,71.30,71.31,71.36,71.39,71.38,71.35,71.33,71.33,71.33,71.33,71.33,71.32,71.25,71.07,70.68,70.48,70.48,70.64,70.78,70.96,71.13,71.28,71.37,71.39,71.44,71.48,71.49,71.54,72.30,73.23,73.96,73.99,73.79,73.63,73.59,73.73,73.95,74.05,74.04,73.89,73.62,73.53,73.59,73.71,73.77,73.74,73.73,73.74,73.78,73.82,73.83,73.83,73.81,73.80
74.51,74.37,74.29,74.28,74.31,74.32,74.37,74.43,74.47,74.47,74.44,74.40,74.35,74.25,74.23,74.22,74.19,74.15,74.22,74.27,74.26,74.23,74.25,74.23,74.17,74.07,73.95,73.77,73.67,73.63,73.63,73.59,73.59,73.63,73.69,73.75,73.76,73.78,73.78,73.78,73.77,73.71,73.68,73.68,73.70,73.63,73.55,73.50,73.50,73.54,73.55,73.42,73.16,73.08,73.03,72.99,72.98,73.04,73.05,73.08,73.13,73.20,73.22,73.24,73.16,72.98,72.77,72.74,72.78,72.83,72.81,72.80,72.83,72.83,72.81,72.80,72.74,72.61,72.47,72.41,72.47,72.54,72.58,72.60,72.57,72.62,72.66,72.66,72.69,72.70,72.70,72.71,72.74,72.71,72.56,72.42,72.37,72.48,72.44,72.41,72.39,72.36,72.39,72.37,72.36,72.40,72.44,72.45,72.45,72.44,72.40,72.28,72.15,72.06,72.07,72.10,72.20,72.31,72.42,72.49,72.50,72.48,72.46,72.46,72.50,72.54,72.60,72.66,72.65,72.59,72.53,72.50,72.51,72.60,72.88,73.22,73.45,73.41,73.48,73.58,73.62,73.47,72.92,72.02,71.16,71.08,71.01,71.01,71.10,71.29,71.26,71.24,71.21,71.18,71.13,71.13,71.12,71.09,71.05,71.09,71.11,71.15,71.20,71.22,71.24,71.23,71.20,71.19,71.17,71.15,71.13,71.09,71.02,70.93,70.84,70.75,70.77,70.71,70.59,70.44,70.31,70.16,70.00,69.92,69.95,69.96,69.87,69.92,70.13,70.41,70.45,70.46,70.49,70.56,70.59,70.68,70.77,70.81,70.79,70.93,71.15,71.35,71.38,71.35,71.37,71.38,71.35,71.29,71.27,71.28,71.30,71.27,71.24,71.24,71.18,70.98,70.55,70.47,70.62,70.88,71.03,71.19,71.31,71.38,71.40,71.36,71.38,71.38,71.28,71.09,71.71,72.73,73.73,74.01,73.85,73.66,73.53,73.54,73.78,73.97,74.06,74.03,73.71,73.52,73.57,73.76,73.87,73.83,73.80,73.81,73.86,73.89,73.89,73.87,73.82,73.80
74.52,74.41,74.35,74.34,74.38,74.39,74.39,74.39,74.38,74.39,74.38,74.35,74.27,74.18,74.17,74.16,74.15,74.16,74.22,74.24,74.23,74.21,74.20,74.18,74.13,74.03,73.91,73.77,73.71,73.71,73.73,73.71,73.69,73.68,73.70,73.72,73.72,73.74,73.75,73.76,73.74,73.71,73.69,73.69,73.67,73.64,73.61,73.59,73.57,73.58,73.45,73.26,73.10,73.07,73.03,72.99,72.97,72.97,72.95,72.97,73.01,73.05,73.06,73.10,73.03,72.86,72.76,72.77,72.79,72.81,72.80,72.80,72.79,72.78,72.76,72.76,72.72,72.60,72.45,72.44,72.58,72.67,72.73,72.74,72.68,72.65,72.64,72.63,72.65,72.65,72.68,72.72,72.77,72.68,72.53,72.43,72.44,72.49,72.51,72.49,72.45,72.42,72.44,72.38,72.34,72.40,72.41,72.42,72.42,72.41,72.40,72.23,72.17,72.18,72.19,72.16,72.23,72.33,72.41,72.45,72.48,72.49,72.49,72.49,72.54,72.58,72.62,72.68,72.64,72.60,72.55,72.51,72.53,72.76,73.00,73.19,73.26,73.28,73.35,73.32,73.09,72.38,72.01,71.56,71.11,71.04,71.02,71.05,71.13,71.24,71.23,71.22,71.20,71.17,71.12,71.11,71.10,71.08,71.03,71.08,71.11,71.15,71.20,71.22,71.25,71.24,71.22,71.25,71.24,71.21,71.17,71.14,71.08,71.04,70.97,70.87,70.74,70.70,70.64,70.54,70.43,70.35,70.17,70.01,69.93,70.03,69.97,69.91,69.93,70.08,70.24,70.36,70.45,70.48,70.44,70.44,70.46,70.49,70.58,70.85,71.11,71.29,71.28,71.27,71.29,71.31,71.30,71.25,71.23,71.21,71.20,71.18,71.20,71.16,70.98,70.63,70.33,70.40,70.62,70.83,70.95,71.13,71.26,71.32,71.33,71.32,71.33,71.29,71.18,71.02,71.31,72.16,73.31,74.00,73.90,73.70,73.56,73.55,73.71,73.86,73.93,73.86,73.57,73.39,73.40,73.54,73.62,73.60,73.64,73.70,73.78,73.81,73.81,73.78,73.75,73.75
74.46,74.40,74.37,74.38,74.43,74.41,74.38,74.34,74.30,74.30,74.32,74.29,74.22,74.14,74.14,74.14,74.14,74.16,74.20,74.21,74.20,74.19,74.16,74.14,74.08,73.99,73.85,73.75,73.74,73.76,73.79,73.80,73.75,73.73,73.72,73.71,73.70,73.71,73.73,73.75,73.73,73.71,73.69,73.68,73.65,73.61,73.60,73.60,73.56,73.50,73.32,73.15,73.06,73.08,73.05,73.02,73.00,72.98,72.92,72.91,72.92,72.93,72.93,72.97,72.92,72.79,72.77,72.79,72.80,72.80,72.80,72.80,72.78,72.75,72.73,72.73,72.66,72.54,72.45,72.51,72.67,72.76,72.80,72.82,72.76,72.72,72.68,72.63,72.65,72.65,72.67,72.72,72.76,72.66,72.52,72.46,72.50,72.50,72.55,72.54,72.48,72.47,72.45,72.39,72.35,72.40,72.38,72.35,72.35,72.37,72.36,72.21,72.20,72.27,72.29,72.28,72.32,72.38,72.43,72.45,72.48,72.50,72.52,72.56,72.60,72.63,72.65,72.69,72.63,72.60,72.56,72.52,72.60,72.86,73.06,73.14,73.11,73.16,73.21,73.08,72.63,71.69,71.44,71.27,71.11,71.04,71.03,71.08,71.16,71.21,71.21,71.20,71.18,71.15,71.11,71.10,71.09,71.07,71.02,71.08,71.11,71.15,71.21,71.24,71.26,71.26,71.25,71.28,71.26,71.22,71.19,71.18,71.13,71.10,71.05,70.94,70.76,70.71,70.67,70.62,70.53,70.46,70.32,70.14,70.01,70.06,70.00,69.90,69.82,69.90,70.05,70.19,70.27,70.28,70.23,70.20,70.20,70.22,70.32,70.58,70.83,70.99,71.00,71.00,71.02,71.04,71.05,71.05,71.07,71.07,71.08,71.09,71.13,71.03,70.78,70.41,70.30,70.45,70.65,70.79,70.87,71.04,71.17,71.24,71.26,71.28,71.28,71.24,71.13,71.00,71.06,71.70,72.83,73.85,73.92,73.78,73.60,73.51,73.58,73.68,73.72,73.64,73.44,73.30,73.29,73.35,73.40,73.43,73.51,73.60,73.68,73.71,73.71,73.69,73.66,73.68
74.32,74.33,74.35,74.39,74.44,74.39,74.35,74.30,74.24,74.23,74.24,74.23,74.20,74.14,74.15,74.17,74.17,74.15,74.17,74.17,74.17,74.17,74.14,74.11,74.05,73.93,73.76,73.70,73.73,73.78,73.82,73.85,73.79,73.76,73.75,73.72,73.70,73.70,73.72,73.77,73.73,73.71,73.68,73.64,73.62,73.53,73.52,73.51,73.46,73.31,73.18,73.08,73.05,73.12,73.11,73.08,73.07,73.06,72.95,72.91,72.88,72.84,72.83,72.84,72.83,72.79,72.80,72.80,72.80,72.80,72.80,72.80,72.79,72.76,72.71,72.70,72.56,72.45,72.45,72.63,72.75,72.79,72.80,72.81,72.80,72.84,72.80,72.70,72.69,72.69,72.69,72.70,72.71,72.63,72.54,72.52,72.57,72.51,72.56,72.55,72.50,72.50,72.43,72.40,72.39,72.39,72.32,72.25,72.25,72.31,72.31,72.23,72.24,72.32,72.39,72.46,72.48,72.49,72.49,72.49,72.50,72.51,72.55,72.68,72.69,72.69,72.69,72.68,72.62,72.59,72.56,72.55,72.70,72.91,73.04,73.06,73.00,73.03,73.07,72.85,72.25,71.45,71.25,71.20,71.16,71.09,71.05,71.12,71.20,71.20,71.20,71.19,71.16,71.11,71.11,71.10,71.09,71.07,71.02,71.08,71.11,71.15,71.22,71.27,71.28,71.28,71.27,71.25,71.21,71.19,71.19,71.20,71.17,71.11,71.05,70.97,70.85,70.74,70.69,70.67,70.60,70.50,70.42,70.33,70.20,70.02,69.94,69.86,69.81,69.88,69.91,69.93,69.94,69.94,69.94,69.97,70.00,70.01,70.01,70.11,70.27,70.42,70.50,70.53,70.55,70.56,70.58,70.66,70.77,70.86,70.92,70.98,71.02,70.85,70.58,70.33,70.49,70.64,70.72,70.74,70.79,70.93,71.05,71.14,71.19,71.24,71.25,71.22,71.13,71.04,70.97,71.37,72.30,73.53,73.92,73.89,73.65,73.41,73.38,73.42,73.42,73.37,73.32,73.28,73.24,73.21,73.24,73.33,73.42,73.50,73.56,73.60,73.59,73.58,73.56,73.56
74.32,74.31,74.28,74.26,74.28,74.27,74.26,74.23,74.19,74.16,74.16,74.17,74.18,74.17,74.15,74.16,74.17,74.18,74.19,74.16,74.14,74.13,74.12,74.08,74.00,73.88,73.74,73.73,73.76,73.79,73.81,73.83,73.80,73.78,73.78,73.76,73.76,73.73,73.72,73.73,73.72,73.73,73.70,73.64,73.61,73.54,73.47,73.40,73.32,73.17,73.08,73.05,73.07,73.15,73.16,73.17,73.18,73.15,73.03,72.92,72.85,72.81,72.77,72.79,72.79,72.78,72.75,72.75,72.76,72.80,72.83,72.81,72.80,72.78,72.74,72.67,72.52,72.45,72.51,72.71,72.77,72.80,72.80,72.81,72.84,72.88,72.84,72.76,72.75,72.75,72.77,72.79,72.76,72.61,72.57,72.58,72.60,72.57,72.56,72.54,72.51,72.51,72.48,72.44,72.41,72.39,72.33,72.28,72.26,72.25,72.23,72.27,72.30,72.34,72.40,72.44,72.50,72.55,72.55,72.55,72.57,72.58,72.60,72.66,72.69,72.70,72.69,72.67,72.61,72.58,72.55,72.55,72.71,72.86,72.92,72.91,72.91,72.95,72.94,72.67,72.06,71.41,71.23,71.18,71.16,71.10,71.10,71.15,71.19,71.18,71.20,71.19,71.17,71.14,71.13,71.11,71.09,71.07,71.02,71.08,71.11,71.14,71.19,71.21,71.21,71.21,71.20,71.18,71.17,71.16,71.16,71.18,71.15,71.10,71.05,70.99,70.86,70.71,70.65,70.62,70.55,70.49,70.42,70.34,70.26,70.11,70.02,69.94,69.90,69.93,69.94,69.99,70.05,70.07,70.04,70.07,70.11,70.14,70.09,70.13,70.19,70.24,70.25,70.24,70.23,70.23,70.25,70.30,70.34,70.40,70.50,70.69,70.77,70.63,70.40,70.27,70.49,70.61,70.65,70.65,70.69,70.80,70.89,70.97,71.03,71.09,71.15,71.16,71.10,71.01,70.96,71.21,71.90,73.16,73.84,73.93,73.70,73.46,73.34,73.30,73.29,73.30,73.30,73.29,73.25,73.20,73.18,73.24,73.32,73.40,73.46,73.50,73.50,73.48,73.46,73.45
74.33,74.30,74.24,74.17,74.14,74.16,74.18,74.17,74.13,74.11,74.11,74.14,74.17,74.19,74.15,74.15,74.16,74.18,74.18,74.15,74.12,74.10,74.10,74.05,73.95,73.83,73.73,73.76,73.79,73.81,73.81,73.81,73.80,73.80,73.79,73.79,73.80,73.77,73.73,73.71,73.71,73.73,73.70,73.63,73.58,73.53,73.43,73.31,73.22,73.09,73.04,73.05,73.11,73.18,73.21,73.24,73.27,73.21,73.07,72.92,72.82,72.79,72.73,72.74,72.77,72.76,72.70,72.70,72.72,72.77,72.82,72.80,72.79,72.78,72.75,72.62,72.51,72.49,72.58,72.76,72.79,72.80,72.81,72.83,72.88,72.90,72.86,72.81,72.80,72.80,72.83,72.86,72.80,72.61,72.60,72.63,72.63,72.63,72.57,72.53,72.53,72.53,72.53,72.48,72.43,72.40,72.35,72.32,72.28,72.24,72.21,72.32,72.36,72.36,72.40,72.41,72.50,72.58,72.60,72.60,72.62,72.63,72.63,72.63,72.68,72.70,72.69,72.65,72.61,72.57,72.54,72.55,72.70,72.80,72.80,72.77,72.82,72.87,72.80,72.47,71.87,71.38,71.23,71.17,71.14,71.11,71.14,71.17,71.18,71.17,71.19,71.19,71.17,71.15,71.14,71.11,71.09,71.07,71.02,71.08,71.10,71.12,71.14,71.14,71.14,71.14,71.12,71.11,71.12,71.11,71.11,71.13,71.11,71.07,71.04,70.99,70.85,70.69,70.62,70.59,70.50,70.46,70.39,70.32,70.28,70.19,70.12,70.06,70.01,69.99,70.01,70.10,70.21,70.25,70.18,70.21,70.27,70.32,70.25,70.25,70.25,70.23,70.19,70.14,70.12,70.12,70.13,70.12,70.08,70.07,70.14,70.36,70.48,70.39,70.26,70.25,70.47,70.54,70.55,70.57,70.60,70.66,70.73,70.80,70.85,70.93,71.03,71.08,71.05,70.98,70.96,71.08,71.53,72.72,73.64,73.89,73.74,73.51,73.31,73.20,73.19,73.25,73.29,73.30,73.27,73.22,73.16,73.17,73.23,73.30,73.36,73.39,73.40,73.39,73.36,73.33
74.31,74.30,74.27,74.21,74.15,74.14,74.11,74.08,74.07,74.09,74.12,74.15,74.18,74.19,74.15,74.12,74.11,74.12,74.11,74.10,74.10,74.10,74.09,74.01,73.90,73.78,73.72,73.76,73.80,73.83,73.85,73.84,73.82,73.78,73.75,73.76,73.78,73.78,73.77,73.76,73.75,73.69,73.61,73.54,73.51,73.46,73.39,73.30,73.19,73.10,73.09,73.12,73.18,73.22,73.25,73.28,73.27,73.17,73.01,72.89,72.81,72.78,72.72,72.72,72.73,72.71,72.66,72.68,72.68,72.67,72.70,72.71,72.73,72.73,72.70,72.57,72.52,72.56,72.66,72.80,72.80,72.80,72.82,72.88,72.89,72.90,72.86,72.81,72.80,72.80,72.82,72.83,72.78,72.68,72.67,72.68,72.68,72.68,72.62,72.58,72.58,72.55,72.58,72.53,72.47,72.44,72.39,72.36,72.33,72.33,72.35,72.41,72.43,72.42,72.40,72.40,72.47,72.54,72.60,72.60,72.63,72.65,72.65,72.65,72.69,72.70,72.67,72.61,72.60,72.54,72.51,72.55,72.69,72.72,72.70,72.68,72.71,72.80,72.66,72.23,71.59,71.31,71.22,71.16,71.11,71.11,71.14,71.17,71.18,71.17,71.19,71.19,71.16,71.11,71.11,71.10,71.09,71.07,71.02,71.08,71.10,71.08,71.06,71.07,71.09,71.08,71.06,71.06,71.05,71.05,71.05,71.05,71.02,71.01,70.99,70.94,70.79,70.67,70.63,70.61,70.52,70.42,70.34,70.28,70.23,70.21,70.23,70.23,70.17,70.06,70.13,70.26,70.36,70.38,70.32,70.33,70.40,70.49,70.46,70.45,70.46,70.49,70.51,70.48,70.49,70.50,70.47,70.38,70.27,70.14,70.01,69.99,70.12,70.17,70.20,70.31,70.42,70.45,70.46,70.49,70.53,70.54,70.56,70.62,70.68,70.76,70.88,70.97,70.98,70.96,70.95,70.98,71.22,72.08,73.13,73.68,73.76,73.52,73.25,73.10,73.10,73.21,73.29,73.30,73.29,73.25,73.18,73.14,73.16,73.21,73.25,73.26,73.29,73.29,73.26,73.20
74.31,74.31,74.29,74.24,74.19,74.18,74.14,74.09,74.06,74.06,74.07,74.09,74.11,74.12,74.11,74.10,74.09,74.09,74.07,74.07,74.08,74.08,74.05,73.97,73.87,73.78,73.73,73.79,73.84,73.88,73.89,73.85,73.82,73.78,73.74,73.73,73.73,73.73,73.72,73.72,73.70,73.63,73.56,73.50,73.46,73.40,73.34,73.26,73.15,73.09,73.11,73.16,73.22,73.24,73.27,73.29,73.27,73.17,73.01,72.89,72.81,72.77,72.73,72.74,72.74,72.72,72.67,72.69,72.68,72.67,72.68,72.65,72.65,72.66,72.65,72.54,72.53,72.61,72.72,72.82,72.81,72.81,72.84,72.89,72.90,72.90,72.88,72.83,72.81,72.80,72.82,72.81,72.74,72.71,72.70,72.69,72.67,72.67,72.62,72.60,72.58,72.51,72.54,72.49,72.44,72.44,72.41,72.36,72.35,72.38,72.40,72.42,72.43,72.43,72.40,72.38,72.41,72.48,72.57,72.57,72.61,72.62,72.61,72.63,72.68,72.69,72.66,72.60,72.60,72.56,72.54,72.57,72.68,72.64,72.61,72.61,72.65,72.75,72.52,72.05,71.52,71.35,71.24,71.15,71.11,71.13,71.13,71.12,71.12,71.11,71.13,71.12,71.08,71.03,71.02,71.00,70.99,70.97,70.94,70.97,70.96,70.93,70.91,70.92,70.93,70.92,70.90,70.87,70.87,70.86,70.86,70.86,70.83,70.84,70.84,70.81,70.73,70.67,70.67,70.68,70.61,70.48,70.40,70.34,70.29,70.22,70.24,70.25,70.22,70.14,70.22,70.30,70.36,70.37,70.34,70.35,70.41,70.48,70.48,70.46,70.48,70.52,70.55,70.54,70.59,70.64,70.63,70.56,70.48,70.35,70.17,69.98,70.00,70.09,70.21,70.31,70.36,70.37,70.39,70.44,70.50,70.50,70.51,70.53,70.57,70.63,70.74,70.83,70.89,70.88,70.87,70.87,70.97,71.35,72.43,73.31,73.74,73.57,73.27,73.08,73.02,73.09,73.21,73.27,73.29,73.28,73.21,73.12,73.09,73.11,73.14,73.16,73.18,73.17,73.14,73.09
74.32,74.33,74.30,74.26,74.23,74.24,74.20,74.13,74.05,74.02,74.01,74.00,74.01,74.01,74.05,74.07,74.07,74.07,74.04,74.05,74.06,74.06,74.00,73.92,73.86,73.80,73.77,73.83,73.90,73.93,73.91,73.85,73.82,73.79,73.75,73.71,73.68,73.66,73.65,73.64,73.62,73.56,73.52,73.48,73.43,73.36,73.30,73.22,73.10,73.07,73.12,73.19,73.24,73.25,73.28,73.29,73.27,73.19,73.05,72.91,72.81,72.76,72.76,72.78,72.78,72.75,72.71,72.71,72.70,72.71,72.71,72.62,72.57,72.58,72.61,72.53,72.53,72.63,72.77,72.83,72.81,72.83,72.86,72.90,72.90,72.90,72.89,72.86,72.82,72.81,72.82,72.80,72.71,72.73,72.71,72.68,72.64,72.63,72.61,72.60,72.56,72.44,72.45,72.41,72.38,72.43,72.40,72.36,72.36,72.40,72.40,72.40,72.41,72.42,72.39,72.34,72.34,72.41,72.52,72.52,72.56,72.56,72.54,72.61,72.68,72.69,72.66,72.60,72.60,72.59,72.59,72.61,72.67,72.56,72.52,72.55,72.62,72.70,72.37,71.91,71.54,71.44,71.27,71.16,71.12,71.16,71.11,71.07,71.04,71.04,71.04,71.02,70.98,70.93,70.92,70.87,70.84,70.83,70.83,70.83,70.78,70.74,70.74,70.74,70.74,70.74,70.71,70.65,70.65,70.64,70.63,70.63,70.63,70.63,70.64,70.66,70.68,70.67,70.73,70.78,70.73,70.60,70.52,70.47,70.39,70.24,70.22,70.21,70.22,70.23,70.28,70.31,70.32,70.32,70.32,70.34,70.37,70.41,70.41,70.41,70.42,70.44,70.46,70.47,70.56,70.65,70.69,70.69,70.67,70.60,70.44,70.14,69.97,70.06,70.22,70.28,70.29,70.30,70.33,70.41,70.49,70.50,70.50,70.50,70.50,70.53,70.60,70.69,70.79,70.78,70.75,70.75,70.76,70.65,71.66,72.84,73.65,73.63,73.34,73.10,72.96,72.94,73.09,73.22,73.28,73.29,73.25,73.12,73.03,73.00,73.05,73.07,73.07,73.06,73.02,72.99
74.28,74.31,74.29,74.24,74.17,74.16,74.13,74.09,74.04,74.02,73.99,73.97,73.95,73.94,73.97,73.99,73.99,74.00,73.98,73.99,73.99,73.98,73.92,73.86,73.82,73.81,73.82,73.89,73.93,73.93,73.91,73.86,73.85,73.82,73.78,73.72,73.69,73.65,73.63,73.61,73.58,73.54,73.50,73.45,73.39,73.32,73.25,73.19,73.14,73.13,73.16,73.19,73.22,73.25,73.28,73.28,73.25,73.20,73.07,72.93,72.84,72.83,72.80,72.80,72.79,72.78,72.72,72.73,72.75,72.76,72.77,72.72,72.67,72.61,72.56,72.51,72.54,72.61,72.68,72.70,72.77,72.81,72.84,72.89,72.90,72.90,72.90,72.89,72.87,72.86,72.84,72.80,72.76,72.73,72.68,72.63,72.61,72.56,72.58,72.57,72.52,72.42,72.37,72.31,72.30,72.40,72.40,72.34,72.34,72.40,72.40,72.40,72.40,72.39,72.34,72.32,72.31,72.34,72.38,72.38,72.43,72.43,72.43,72.60,72.67,72.66,72.62,72.60,72.60,72.60,72.62,72.65,72.62,72.50,72.48,72.54,72.61,72.63,72.22,71.81,71.61,71.47,71.28,71.16,71.11,71.13,71.11,71.09,71.06,71.02,71.01,70.97,70.96,70.95,70.90,70.84,70.81,70.80,70.80,70.80,70.76,70.72,70.72,70.72,70.73,70.72,70.69,70.64,70.63,70.60,70.57,70.58,70.57,70.58,70.61,70.65,70.69,70.72,70.79,70.85,70.80,70.70,70.65,70.63,70.57,70.44,70.33,70.26,70.23,70.21,70.27,70.37,70.49,70.56,70.52,70.48,70.47,70.50,70.51,70.48,70.46,70.44,70.43,70.45,70.49,70.52,70.54,70.55,70.57,70.56,70.48,70.30,70.01,69.87,69.91,70.11,70.21,70.26,70.33,70.42,70.46,70.47,70.47,70.46,70.45,70.49,70.55,70.62,70.69,70.68,70.66,70.67,70.70,70.66,71.13,72.11,73.14,73.69,73.44,73.16,72.94,72.82,72.87,73.05,73.20,73.27,73.26,73.14,73.02,72.97,72.99,73.02,73.02,73.00,72.97,72.93
74.22,74.25,74.23,74.17,74.09,74.07,74.06,74.04,74.02,74.00,73.97,73.93,73.91,73.90,73.92,73.93,73.93,73.92,73.91,73.91,73.92,73.91,73.87,73.82,73.81,73.83,73.86,73.91,73.93,73.92,73.90,73.88,73.87,73.85,73.80,73.73,73.65,73.60,73.57,73.55,73.51,73.49,73.47,73.44,73.38,73.32,73.24,73.17,73.16,73.19,73.21,73.23,73.26,73.28,73.29,73.28,73.25,73.21,73.09,72.96,72.87,72.87,72.83,72.79,72.77,72.76,72.72,72.73,72.75,72.76,72.79,72.76,72.70,72.61,72.53,72.53,72.56,72.60,72.62,72.62,72.70,72.74,72.78,72.85,72.88,72.89,72.90,72.90,72.89,72.89,72.84,72.78,72.76,72.69,72.66,72.64,72.62,72.58,72.55,72.50,72.43,72.37,72.32,72.27,72.27,72.37,72.41,72.39,72.38,72.40,72.40,72.40,72.40,72.38,72.31,72.30,72.30,72.30,72.31,72.31,72.37,72.38,72.41,72.59,72.65,72.65,72.62,72.60,72.59,72.60,72.64,72.67,72.58,72.46,72.45,72.52,72.60,72.55,72.16,71.80,71.65,71.49,71.32,71.21,71.17,71.17,71.17,71.15,71.11,71.06,71.04,70.99,70.96,70.98,70.92,70.85,70.79,70.76,70.77,70.79,70.77,70.75,70.75,70.76,70.78,70.78,70.77,70.73,70.71,70.67,70.65,70.66,70.64,70.64,70.65,70.67,70.69,70.74,70.83,70.89,70.85,70.77,70.75,70.74,70.70,70.58,70.43,70.35,70.31,70.23,70.25,70.35,70.49,70.63,70.61,70.56,70.53,70.52,70.54,70.50,70.45,70.40,70.35,70.38,70.44,70.47,70.44,70.43,70.46,70.48,70.45,70.34,70.02,69.76,69.71,69.92,70.11,70.21,70.30,70.40,70.44,70.46,70.46,70.44,70.41,70.44,70.50,70.55,70.59,70.57,70.56,70.59,70.63,70.64,70.74,71.52,72.62,73.59,73.51,73.26,72.97,72.76,72.72,72.89,73.06,73.18,73.22,73.16,73.03,72.94,72.93,72.96,72.96,72.94,72.91,72.86
74.13,74.14,74.12,74.06,73.99,73.96,73.97,73.99,74.00,73.96,73.93,73.91,73.90,73.90,73.90,73.90,73.89,73.85,73.82,73.82,73.84,73.87,73.84,73.81,73.82,73.86,73.90,73.91,73.91,73.90,73.90,73.90,73.90,73.87,73.81,73.73,73.58,73.51,73.48,73.45,73.42,73.42,73.44,73.46,73.42,73.35,73.25,73.16,73.17,73.25,73.28,73.32,73.35,73.32,73.31,73.30,73.28,73.22,73.09,72.98,72.91,72.89,72.83,72.76,72.72,72.71,72.70,72.70,72.70,72.72,72.78,72.73,72.66,72.58,72.52,72.57,72.60,72.61,72.61,72.61,72.62,72.62,72.66,72.78,72.86,72.88,72.89,72.90,72.90,72.89,72.81,72.72,72.70,72.63,72.65,72.69,72.69,72.69,72.52,72.38,72.30,72.30,72.30,72.30,72.30,72.32,72.45,72.48,72.45,72.40,72.40,72.40,72.40,72.38,72.30,72.29,72.29,72.30,72.30,72.30,72.37,72.42,72.47,72.58,72.61,72.65,72.66,72.60,72.56,72.59,72.64,72.67,72.57,72.46,72.43,72.48,72.58,72.46,72.18,71.89,71.66,71.50,71.38,71.32,71.30,71.29,71.28,71.25,71.19,71.15,71.13,71.06,71.01,71.00,70.98,70.88,70.78,70.71,70.73,70.81,70.82,70.82,70.83,70.85,70.89,70.92,70.93,70.93,70.89,70.87,70.87,70.89,70.83,70.81,70.77,70.71,70.68,70.75,70.83,70.89,70.87,70.82,70.81,70.81,70.76,70.65,70.53,70.48,70.45,70.28,70.23,70.25,70.34,70.52,70.61,70.60,70.54,70.47,70.47,70.44,70.39,70.32,70.22,70.27,70.41,70.47,70.36,70.32,70.33,70.35,70.36,70.26,70.00,69.74,69.61,69.71,69.99,70.14,70.25,70.36,70.42,70.45,70.46,70.43,70.37,70.40,70.44,70.48,70.48,70.46,70.47,70.51,70.56,70.59,70.51,71.06,72.10,73.32,73.55,73.38,73.07,72.78,72.65,72.71,72.86,73.03,73.15,73.19,73.06,72.92,72.85,72.91,72.90,72.87,72.84,72.78
74.11,74.09,74.05,73.99,73.94,73.94,73.95,73.95,73.94,73.92,73.91,73.90,73.89,73.89,73.89,73.90,73.89,73.87,73.84,73.81,73.81,73.83,73.81,73.82,73.84,73.87,73.89,73.90,73.90,73.90,73.90,73.89,73.89,73.88,73.83,73.71,73.55,73.45,73.39,73.36,73.37,73.37,73.38,73.41,73.40,73.31,73.22,73.16,73.18,73.25,73.28,73.30,73.32,73.31,73.26,73.26,73.26,73.21,73.05,72.94,72.87,72.85,72.82,72.78,72.75,72.72,72.69,72.69,72.70,72.71,72.73,72.70,72.61,72.53,72.49,72.58,72.66,72.71,72.72,72.72,72.69,72.66,72.65,72.69,72.74,72.79,72.83,72.86,72.88,72.84,72.77,72.71,72.70,72.60,72.63,72.67,72.68,72.68,72.52,72.35,72.23,72.26,72.32,72.32,72.31,72.33,72.43,72.48,72.45,72.38,72.38,72.39,72.43,72.42,72.28,72.26,72.28,72.30,72.30,72.30,72.35,72.44,72.54,72.53,72.59,72.64,72.65,72.61,72.63,72.63,72.64,72.64,72.51,72.46,72.47,72.51,72.54,72.35,72.10,71.86,71.69,71.54,71.44,71.39,71.38,71.33,71.33,71.31,71.28,71.26,71.23,71.14,71.06,71.02,70.98,70.88,70.79,70.72,70.73,70.82,70.86,70.87,70.87,70.90,70.97,71.01,71.01,71.02,70.96,70.96,70.97,70.94,70.89,70.85,70.78,70.68,70.66,70.76,70.85,70.89,70.86,70.81,70.83,70.84,70.79,70.69,70.60,70.55,70.50,70.38,70.33,70.28,70.28,70.35,70.46,70.49,70.47,70.43,70.41,70.34,70.27,70.18,70.03,70.13,70.34,70.45,70.34,70.27,70.25,70.24,70.23,70.14,69.92,69.70,69.58,69.64,69.92,70.12,70.27,70.38,70.42,70.46,70.46,70.42,70.36,70.39,70.43,70.47,70.48,70.47,70.48,70.47,70.46,70.45,70.41,70.78,71.58,72.76,73.36,73.43,73.25,72.96,72.68,72.57,72.62,72.77,72.94,72.95,72.83,72.71,72.69,72.77,72.77,72.75,72.71,72.69
74.09,74.05,74.00,73.94,73.91,73.94,73.94,73.92,73.90,73.90,73.89,73.88,73.87,73.88,73.87,73.88,73.89,73.89,73.86,73.82,73.80,73.80,73.78,73.81,73.83,73.85,73.85,73.87,73.87,73.87,73.89,73.88,73.87,73.87,73.83,73.69,73.54,73.42,73.35,73.31,73.34,73.34,73.34,73.35,73.36,73.27,73.19,73.17,73.21,73.25,73.26,73.27,73.29,73.29,73.24,73.23,73.22,73.18,73.01,72.90,72.85,72.83,72.82,72.81,72.78,72.74,72.69,72.69,72.70,72.70,72.70,72.67,72.57,72.49,72.49,72.61,72.72,72.79,72.80,72.80,72.76,72.72,72.67,72.64,72.65,72.71,72.77,72.81,72.83,72.79,72.74,72.71,72.70,72.59,72.61,72.64,72.64,72.63,72.48,72.30,72.18,72.25,72.36,72.36,72.33,72.36,72.43,72.48,72.45,72.36,72.36,72.39,72.46,72.45,72.26,72.26,72.28,72.30,72.30,72.30,72.35,72.46,72.57,72.50,72.57,72.63,72.64,72.62,72.71,72.69,72.65,72.59,72.45,72.45,72.50,72.54,72.48,72.27,72.03,71.84,71.73,71.59,71.50,71.46,71.44,71.38,71.37,71.37,71.37,71.36,71.32,71.22,71.13,71.05,70.98,70.89,70.80,70.75,70.74,70.84,70.89,70.91,70.91,70.93,71.02,71.07,71.08,71.09,71.03,71.03,71.03,70.97,70.91,70.86,70.77,70.65,70.66,70.77,70.85,70.87,70.83,70.78,70.82,70.84,70.78,70.70,70.65,70.60,70.55,70.48,70.42,70.34,70.27,70.25,70.34,70.38,70.41,70.40,70.37,70.28,70.21,70.12,69.96,70.06,70.28,70.40,70.31,70.24,70.20,70.17,70.14,70.06,69.88,69.69,69.57,69.63,69.92,70.13,70.28,70.38,70.42,70.47,70.46,70.41,70.36,70.40,70.43,70.46,70.47,70.46,70.43,70.38,70.33,70.30,70.31,70.51,71.07,72.12,73.08,73.44,73.41,73.14,72.78,72.52,72.44,72.52,72.67,72.67,72.58,72.50,72.53,72.62,72.63,72.61,72.59,72.59
74.03,74.01,74.00,73.97,73.94,73.93,73.92,73.91,73.90,73.90,73.87,73.84,73.82,73.83,73.83,73.84,73.86,73.89,73.88,73.83,73.80,73.79,73.77,73.75,73.74,73.75,73.77,73.79,73.80,73.81,73.84,73.83,73.81,73.79,73.76,73.67,73.56,73.46,73.39,73.34,73.33,73.34,73.33,73.31,73.29,73.22,73.19,73.22,73.26,73.26,73.24,73.24,73.27,73.28,73.28,73.24,73.16,73.09,72.98,72.92,72.89,72.88,72.86,72.82,72.80,72.78,72.75,72.72,72.70,72.70,72.70,72.62,72.53,72.49,72.54,72.68,72.76,72.79,72.80,72.80,72.79,72.76,72.71,72.65,72.65,72.68,72.71,72.73,72.76,72.73,72.71,72.70,72.70,72.62,72.60,72.60,72.57,72.53,72.37,72.22,72.16,72.32,72.43,72.43,72.40,72.40,72.47,72.50,72.45,72.37,72.36,72.39,72.45,72.45,72.26,72.32,72.32,72.30,72.30,72.30,72.38,72.47,72.53,72.50,72.57,72.63,72.64,72.62,72.77,72.76,72.66,72.52,72.42,72.42,72.50,72.53,72.37,72.22,72.02,71.87,71.81,71.66,71.58,71.52,71.48,71.45,71.45,71.45,71.45,71.44,71.40,71.30,71.20,71.11,70.99,70.91,70.83,70.79,70.79,70.86,70.90,70.93,70.95,70.94,71.04,71.10,71.12,71.16,71.13,71.10,71.05,70.97,70.91,70.85,70.75,70.64,70.70,70.77,70.82,70.82,70.78,70.70,70.72,70.74,70.71,70.66,70.66,70.63,70.58,70.54,70.48,70.41,70.35,70.33,70.32,70.34,70.37,70.40,70.37,70.31,70.27,70.24,70.17,70.19,70.25,70.29,70.26,70.25,70.22,70.18,70.14,70.06,69.91,69.71,69.60,69.70,70.03,70.18,70.26,70.33,70.39,70.47,70.46,70.41,70.39,70.46,70.46,70.44,70.41,70.35,70.23,70.15,70.12,70.14,70.15,70.23,70.58,71.39,72.65,73.38,73.56,73.29,73.02,72.67,72.42,72.31,72.34,72.34,72.34,72.35,72.39,72.47,72.48,72.48,72.49,72.50
74.05,74.03,74.01,73.98,73.95,73.95,73.94,73.93,73.91,73.90,73.87,73.83,73.81,73.83,73.84,73.83,73.84,73.84,73.83,73.79,73.77,73.78,73.78,73.78,73.76,73.75,73.73,73.72,73.71,73.71,73.71,73.72,73.73,73.73,73.69,73.62,73.54,73.47,73.41,73.38,73.38,73.39,73.38,73.33,73.25,73.20,73.22,73.27,73.32,73.31,73.27,73.26,73.27,73.23,73.24,73.20,73.12,73.07,72.99,72.93,72.91,72.90,72.88,72.86,72.83,72.80,72.77,72.73,72.71,72.69,72.67,72.58,72.51,72.50,72.57,72.72,72.78,72.80,72.80,72.80,72.80,72.75,72.68,72.63,72.61,72.65,72.70,72.73,72.70,72.70,72.68,72.67,72.66,72.59,72.57,72.56,72.56,72.50,72.31,72.17,72.16,72.35,72.46,72.47,72.45,72.44,72.46,72.46,72.43,72.38,72.38,72.39,72.43,72.43,72.32,72.40,72.37,72.34,72.34,72.30,72.38,72.46,72.51,72.47,72.60,72.68,72.70,72.66,72.82,72.78,72.63,72.46,72.41,72.44,72.51,72.51,72.31,72.11,71.97,71.89,71.85,71.73,71.65,71.58,71.53,71.49,71.49,71.50,71.51,71.49,71.49,71.38,71.27,71.18,71.04,70.92,70.84,70.79,70.77,70.86,70.91,70.94,70.98,70.98,71.06,71.11,71.13,71.17,71.14,71.10,71.05,70.98,70.91,70.84,70.72,70.61,70.70,70.75,70.76,70.76,70.73,70.69,70.70,70.71,70.69,70.67,70.67,70.64,70.60,70.58,70.53,70.48,70.43,70.40,70.34,70.33,70.34,70.37,70.36,70.32,70.29,70.27,70.22,70.20,70.21,70.24,70.25,70.25,70.22,70.17,70.11,70.04,69.93,69.77,69.66,69.73,69.97,70.12,70.20,70.24,70.28,70.35,70.37,70.36,70.38,70.45,70.45,70.42,70.36,70.28,70.18,70.09,70.05,70.07,70.11,70.15,70.31,70.72,71.87,72.85,73.37,73.36,73.16,72.79,72.45,72.23,72.20,72.22,72.23,72.24,72.28,72.34,72.36,72.36,72.37,72.38
74.11,74.07,74.04,74.00,73.96,73.98,73.98,73.95,73.92,73.90,73.86,73.83,73.81,73.85,73.86,73.84,73.81,73.78,73.75,73.73,73.74,73.77,73.80,73.83,73.82,73.78,73.73,73.67,73.65,73.61,73.56,73.59,73.65,73.66,73.63,73.56,73.52,73.47,73.43,73.43,73.45,73.46,73.44,73.36,73.22,73.19,73.24,73.33,73.37,73.37,73.33,73.29,73.28,73.19,73.18,73.15,73.10,73.07,73.01,72.95,72.91,72.90,72.90,72.89,72.86,72.81,72.78,72.74,72.71,72.68,72.63,72.54,72.51,72.53,72.59,72.74,72.79,72.80,72.80,72.80,72.80,72.72,72.63,72.60,72.56,72.63,72.72,72.75,72.65,72.67,72.66,72.63,72.62,72.55,72.52,72.54,72.56,72.49,72.25,72.12,72.16,72.37,72.46,72.49,72.49,72.47,72.43,72.42,72.41,72.39,72.40,72.40,72.40,72.40,72.40,72.47,72.43,72.39,72.39,72.33,72.38,72.44,72.48,72.43,72.63,72.75,72.77,72.73,72.85,72.75,72.57,72.40,72.41,72.47,72.53,72.49,72.25,71.98,71.90,71.90,71.88,71.80,71.72,71.64,71.57,71.51,71.51,71.55,71.56,71.52,71.56,71.46,71.34,71.24,71.09,70.94,70.84,70.77,70.75,70.87,70.91,70.94,70.99,71.01,71.07,71.11,71.12,71.16,71.11,71.08,71.04,70.97,70.91,70.82,70.69,70.58,70.70,70.72,70.71,70.71,70.70,70.70,70.70,70.70,70.70,70.70,70.67,70.63,70.60,70.60,70.58,70.54,70.49,70.47,70.39,70.33,70.31,70.33,70.34,70.32,70.30,70.27,70.22,70.18,70.18,70.20,70.25,70.23,70.22,70.16,70.07,70.02,69.94,69.84,69.76,69.74,69.85,70.00,70.11,70.14,70.15,70.21,70.25,70.29,70.34,70.40,70.41,70.38,70.31,70.24,70.18,70.11,70.05,70.04,70.12,70.15,70.15,70.17,71.00,72.13,73.01,73.38,73.27,72.90,72.51,72.23,72.16,72.18,72.18,72.17,72.20,72.24,72.26,72.27,72.27,72.27
74.19,74.15,74.12,74.09,74.03,73.99,73.99,73.97,73.93,73.88,73.84,73.81,73.80,73.82,73.85,73.83,73.77,73.70,73.67,73.69,73.75,73.82,73.85,73.87,73.85,73.82,73.80,73.79,73.79,73.72,73.58,73.51,73.51,73.51,73.51,73.51,73.53,73.51,73.49,73.47,73.48,73.49,73.44,73.34,73.19,73.18,73.25,73.34,73.35,73.37,73.34,73.33,73.32,73.20,73.18,73.15,73.11,73.09,73.04,72.97,72.92,72.90,72.90,72.90,72.86,72.82,72.80,72.74,72.71,72.68,72.62,72.54,72.54,72.59,72.66,72.76,72.79,72.80,72.80,72.80,72.76,72.68,72.62,72.60,72.59,72.65,72.72,72.76,72.64,72.63,72.62,72.61,72.60,72.53,72.51,72.51,72.51,72.38,72.16,72.08,72.16,72.37,72.46,72.49,72.47,72.43,72.41,72.41,72.38,72.35,72.40,72.44,72.43,72.41,72.46,72.44,72.42,72.43,72.47,72.45,72.42,72.42,72.44,72.49,72.75,72.85,72.86,72.84,72.77,72.63,72.47,72.35,72.39,72.46,72.48,72.39,72.11,71.95,71.90,71.90,71.89,71.86,71.80,71.70,71.60,71.59,71.57,71.56,71.55,71.57,71.57,71.46,71.33,71.23,71.09,70.98,70.87,70.79,70.80,70.88,70.90,70.91,70.93,70.95,71.04,71.08,71.09,71.10,71.08,71.04,71.00,70.95,70.86,70.71,70.61,70.60,70.74,70.76,70.74,70.72,70.70,70.70,70.70,70.70,70.70,70.68,70.64,70.62,70.61,70.60,70.58,70.55,70.50,70.47,70.41,70.35,70.31,70.30,70.30,70.33,70.33,70.31,70.26,70.23,70.22,70.22,70.23,70.20,70.19,70.16,70.10,70.03,70.00,69.98,69.92,69.78,69.67,69.77,69.94,70.08,70.14,70.20,70.22,70.23,70.23,70.28,70.29,70.28,70.25,70.20,70.16,70.11,70.06,70.05,70.11,70.15,70.18,70.19,70.50,71.34,72.34,73.20,73.39,73.12,72.76,72.42,72.22,72.19,72.20,72.22,72.25,72.26,72.26,72.26,72.26,72.26
74.25,74.22,74.21,74.17,74.08,74.00,73.97,73.95,73.92,73.86,73.82,73.80,73.80,73.79,73.80,73.79,73.73,73.64,73.62,73.69,73.78,73.85,73.88,73.89,73.88,73.85,73.84,73.85,73.86,73.79,73.63,73.52,73.49,73.45,73.42,73.42,73.47,73.49,73.49,73.47,73.48,73.49,73.43,73.30,73.18,73.20,73.28,73.35,73.34,73.34,73.33,73.32,73.32,73.20,73.20,73.19,73.17,73.12,73.09,73.04,72.97,72.92,72.88,72.86,72.83,72.81,72.80,72.74,72.70,72.65,72.59,72.55,72.58,72.65,72.72,72.77,72.79,72.80,72.80,72.80,72.74,72.70,72.67,72.65,72.64,72.68,72.73,72.74,72.63,72.59,72.57,72.55,72.54,72.49,72.48,72.48,72.44,72.27,72.10,72.06,72.18,72.37,72.43,72.45,72.44,72.42,72.40,72.40,72.38,72.35,72.40,72.44,72.43,72.41,72.45,72.43,72.43,72.46,72.50,72.54,72.47,72.40,72.40,72.54,72.80,72.89,72.90,72.90,72.75,72.57,72.42,72.33,72.36,72.41,72.40,72.29,72.03,71.95,71.92,71.91,71.91,71.90,71.85,71.76,71.65,71.63,71.60,71.56,71.55,71.58,71.55,71.44,71.32,71.22,71.11,71.02,70.90,70.80,70.82,70.89,70.91,70.91,70.90,70.92,71.00,71.04,71.03,71.03,71.01,70.98,70.94,70.91,70.81,70.65,70.58,70.63,70.74,70.76,70.75,70.72,70.70,70.68,70.67,70.67,70.69,70.67,70.63,70.61,70.60,70.58,70.57,70.55,70.51,70.48,70.43,70.38,70.33,70.29,70.29,70.32,70.32,70.30,70.27,70.26,70.26,70.25,70.23,70.18,70.15,70.12,70.07,70.00,70.00,70.02,70.00,69.86,69.66,69.64,69.75,69.93,70.11,70.19,70.21,70.20,70.18,70.20,70.20,70.19,70.19,70.17,70.14,70.11,70.09,70.09,70.13,70.16,70.17,70.18,70.20,70.73,71.65,72.73,73.29,73.22,72.95,72.61,72.31,72.21,72.21,72.25,72.29,72.28,72.28,72.27,72.27,72.27
74.29,74.30,74.29,74.25,74.14,73.99,73.92,73.90,73.89,73.86,73.82,73.80,73.79,73.75,73.72,73.71,73.67,73.59,73.61,73.70,73.80,73.87,73.90,73.90,73.90,73.88,73.84,73.86,73.88,73.83,73.70,73.62,73.57,73.48,73.38,73.32,73.36,73.41,73.44,73.43,73.45,73.47,73.38,73.23,73.18,73.25,73.32,73.36,73.33,73.30,73.29,73.29,73.27,73.22,73.24,73.27,73.26,73.16,73.17,73.15,73.07,72.95,72.85,72.78,72.76,72.79,72.80,72.74,72.67,72.59,72.53,72.57,72.64,72.70,72.76,72.78,72.79,72.80,72.80,72.80,72.75,72.76,72.77,72.73,72.70,72.73,72.73,72.68,72.62,72.56,72.51,72.46,72.43,72.42,72.43,72.43,72.37,72.17,72.05,72.08,72.21,72.36,72.37,72.37,72.40,72.45,72.41,72.40,72.40,72.40,72.40,72.40,72.40,72.39,72.38,72.44,72.48,72.50,72.51,72.58,72.51,72.39,72.36,72.60,72.80,72.88,72.91,72.91,72.78,72.57,72.41,72.33,72.31,72.32,72.29,72.18,71.98,71.98,71.96,71.94,71.93,71.90,71.88,71.81,71.71,71.65,71.61,71.57,71.56,71.55,71.50,71.40,71.30,71.22,71.14,71.05,70.91,70.80,70.82,70.89,70.93,70.93,70.90,70.92,70.97,70.98,70.95,70.95,70.92,70.90,70.88,70.84,70.75,70.62,70.58,70.66,70.71,70.73,70.73,70.71,70.69,70.65,70.62,70.62,70.66,70.67,70.63,70.59,70.57,70.54,70.54,70.54,70.52,70.48,70.45,70.42,70.37,70.30,70.30,70.29,70.27,70.25,70.26,70.29,70.30,70.29,70.25,70.17,70.10,70.03,69.98,69.94,69.95,70.00,70.02,69.98,69.80,69.60,69.54,69.70,70.06,70.18,70.21,70.20,70.18,70.17,70.15,70.13,70.13,70.13,70.11,70.12,70.14,70.16,70.17,70.16,70.15,70.13,70.09,70.28,70.93,72.02,72.99,73.21,73.10,72.80,72.43,72.25,72.23,72.27,72.30,72.30,72.30,72.30,72.30,72.30
74.21,74.24,74.24,74.18,74.06,73.98,73.94,73.91,73.86,73.83,73.81,73.81,73.79,73.75,73.69,73.65,73.60,73.57,73.64,73.73,73.80,73.84,73.88,73.87,73.85,73.84,73.84,73.86,73.88,73.85,73.79,73.76,73.74,73.65,73.52,73.43,73.40,73.38,73.37,73.35,73.36,73.36,73.31,73.23,73.23,73.30,73.36,73.37,73.33,73.27,73.24,73.22,73.19,73.15,73.18,73.21,73.22,73.18,73.19,73.17,73.11,73.01,72.89,72.81,72.79,72.80,72.80,72.74,72.65,72.56,72.53,72.61,72.67,72.70,72.73,72.73,72.75,72.78,72.80,72.80,72.80,72.80,72.79,72.77,72.72,72.72,72.69,72.64,72.63,72.63,72.59,72.53,72.47,72.32,72.29,72.30,72.28,72.14,72.05,72.07,72.17,72.26,72.26,72.26,72.30,72.39,72.37,72.37,72.38,72.40,72.43,72.39,72.35,72.33,72.33,72.40,72.45,72.48,72.51,72.56,72.45,72.35,72.36,72.60,72.77,72.86,72.89,72.86,72.68,72.49,72.37,72.33,72.30,72.26,72.20,72.10,71.97,71.94,71.91,71.88,71.85,71.82,71.79,71.72,71.63,71.58,71.53,71.50,71.47,71.44,71.40,71.32,71.24,71.17,71.09,71.01,70.91,70.83,70.81,70.84,70.83,70.83,70.86,70.87,70.89,70.90,70.88,70.87,70.84,70.81,70.78,70.75,70.64,70.57,70.57,70.64,70.66,70.67,70.68,70.68,70.68,70.61,70.57,70.56,70.58,70.58,70.54,70.52,70.53,70.52,70.52,70.51,70.51,70.49,70.48,70.45,70.41,70.35,70.34,70.29,70.25,70.22,70.23,70.24,70.25,70.24,70.22,70.17,70.11,70.05,69.99,69.94,69.97,69.99,70.02,70.02,69.93,69.68,69.48,69.45,69.76,69.91,70.00,70.08,70.16,70.18,70.17,70.16,70.16,70.15,70.12,70.11,70.12,70.16,70.18,70.17,70.14,70.11,70.07,70.12,70.50,71.31,72.42,72.99,73.16,73.02,72.69,72.40,72.26,72.24,72.28,72.27,72.25,72.26,72.28,72.30
74.10,74.14,74.14,74.09,73.99,73.97,73.95,73.91,73.84,73.80,73.81,73.81,73.79,73.75,73.67,73.60,73.55,73.55,73.68,73.77,73.81,73.82,73.86,73.82,73.79,73.78,73.82,73.84,73.85,73.85,73.85,73.84,73.85,73.78,73.67,73.57,73.48,73.40,73.33,73.31,73.31,73.29,73.25,73.23,73.26,73.32,73.37,73.37,73.32,73.26,73.22,73.18,73.14,73.12,73.13,73.15,73.17,73.18,73.19,73.17,73.13,73.05,72.91,72.83,72.79,72.79,72.80,72.73,72.63,72.54,72.53,72.63,72.68,72.70,72.70,72.70,72.71,72.74,72.77,72.75,72.79,72.80,72.80,72.78,72.73,72.71,72.66,72.62,72.65,72.69,72.69,72.65,72.58,72.28,72.19,72.20,72.21,72.12,72.05,72.07,72.13,72.15,72.15,72.15,72.19,72.28,72.30,72.31,72.33,72.38,72.44,72.36,72.30,72.27,72.29,72.38,72.41,72.44,72.48,72.50,72.38,72.31,72.36,72.59,72.75,72.84,72.86,72.80,72.58,72.42,72.34,72.33,72.30,72.22,72.14,72.05,71.99,71.93,71.90,71.85,71.79,71.77,71.72,71.66,71.59,71.54,71.48,71.44,71.39,71.35,71.32,71.25,71.19,71.13,71.06,70.99,70.92,70.86,70.82,70.82,70.78,70.77,70.82,70.82,70.82,70.81,70.80,70.79,70.75,70.72,70.69,70.66,70.57,70.55,70.56,70.59,70.59,70.60,70.63,70.65,70.65,70.58,70.53,70.51,70.51,70.49,70.45,70.46,70.50,70.50,70.50,70.49,70.48,70.48,70.49,70.48,70.45,70.40,70.37,70.30,70.24,70.21,70.21,70.21,70.21,70.21,70.19,70.16,70.11,70.05,69.99,69.94,69.98,70.00,70.01,70.03,69.97,69.68,69.40,69.28,69.50,69.63,69.76,69.90,70.06,70.14,70.17,70.18,70.18,70.15,70.12,70.10,70.09,70.11,70.15,70.17,70.14,70.09,70.05,70.02,70.19,70.70,71.73,72.61,73.09,73.18,72.93,72.56,72.33,72.23,72.24,72.22,72.20,72.21,72.24,72.26
73.95,73.99,74.01,74.01,73.98,73.98,73.94,73.89,73.83,73.80,73.82,73.82,73.79,73.73,73.67,73.57,73.51,73.56,73.72,73.79,73.82,73.83,73.83,73.77,73.73,73.72,73.75,73.76,73.78,73.81,73.83,73.83,73.85,73.84,73.79,73.73,73.63,73.50,73.39,73.35,73.32,73.29,73.25,73.22,73.24,73.27,73.31,73.33,73.31,73.27,73.24,73.20,73.16,73.15,73.13,73.11,73.11,73.13,73.15,73.15,73.12,73.04,72.88,72.79,72.75,72.74,72.78,72.71,72.61,72.53,72.53,72.60,72.66,72.69,72.70,72.70,72.68,72.69,72.70,72.60,72.67,72.74,72.77,72.75,72.71,72.70,72.66,72.62,72.68,72.75,72.81,72.84,72.81,72.37,72.21,72.18,72.17,72.12,72.08,72.08,72.09,72.06,72.05,72.05,72.07,72.12,72.16,72.17,72.21,72.29,72.41,72.30,72.23,72.22,72.24,72.37,72.37,72.37,72.43,72.38,72.28,72.26,72.36,72.59,72.75,72.81,72.80,72.72,72.49,72.40,72.35,72.31,72.30,72.22,72.14,72.08,72.05,71.99,71.95,71.89,71.79,71.78,71.72,71.68,71.64,71.58,71.50,71.43,71.37,71.31,71.30,71.23,71.16,71.10,71.08,71.01,70.94,70.89,70.88,70.87,70.82,70.79,70.80,70.79,70.75,70.72,70.72,70.70,70.65,70.62,70.62,70.61,70.59,70.58,70.55,70.52,70.52,70.54,70.57,70.60,70.59,70.53,70.51,70.49,70.47,70.41,70.38,70.43,70.50,70.50,70.48,70.45,70.42,70.44,70.49,70.50,70.49,70.47,70.40,70.29,70.25,70.25,70.21,70.20,70.20,70.19,70.16,70.12,70.08,70.02,69.96,69.94,69.98,70.00,70.01,70.02,69.85,69.51,69.28,69.26,69.34,69.39,69.47,69.61,69.79,69.99,70.11,70.16,70.16,70.14,70.13,70.09,70.03,69.99,70.06,70.14,70.16,70.08,70.02,70.00,70.06,70.26,70.89,71.94,72.78,73.22,73.10,72.74,72.46,72.27,72.17,72.17,72.17,72.16,72.15,72.16
73.91,73.91,73.90,73.90,73.90,73.93,73.90,73.86,73.81,73.80,73.81,73.80,73.77,73.72,73.63,73.53,73.50,73.58,73.74,73.80,73.82,73.81,73.77,73.71,73.67,73.66,73.68,73.71,73.73,73.77,73.80,73.81,73.83,73.85,73.86,73.82,73.69,73.57,73.47,73.40,73.34,73.29,73.25,73.24,73.23,73.24,73.23,73.22,73.22,73.23,73.21,73.18,73.17,73.18,73.16,73.14,73.12,73.12,73.12,73.12,73.12,73.08,72.90,72.80,72.75,72.72,72.75,72.68,72.59,72.52,72.52,72.55,72.59,72.63,72.68,72.67,72.66,72.65,72.60,72.46,72.52,72.56,72.60,72.66,72.69,72.67,72.65,72.65,72.69,72.79,72.86,72.88,72.84,72.35,72.18,72.14,72.14,72.15,72.14,72.09,72.01,71.97,72.00,72.01,72.02,72.04,72.07,72.07,72.09,72.14,72.21,72.18,72.18,72.19,72.17,72.31,72.27,72.23,72.27,72.27,72.20,72.24,72.38,72.54,72.63,72.68,72.68,72.60,72.40,72.38,72.35,72.29,72.25,72.18,72.12,72.07,72.03,71.95,71.91,71.85,71.78,71.74,71.68,71.64,71.61,71.54,71.47,71.41,71.36,71.29,71.26,71.22,71.16,71.10,71.08,71.01,70.94,70.90,70.89,70.88,70.83,70.80,70.80,70.79,70.74,70.71,70.70,70.69,70.65,70.62,70.60,70.59,70.59,70.58,70.56,70.52,70.50,70.52,70.57,70.61,70.57,70.54,70.52,70.51,70.50,70.47,70.44,70.45,70.49,70.48,70.48,70.45,70.43,70.46,70.53,70.55,70.54,70.51,70.44,70.35,70.30,70.27,70.24,70.22,70.19,70.17,70.15,70.14,70.08,69.99,69.93,69.94,69.98,70.00,69.99,69.97,69.71,69.45,69.37,69.49,69.52,69.50,69.49,69.54,69.65,69.85,70.00,70.10,70.16,70.12,70.09,70.05,69.99,69.91,69.95,70.03,70.07,70.02,69.98,70.00,70.05,70.14,70.45,71.24,72.11,72.82,73.07,72.87,72.63,72.39,72.20,72.16,72.18,72.19,72.19,72.19
73.93,73.88,73.84,73.81,73.81,73.85,73.85,73.82,73.79,73.79,73.79,73.78,73.76,73.70,73.57,73.49,73.50,73.62,73.75,73.80,73.81,73.78,73.71,73.66,73.62,73.61,73.62,73.66,73.69,73.72,73.76,73.79,73.80,73.84,73.87,73.83,73.70,73.61,73.53,73.45,73.35,73.28,73.25,73.25,73.23,73.21,73.15,73.10,73.11,73.15,73.15,73.14,73.16,73.19,73.19,73.18,73.16,73.12,73.10,73.10,73.11,73.13,72.94,72.85,72.79,72.73,72.71,72.64,72.57,72.51,72.50,72.51,72.51,72.56,72.65,72.64,72.66,72.62,72.50,72.35,72.39,72.37,72.40,72.54,72.64,72.63,72.64,72.69,72.71,72.82,72.89,72.88,72.80,72.32,72.14,72.10,72.12,72.17,72.19,72.08,71.93,71.90,71.97,72.00,72.01,72.01,72.01,72.00,72.01,72.01,72.01,72.06,72.13,72.16,72.09,72.23,72.18,72.10,72.11,72.17,72.12,72.20,72.37,72.44,72.47,72.53,72.56,72.49,72.34,72.36,72.35,72.27,72.20,72.13,72.09,72.05,71.98,71.90,71.85,71.81,71.78,71.70,71.63,71.59,71.56,71.50,71.43,71.40,71.36,71.30,71.24,71.22,71.19,71.13,71.11,71.00,70.92,70.89,70.90,70.89,70.85,70.81,70.81,70.80,70.75,70.72,70.70,70.70,70.69,70.64,70.59,70.57,70.57,70.57,70.57,70.55,70.50,70.51,70.58,70.63,70.58,70.57,70.54,70.53,70.55,70.57,70.53,70.50,70.48,70.46,70.48,70.47,70.46,70.50,70.56,70.59,70.58,70.54,70.47,70.41,70.35,70.30,70.29,70.24,70.19,70.15,70.14,70.16,70.07,69.97,69.91,69.93,69.97,69.99,69.97,69.90,69.60,69.45,69.54,69.79,69.80,69.72,69.63,69.57,69.59,69.76,69.90,70.03,70.14,70.07,70.05,70.02,69.97,69.85,69.83,69.89,69.96,69.95,69.95,70.01,70.08,70.13,70.19,70.60,71.36,72.25,72.91,72.95,72.81,72.56,72.29,72.17,72.19,72.24,72.27,72.26
74.07,74.00,73.92,73.84,73.77,73.76,73.75,73.74,73.73,73.73,73.73,73.73,73.71,73.66,73.52,73.47,73.53,73.68,73.77,73.80,73.80,73.80,73.77,73.70,73.63,73.61,73.65,73.68,73.67,73.67,73.70,73.76,73.73,73.68,73.64,73.60,73.56,73.53,73.49,73.43,73.31,73.24,73.21,73.22,73.21,73.20,73.17,73.11,73.06,73.02,73.02,73.04,73.09,73.12,73.15,73.16,73.13,73.11,73.06,73.06,73.09,73.11,73.01,73.02,72.96,72.82,72.68,72.58,72.53,72.50,72.50,72.50,72.50,72.54,72.61,72.66,72.69,72.61,72.45,72.34,72.37,72.33,72.30,72.36,72.49,72.57,72.64,72.70,72.75,72.85,72.89,72.87,72.78,72.30,72.13,72.12,72.15,72.12,72.11,72.06,71.97,71.92,72.02,72.06,72.07,72.07,72.06,72.04,72.05,72.08,72.05,72.05,72.07,72.07,72.03,72.13,72.15,72.13,72.10,72.08,72.04,72.08,72.17,72.23,72.34,72.46,72.52,72.49,72.35,72.35,72.32,72.24,72.18,72.15,72.10,72.02,71.96,71.92,71.91,71.90,71.86,71.78,71.66,71.59,71.56,71.52,71.47,71.43,71.41,71.40,71.37,71.38,71.36,71.30,71.25,71.00,70.85,70.84,70.93,70.92,70.91,70.89,70.87,70.83,70.80,70.77,70.73,70.73,70.72,70.67,70.59,70.49,70.50,70.53,70.56,70.55,70.54,70.53,70.56,70.59,70.59,70.59,70.56,70.54,70.56,70.57,70.53,70.52,70.53,70.52,70.53,70.53,70.54,70.55,70.53,70.54,70.53,70.48,70.44,70.43,70.37,70.32,70.32,70.27,70.20,70.15,70.14,70.16,70.09,70.00,69.92,69.91,69.91,69.92,69.91,69.85,69.66,69.66,69.80,69.99,69.97,69.90,69.83,69.80,69.82,69.85,69.87,69.90,69.92,69.91,70.00,70.04,69.99,69.89,69.78,69.78,69.83,69.90,69.92,70.00,70.08,70.15,70.19,70.36,70.80,71.50,72.37,72.82,72.91,72.76,72.51,72.27,72.19,72.20,72.26,72.28
74.19,74.11,74.02,73.92,73.82,73.77,73.73,73.70,73.70,73.70,73.69,73.68,73.67,73.63,73.48,73.45,73.54,73.69,73.75,73.77,73.78,73.79,73.80,73.73,73.67,73.65,73.68,73.70,73.68,73.67,73.68,73.71,73.65,73.57,73.50,73.48,73.47,73.46,73.44,73.38,73.28,73.24,73.23,73.23,73.23,73.24,73.21,73.15,73.07,73.01,72.99,72.99,73.02,73.03,73.07,73.09,73.08,73.07,73.04,73.05,73.09,73.12,73.05,73.07,73.00,72.84,72.65,72.56,72.52,72.51,72.51,72.51,72.51,72.53,72.59,72.67,72.74,72.66,72.49,72.41,72.39,72.32,72.27,72.28,72.44,72.57,72.66,72.73,72.79,72.86,72.89,72.84,72.67,72.24,72.11,72.11,72.14,72.07,72.06,72.03,72.00,71.97,72.07,72.11,72.11,72.10,72.06,72.10,72.17,72.22,72.14,72.08,72.08,72.10,72.09,72.17,72.25,72.27,72.20,72.09,72.04,72.04,72.07,72.11,72.24,72.41,72.51,72.47,72.38,72.36,72.33,72.29,72.26,72.24,72.16,72.08,72.03,72.01,72.06,72.08,72.03,71.96,71.75,71.64,71.62,71.58,71.54,71.51,71.49,71.52,71.53,71.53,71.51,71.47,71.42,71.01,70.80,70.82,70.96,70.97,70.98,70.98,70.96,70.90,70.87,70.83,70.78,70.76,70.76,70.71,70.60,70.44,70.47,70.53,70.57,70.57,70.57,70.57,70.57,70.58,70.61,70.60,70.57,70.54,70.52,70.54,70.54,70.55,70.57,70.57,70.58,70.58,70.58,70.59,70.56,70.54,70.51,70.45,70.43,70.42,70.37,70.33,70.35,70.28,70.21,70.15,70.13,70.14,70.09,70.01,69.94,69.89,69.88,69.87,69.86,69.80,69.72,69.76,69.85,69.95,70.02,69.99,69.96,69.93,69.95,69.94,69.93,69.90,69.87,69.88,69.94,69.92,69.82,69.74,69.63,69.62,69.70,69.82,69.89,69.98,70.07,70.14,70.18,70.25,70.48,70.94,71.70,72.44,72.83,72.90,72.72,72.44,72.25,72.18,72.21,72.27
74.28,74.19,74.12,74.04,73.96,73.85,73.75,73.69,73.68,73.69,73.65,73.63,73.62,73.58,73.45,73.45,73.54,73.66,73.69,73.70,73.74,73.78,73.81,73.76,73.72,73.70,73.70,73.70,73.70,73.70,73.69,73.64,73.56,73.48,73.44,73.45,73.42,73.40,73.36,73.31,73.25,73.25,73.27,73.29,73.30,73.30,73.27,73.22,73.14,73.10,73.04,72.98,72.94,72.92,72.94,72.98,73.00,73.01,73.02,73.05,73.10,73.14,73.06,73.02,72.94,72.80,72.63,72.56,72.54,72.54,72.54,72.54,72.52,72.53,72.59,72.67,72.80,72.76,72.61,72.56,72.44,72.36,72.29,72.27,72.45,72.60,72.71,72.78,72.82,72.87,72.89,72.80,72.50,72.15,72.08,72.09,72.09,72.02,72.01,72.00,72.01,72.04,72.11,72.14,72.13,72.09,72.03,72.19,72.35,72.41,72.27,72.15,72.15,72.20,72.25,72.32,72.45,72.49,72.37,72.19,72.09,72.05,72.05,72.05,72.16,72.38,72.52,72.45,72.41,72.38,72.38,72.41,72.41,72.36,72.28,72.19,72.16,72.16,72.26,72.33,72.28,72.22,71.89,71.73,71.73,71.66,71.65,71.62,71.61,71.65,71.71,71.70,71.67,71.64,71.61,71.04,70.77,70.80,71.00,71.01,71.06,71.09,71.07,70.98,70.95,70.91,70.84,70.80,70.80,70.76,70.63,70.42,70.48,70.56,70.60,70.60,70.61,70.62,70.60,70.59,70.62,70.60,70.58,70.52,70.44,70.48,70.55,70.59,70.60,70.62,70.64,70.62,70.60,70.62,70.63,70.58,70.51,70.44,70.41,70.39,70.36,70.34,70.37,70.29,70.21,70.14,70.11,70.11,70.08,70.02,69.95,69.89,69.86,69.83,69.80,69.77,69.78,69.76,69.73,69.74,69.97,70.03,70.03,70.00,70.00,70.03,70.04,70.01,69.95,69.96,69.86,69.70,69.51,69.44,69.41,69.44,69.55,69.72,69.86,69.96,70.04,70.11,70.15,70.22,70.33,70.54,70.92,71.85,72.60,72.99,72.93,72.65,72.36,72.18,72.13,72.21
74.37,74.33,74.26,74.16,74.05,73.97,73.91,73.86,73.81,73.76,73.67,73.60,73.56,73.53,73.46,73.50,73.59,73.66,73.65,73.70,73.76,73.80,73.79,73.73,73.69,73.68,73.69,73.70,73.71,73.72,73.70,73.61,73.53,73.45,73.40,73.39,73.36,73.34,73.32,73.28,73.27,73.28,73.30,73.32,73.33,73.33,73.31,73.26,73.16,73.11,73.09,73.07,73.02,72.97,72.94,72.94,72.94,72.90,72.92,72.95,73.01,73.06,73.03,72.98,72.87,72.71,72.59,72.56,72.56,72.58,72.60,72.59,72.56,72.56,72.60,72.70,72.79,72.82,72.79,72.75,72.64,72.50,72.40,72.37,72.49,72.61,72.72,72.80,72.83,72.85,72.86,72.73,72.34,72.13,72.09,72.08,72.06,72.01,72.00,72.00,72.01,72.07,72.15,72.18,72.15,72.07,72.01,72.21,72.34,72.32,72.25,72.18,72.23,72.34,72.40,72.41,72.45,72.45,72.38,72.25,72.16,72.13,72.15,72.22,72.34,72.49,72.53,72.42,72.40,72.42,72.44,72.47,72.51,72.45,72.40,72.34,72.28,72.25,72.29,72.32,72.28,72.21,71.92,71.75,71.72,71.69,71.68,71.64,71.63,71.68,71.71,71.70,71.68,71.60,71.38,70.94,70.79,70.87,71.01,71.05,71.08,71.10,71.09,71.05,71.03,70.99,70.93,70.90,70.86,70.78,70.64,70.43,70.53,70.59,70.63,70.67,70.69,70.64,70.60,70.60,70.61,70.59,70.55,70.48,70.42,70.45,70.51,70.56,70.58,70.57,70.62,70.65,70.66,70.67,70.66,70.61,70.55,70.49,70.41,70.40,70.38,70.35,70.33,70.30,70.25,70.20,70.14,70.09,70.04,69.97,69.92,69.92,69.94,69.93,69.90,69.86,69.79,69.66,69.51,69.41,69.64,69.89,70.01,70.02,70.00,70.01,70.02,70.00,69.97,69.96,69.90,69.79,69.65,69.46,69.33,69.33,69.44,69.59,69.76,69.89,69.99,70.07,70.14,70.19,70.26,70.38,70.63,71.31,72.03,72.62,72.91,72.81,72.58,72.34,72.18,72.14
74.45,74.45,74.39,74.27,74.12,74.04,74.02,73.98,73.92,73.85,73.73,73.62,73.53,73.49,73.45,73.50,73.57,73.62,73.62,73.69,73.76,73.80,73.75,73.68,73.66,73.66,73.68,73.69,73.71,73.71,73.68,73.58,73.51,73.45,73.40,73.36,73.33,73.31,73.29,73.27,73.28,73.29,73.32,73.34,73.36,73.36,73.34,73.27,73.16,73.11,73.11,73.11,73.07,73.01,72.98,72.97,72.94,72.86,72.84,72.86,72.90,72.96,72.97,72.91,72.79,72.64,72.57,72.56,72.58,72.61,72.65,72.63,72.60,72.59,72.62,72.74,72.81,72.86,72.89,72.86,72.77,72.64,72.52,72.46,72.53,72.65,72.76,72.83,72.83,72.83,72.79,72.61,72.20,72.11,72.09,72.08,72.05,72.01,72.00,72.00,72.02,72.09,72.16,72.20,72.16,72.06,72.03,72.19,72.28,72.25,72.24,72.23,72.31,72.42,72.50,72.47,72.45,72.44,72.41,72.34,72.27,72.22,72.24,72.39,72.50,72.55,72.53,72.40,72.40,72.47,72.52,72.55,72.56,72.51,72.48,72.45,72.39,72.33,72.31,72.30,72.25,72.16,71.93,71.78,71.73,71.70,71.70,71.68,71.67,71.72,71.72,71.72,71.70,71.57,71.15,70.86,70.83,70.94,71.03,71.09,71.10,71.10,71.10,71.10,71.10,71.06,71.00,70.97,70.90,70.77,70.61,70.45,70.57,70.61,70.64,70.69,70.75,70.67,70.62,70.61,70.60,70.60,70.53,70.46,70.40,70.43,70.49,70.54,70.56,70.53,70.60,70.66,70.70,70.70,70.68,70.64,70.58,70.52,70.43,70.41,70.39,70.37,70.33,70.33,70.32,70.27,70.19,70.09,70.02,69.96,69.92,69.94,69.98,69.98,69.95,69.90,69.80,69.64,69.44,69.26,69.38,69.69,69.91,70.01,70.00,70.00,69.99,69.98,69.97,69.95,69.92,69.87,69.78,69.59,69.42,69.37,69.42,69.51,69.67,69.81,69.92,70.00,70.09,70.15,70.19,70.26,70.41,70.82,71.42,72.08,72.68,72.87,72.76,72.54,72.29,72.13
74.48,74.54,74.50,74.36,74.16,74.07,74.03,74.01,73.99,73.97,73.87,73.72,73.56,73.47,73.44,73.44,73.47,73.50,73.57,73.68,73.74,73.73,73.66,73.62,73.63,73.66,73.69,73.67,73.68,73.68,73.63,73.55,73.53,73.51,73.46,73.39,73.34,73.31,73.29,73.26,73.27,73.30,73.34,73.37,73.39,73.39,73.34,73.25,73.14,73.11,73.09,73.07,73.04,73.05,73.07,73.10,73.08,72.94,72.81,72.76,72.78,72.84,72.86,72.81,72.72,72.62,72.59,72.58,72.59,72.62,72.67,72.68,72.64,72.63,72.67,72.81,72.86,72.86,72.84,72.82,72.80,72.76,72.67,72.54,72.61,72.74,72.84,72.87,72.82,72.81,72.68,72.43,72.10,72.09,72.10,72.09,72.07,72.02,72.00,72.00,72.02,72.09,72.16,72.20,72.17,72.09,72.08,72.12,72.17,72.21,72.28,72.33,72.37,72.42,72.49,72.49,72.49,72.49,72.48,72.47,72.40,72.33,72.34,72.55,72.58,72.55,72.48,72.40,72.40,72.51,72.62,72.65,72.52,72.50,72.50,72.49,72.48,72.40,72.33,72.26,72.18,72.03,71.92,71.83,71.77,71.70,71.71,71.75,71.78,71.79,71.79,71.79,71.75,71.56,70.92,70.82,70.89,71.01,71.09,71.15,71.13,71.10,71.10,71.12,71.15,71.12,71.05,71.00,70.92,70.71,70.51,70.46,70.57,70.60,70.60,70.63,70.76,70.71,70.67,70.64,70.61,70.63,70.55,70.46,70.41,70.43,70.49,70.54,70.56,70.54,70.60,70.65,70.69,70.69,70.68,70.65,70.60,70.52,70.47,70.43,70.42,70.41,70.41,70.41,70.40,70.35,70.25,70.11,70.06,70.00,69.95,69.94,69.96,69.94,69.90,69.87,69.81,69.75,69.62,69.42,69.24,69.40,69.67,69.92,70.00,69.99,69.97,69.95,69.94,69.95,69.93,69.90,69.87,69.84,69.76,69.64,69.55,69.53,69.62,69.72,69.81,69.88,69.99,70.08,70.14,70.19,70.25,70.45,70.77,71.31,72.09,72.76,72.89,72.76,72.49,72.25
74.45,74.51,74.46,74.33,74.17,74.09,74.05,74.03,74.00,74.00,73.93,73.78,73.63,73.57,73.59,73.56,73.50,73.46,73.49,73.60,73.67,73.68,73.62,73.60,73.62,73.66,73.69,73.66,73.65,73.63,73.58,73.52,73.54,73.53,73.49,73.42,73.35,73.32,73.29,73.28,73.28,73.32,73.36,73.39,73.40,73.42,73.35,73.24,73.15,73.12,73.10,73.08,73.07,73.08,73.12,73.15,73.14,73.01,72.90,72.85,72.82,72.82,72.80,72.75,72.69,72.63,72.63,72.64,72.65,72.66,72.69,72.69,72.69,72.70,72.73,72.81,72.81,72.78,72.76,72.75,72.77,72.72,72.64,72.58,72.71,72.84,72.90,72.87,72.74,72.65,72.44,72.20,72.04,72.08,72.10,72.10,72.09,72.02,72.00,72.00,72.03,72.13,72.18,72.20,72.16,72.06,72.09,72.12,72.16,72.21,72.28,72.36,72.41,72.46,72.49,72.50,72.50,72.50,72.51,72.54,72.49,72.44,72.45,72.62,72.61,72.54,72.48,72.44,72.43,72.53,72.63,72.65,72.51,72.49,72.49,72.50,72.49,72.34,72.22,72.12,72.00,71.86,71.78,71.76,71.75,71.66,71.65,71.66,71.69,71.70,71.67,71.68,71.64,71.45,70.88,70.81,70.88,70.98,71.04,71.11,71.11,71.11,71.12,71.15,71.16,71.12,71.05,70.98,70.91,70.72,70.54,70.52,70.59,70.63,70.64,70.65,70.75,70.71,70.66,70.62,70.58,70.59,70.54,70.48,70.44,70.42,70.45,70.48,70.51,70.52,70.56,70.61,70.65,70.68,70.65,70.65,70.61,70.55,70.47,70.45,70.46,70.47,70.49,70.48,70.43,70.35,70.23,70.11,70.06,70.01,69.96,69.94,69.95,69.93,69.89,69.87,69.83,69.79,69.71,69.56,69.36,69.39,69.59,69.85,69.97,69.97,69.96,69.94,69.93,69.94,69.94,69.93,69.92,69.95,69.92,69.80,69.64,69.52,69.58,69.69,69.77,69.82,69.88,69.98,70.06,70.11,70.15,70.27,70.46,70.84,71.44,72.14,72.59,72.76,72.66,72.41
74.44,74.46,74.40,74.28,74.16,74.10,74.06,74.03,74.00,74.00,73.95,73.82,73.68,73.66,73.76,73.71,73.59,73.46,73.43,73.51,73.58,73.60,73.57,73.58,73.60,73.64,73.68,73.64,73.60,73.57,73.54,73.50,73.54,73.54,73.51,73.43,73.36,73.32,73.30,73.31,73.31,73.34,73.38,73.40,73.40,73.43,73.34,73.22,73.16,73.14,73.12,73.11,73.11,73.11,73.15,73.19,73.18,73.08,73.03,72.98,72.93,72.86,72.78,72.73,72.68,72.64,72.67,72.69,72.69,72.70,72.70,72.69,72.73,72.76,72.78,72.78,72.74,72.71,72.68,72.68,72.73,72.65,72.58,72.62,72.81,72.93,72.94,72.84,72.65,72.47,72.22,72.01,72.01,72.08,72.10,72.10,72.09,72.02,72.00,72.01,72.05,72.17,72.19,72.20,72.16,72.03,72.08,72.14,72.19,72.22,72.28,72.36,72.44,72.49,72.50,72.50,72.50,72.51,72.54,72.59,72.56,72.53,72.56,72.66,72.61,72.53,72.47,72.47,72.47,72.55,72.61,72.61,72.50,72.47,72.48,72.50,72.48,72.19,72.04,71.92,71.79,71.67,71.61,71.63,71.67,71.57,71.51,71.49,71.49,71.50,71.45,71.47,71.45,71.29,70.88,70.82,70.85,70.92,70.97,71.04,71.08,71.11,71.13,71.17,71.15,71.10,71.03,70.96,70.90,70.74,70.59,70.58,70.62,70.66,70.68,70.68,70.74,70.71,70.65,70.59,70.55,70.54,70.52,70.49,70.47,70.41,70.40,70.41,70.44,70.50,70.51,70.54,70.60,70.65,70.60,70.62,70.61,70.55,70.45,70.46,70.49,70.53,70.55,70.52,70.44,70.32,70.19,70.10,70.05,70.01,69.96,69.95,69.96,69.93,69.90,69.88,69.85,69.81,69.76,69.69,69.54,69.45,69.54,69.74,69.91,69.94,69.95,69.95,69.93,69.94,69.94,69.95,69.96,69.99,69.97,69.87,69.70,69.50,69.55,69.66,69.75,69.78,69.79,69.87,69.96,70.03,70.08,70.15,70.28,70.49,70.84,71.39,72.09,72.58,72.75,72.57
