67.93,67.86,67.79,67.80,67.80,67.74,67.59,67.57,67.46,67.40,67.37,67.33,67.38,67.39,67.35,67.27,67.10,66.94,67.02,67.31,67.37,67.39,67.42,67.46,67.49,67.67,67.70,67.62,67.49,67.45,67.38,67.36,67.37,67.36,67.46,67.49,67.46,67.37,67.31,67.31,67.37,67.45,67.49,67.48,67.46,67.43,67.39,67.27,67.11,67.02,67.04,67.02,66.97,66.91,66.82,66.70,66.63,66.59,66.42,65.91,64.58,63.63,63.26,63.41,63.50,63.47,63.42,63.36,63.26,63.20,63.16,63.13,63.08,63.00,62.98,63.01,63.10,63.22,63.32,63.35,63.33,63.29,63.31,63.34,63.35,63.34,63.42,63.57,63.68,63.74,63.76,63.90,64.00,64.06,64.07,63.87,63.16,62.39,61.76,61.49,61.43,61.37,61.27,61.11,61.09,61.25,61.43,61.55,61.62,61.69,61.79,61.95,62.27,62.67,63.16,63.70,64.28,65.05,66.03,66.93,67.62,68.02,68.43,68.62,68.64,68.59,68.47,68.44,68.46,68.51,68.56,68.72,68.93,69.19,69.48,69.73,70.02,70.36,70.73,70.95,71.11,71.27,71.44,71.55,71.48,71.52,71.56,71.48,71.09,70.86,70.80,70.89,71.01,71.22,71.40,71.50,71.48,71.53,71.55,71.54,71.50,71.55,71.56,71.54,71.50,71.48,71.49,71.49,71.50,71.50,71.49,71.44,71.37,71.32,71.40,71.37,71.35,71.35,71.30,71.26,71.20,71.17,71.21,71.13,71.09,71.10,71.14,71.08,70.99,70.88,70.83,70.88,70.89,70.90,70.90,70.90,70.90,70.89,70.89,70.90,70.90,70.90,70.90,70.90,70.90,70.88,70.78,70.75,70.84,70.86,70.87,70.88,70.90,70.90,70.81,70.79,70.79,70.79,70.81,70.76,70.65,70.50,70.41,70.38,70.43,70.50,70.51,70.50,70.42,70.36,70.34,70.21,70.10,70.07,70.10,70.12,70.08,70.04,69.99,69.93,69.91,69.91,69.93,69.99,70.06,70.04,70.04,70.03,69.97,69.93,69.94,69.98,70.05,70.11,70.13,70.10
67.93,67.83,67.72,67.70,67.67,67.62,67.57,67.57,67.50,67.42,67.38,67.37,67.38,67.38,67.36,67.30,67.09,66.91,66.96,67.20,67.26,67.27,67.30,67.38,67.49,67.65,67.65,67.56,67.47,67.45,67.42,67.40,67.40,67.34,67.44,67.51,67.50,67.39,67.30,67.30,67.38,67.48,67.47,67.44,67.42,67.40,67.37,67.23,67.06,66.94,66.91,66.88,66.82,66.73,66.63,66.54,66.48,66.43,66.28,65.88,64.58,63.56,63.13,63.27,63.37,63.33,63.26,63.16,63.04,62.95,62.89,62.84,62.80,62.78,62.78,62.82,62.89,63.00,63.16,63.25,63.29,63.26,63.22,62.99,62.80,62.79,63.03,63.05,62.95,62.80,62.66,62.74,62.80,62.89,63.00,62.89,62.37,61.83,61.43,61.30,61.27,61.20,61.07,60.86,60.81,61.06,61.35,61.52,61.55,61.63,61.71,61.80,61.94,62.30,62.72,63.18,63.70,64.55,65.71,66.83,67.72,68.24,68.73,69.07,69.25,69.29,69.03,68.80,68.66,68.60,68.61,68.72,68.84,68.96,69.13,69.33,69.60,69.94,70.31,70.65,70.95,71.20,71.40,71.53,71.43,71.52,71.56,71.18,70.89,70.73,70.74,70.89,71.04,71.26,71.49,71.64,71.60,71.63,71.59,71.55,71.55,71.64,71.65,71.57,71.44,71.40,71.43,71.46,71.49,71.50,71.46,71.39,71.35,71.35,71.44,71.37,71.36,71.40,71.30,71.25,71.21,71.21,71.26,71.18,71.19,71.19,71.17,71.17,71.00,70.90,70.85,70.82,70.84,70.87,70.90,70.90,70.90,70.86,70.86,70.90,70.90,70.90,70.90,70.90,70.90,70.88,70.77,70.72,70.74,70.71,70.70,70.71,70.71,70.71,70.65,70.69,70.73,70.73,70.76,70.76,70.67,70.50,70.35,70.38,70.45,70.50,70.50,70.51,70.48,70.45,70.43,70.34,70.28,70.21,70.15,70.14,70.20,70.21,70.16,70.07,69.97,69.91,69.87,69.86,69.90,69.93,69.95,69.94,69.92,69.91,69.91,69.94,70.00,70.11,70.15,70.12
67.90,67.81,67.71,67.68,67.64,67.61,67.59,67.59,67.50,67.42,67.36,67.35,67.35,67.35,67.33,67.28,67.09,66.91,66.90,67.06,67.16,67.20,67.25,67.33,67.48,67.61,67.60,67.53,67.44,67.42,67.41,67.39,67.36,67.31,67.40,67.45,67.45,67.35,67.27,67.28,67.36,67.46,67.45,67.42,67.40,67.38,67.34,67.18,66.99,66.83,66.74,66.65,66.52,66.39,66.27,66.17,66.04,65.93,65.74,65.36,64.23,63.34,62.95,63.05,63.15,63.11,63.02,62.91,62.81,62.73,62.68,62.64,62.60,62.57,62.55,62.54,62.55,62.61,62.75,62.86,62.92,62.89,62.79,62.50,62.27,62.26,62.48,62.42,62.20,61.91,61.68,61.74,61.81,61.90,62.02,61.98,61.70,61.42,61.24,61.20,61.14,61.03,60.86,60.60,60.62,60.96,61.30,61.47,61.50,61.58,61.65,61.71,61.78,62.00,62.27,62.63,63.15,64.05,65.36,66.63,67.65,68.27,68.79,69.22,69.52,69.67,69.48,69.25,69.04,68.89,68.83,68.88,68.90,68.92,69.01,69.18,69.38,69.61,69.89,70.23,70.58,70.90,71.17,71.38,71.30,71.34,71.30,70.92,70.74,70.67,70.72,70.85,70.98,71.28,71.57,71.75,71.71,71.69,71.66,71.62,71.58,71.65,71.61,71.52,71.41,71.38,71.40,71.43,71.46,71.46,71.43,71.35,71.30,71.34,71.43,71.35,71.34,71.38,71.34,71.25,71.23,71.23,71.21,71.19,71.24,71.24,71.18,71.16,71.04,70.96,70.92,70.88,70.85,70.83,70.82,70.83,70.86,70.85,70.87,70.90,70.90,70.90,70.90,70.90,70.90,70.89,70.80,70.72,70.70,70.67,70.66,70.67,70.67,70.66,70.61,70.63,70.66,70.64,70.67,70.68,70.61,70.48,70.40,70.43,70.46,70.48,70.50,70.50,70.48,70.49,70.50,70.43,70.39,70.34,70.28,70.24,70.25,70.23,70.20,70.14,70.06,69.99,69.94,69.89,69.85,69.88,69.89,69.88,69.86,69.86,69.86,69.89,69.97,70.09,70.14,70.11
67.85,67.78,67.73,67.69,67.66,67.65,67.65,67.62,67.49,67.39,67.33,67.30,67.30,67.30,67.29,67.25,67.11,66.93,66.85,66.90,67.07,67.16,67.23,67.30,67.46,67.57,67.57,67.50,67.40,67.37,67.37,67.35,67.30,67.28,67.34,67.36,67.33,67.27,67.24,67.25,67.32,67.41,67.43,67.41,67.39,67.36,67.30,67.14,66.92,66.71,66.55,66.33,66.12,65.95,65.81,65.66,65.43,65.21,64.94,64.53,63.67,63.02,62.73,62.78,62.87,62.84,62.75,62.63,62.56,62.53,62.52,62.51,62.46,62.38,62.29,62.21,62.15,62.14,62.20,62.29,62.36,62.31,62.14,61.91,61.74,61.71,61.82,61.71,61.43,61.07,60.80,60.87,60.95,61.04,61.11,61.11,61.12,61.12,61.12,61.15,61.03,60.87,60.64,60.34,60.51,60.92,61.27,61.42,61.46,61.54,61.60,61.64,61.73,61.75,61.82,62.07,62.63,63.57,64.99,66.36,67.47,68.17,68.70,69.17,69.57,69.85,69.85,69.73,69.52,69.28,69.17,69.15,69.07,68.98,69.04,69.18,69.28,69.36,69.47,69.75,70.10,70.47,70.82,71.13,71.13,71.04,70.88,70.66,70.62,70.65,70.72,70.80,70.89,71.29,71.64,71.84,71.81,71.74,71.74,71.72,71.61,71.61,71.51,71.42,71.40,71.40,71.40,71.40,71.40,71.40,71.40,71.30,71.25,71.31,71.39,71.34,71.30,71.32,71.39,71.26,71.26,71.24,71.11,71.18,71.26,71.26,71.19,71.11,71.10,71.05,71.00,71.00,70.91,70.79,70.70,70.71,70.79,70.86,70.90,70.90,70.90,70.90,70.90,70.90,70.90,70.89,70.83,70.76,70.70,70.69,70.70,70.71,70.71,70.70,70.64,70.61,70.58,70.53,70.57,70.56,70.50,70.44,70.50,70.49,70.47,70.46,70.50,70.48,70.46,70.48,70.55,70.49,70.45,70.46,70.47,70.38,70.25,70.18,70.16,70.16,70.16,70.12,70.07,70.01,69.87,69.86,69.85,69.83,69.80,69.79,69.80,69.85,69.94,70.05,70.11,70.07
67.83,67.78,67.77,67.72,67.69,67.66,67.63,67.64,67.52,67.42,67.36,67.33,67.32,67.34,67.36,67.37,67.26,67.00,66.82,66.83,67.06,67.13,67.18,67.25,67.38,67.43,67.46,67.44,67.39,67.38,67.38,67.36,67.30,67.24,67.27,67.28,67.26,67.22,67.20,67.21,67.29,67.40,67.39,67.36,67.34,67.32,67.27,67.05,66.68,66.31,66.01,65.77,65.56,65.36,65.16,64.88,64.58,64.33,64.06,63.70,63.15,62.76,62.59,62.62,62.65,62.61,62.53,62.47,62.46,62.45,62.45,62.43,62.35,62.20,62.09,62.02,62.00,61.99,61.97,61.97,61.98,61.94,61.51,61.07,60.81,60.78,60.84,60.82,60.72,60.62,60.59,60.76,60.86,60.90,60.91,60.91,60.94,61.00,61.07,61.11,60.94,60.69,60.44,60.30,60.53,60.84,61.10,61.25,61.36,61.46,61.54,61.61,61.73,61.64,61.64,61.85,62.38,63.29,64.76,66.15,67.20,67.76,68.35,68.87,69.31,69.66,69.77,69.82,69.81,69.77,69.87,69.75,69.53,69.29,69.15,69.20,69.31,69.42,69.50,69.68,69.90,70.14,70.40,70.69,70.81,70.77,70.64,70.51,70.52,70.61,70.71,70.83,71.05,71.42,71.71,71.85,71.81,71.78,71.78,71.76,71.67,71.59,71.49,71.43,71.42,71.47,71.47,71.46,71.44,71.35,71.35,71.30,71.27,71.31,71.37,71.38,71.35,71.32,71.33,71.30,71.27,71.27,71.26,71.25,71.24,71.21,71.17,71.21,71.14,71.09,71.05,71.00,70.92,70.79,70.71,70.73,70.79,70.81,70.83,70.85,70.90,70.90,70.90,70.90,70.90,70.88,70.82,70.75,70.71,70.68,70.71,70.74,70.75,70.76,70.74,70.70,70.65,70.60,70.54,70.51,70.48,70.46,70.48,70.50,70.52,70.52,70.50,70.49,70.47,70.47,70.50,70.51,70.49,70.50,70.49,70.41,70.37,70.33,70.29,70.26,70.20,70.15,70.11,70.07,70.01,69.97,69.91,69.84,69.81,69.76,69.74,69.77,69.86,69.97,69.99,69.93
67.85,67.81,67.83,67.76,67.71,67.66,67.62,67.65,67.53,67.44,67.39,67.36,67.36,67.40,67.45,67.47,67.38,67.11,66.85,66.74,66.98,67.06,67.10,67.16,67.29,67.36,67.39,67.40,67.38,67.36,67.36,67.34,67.29,67.21,67.22,67.22,67.20,67.16,67.14,67.17,67.24,67.34,67.33,67.30,67.28,67.24,67.16,66.87,66.43,65.98,65.61,65.35,65.11,64.88,64.64,64.29,63.98,63.74,63.51,63.19,62.83,62.58,62.45,62.44,62.45,62.43,62.39,62.35,62.38,62.38,62.33,62.23,62.09,61.91,61.78,61.72,61.72,61.72,61.67,61.63,61.59,61.48,60.94,60.46,60.20,60.19,60.25,60.28,60.29,60.31,60.43,60.66,60.78,60.82,60.80,60.78,60.82,60.90,60.99,61.05,60.84,60.54,60.32,60.32,60.60,60.82,60.99,61.13,61.26,61.36,61.45,61.54,61.65,61.56,61.54,61.75,62.28,63.21,64.61,65.89,66.82,67.36,67.99,68.56,69.06,69.46,69.68,69.85,69.97,70.06,70.29,70.18,69.90,69.58,69.36,69.34,69.41,69.51,69.56,69.65,69.79,69.94,70.12,70.34,70.51,70.53,70.47,70.42,70.47,70.59,70.73,70.88,71.24,71.54,71.75,71.83,71.81,71.81,71.81,71.78,71.70,71.61,71.52,71.47,71.47,71.54,71.52,71.51,71.46,71.35,71.34,71.31,71.29,71.31,71.35,71.40,71.39,71.33,71.30,71.33,71.31,71.29,71.32,71.27,71.22,71.17,71.16,71.25,71.17,71.12,71.09,71.03,70.93,70.79,70.72,70.77,70.81,70.77,70.77,70.82,70.90,70.90,70.90,70.90,70.89,70.84,70.79,70.76,70.74,70.72,70.74,70.76,70.78,70.81,70.80,70.76,70.73,70.68,70.59,70.54,70.51,70.49,70.47,70.50,70.54,70.56,70.52,70.50,70.47,70.46,70.49,70.54,70.53,70.52,70.50,70.42,70.42,70.39,70.37,70.33,70.27,70.22,70.17,70.14,70.13,70.04,69.94,69.86,69.83,69.77,69.71,69.70,69.75,69.84,69.87,69.83
67.93,67.90,67.93,67.80,67.72,67.66,67.62,67.65,67.54,67.45,67.40,67.40,67.42,67.50,67.57,67.55,67.47,67.27,66.93,66.61,66.80,66.94,66.99,67.03,67.20,67.35,67.40,67.39,67.37,67.32,67.31,67.30,67.26,67.20,67.20,67.19,67.15,67.08,67.06,67.10,67.17,67.22,67.22,67.21,67.19,67.11,66.94,66.56,66.16,65.75,65.39,65.09,64.80,64.55,64.30,63.96,63.72,63.55,63.38,63.11,62.76,62.49,62.31,62.24,62.26,62.32,62.32,62.29,62.30,62.30,62.13,61.88,61.62,61.47,61.32,61.26,61.28,61.30,61.29,61.27,61.17,60.89,60.45,60.15,60.01,60.05,60.17,60.21,60.20,60.21,60.31,60.57,60.73,60.80,60.79,60.75,60.76,60.82,60.90,60.95,60.73,60.44,60.28,60.44,60.72,60.88,60.98,61.06,61.15,61.24,61.32,61.40,61.49,61.51,61.56,61.81,62.38,63.40,64.59,65.57,66.28,66.97,67.62,68.25,68.82,69.25,69.57,69.79,69.96,70.11,70.32,70.37,70.18,69.86,69.67,69.63,69.61,69.62,69.68,69.70,69.80,69.91,70.01,70.11,70.23,70.33,70.40,70.43,70.48,70.61,70.77,70.98,71.45,71.66,71.76,71.80,71.80,71.82,71.82,71.78,71.71,71.69,71.62,71.56,71.55,71.61,71.57,71.52,71.48,71.40,71.39,71.33,71.30,71.33,71.31,71.40,71.41,71.35,71.30,71.37,71.37,71.32,71.26,71.22,71.18,71.15,71.15,71.20,71.17,71.15,71.13,71.09,70.94,70.79,70.74,70.84,70.84,70.76,70.75,70.82,70.90,70.90,70.90,70.90,70.88,70.78,70.76,70.77,70.80,70.83,70.81,70.78,70.79,70.84,70.81,70.80,70.79,70.78,70.76,70.68,70.60,70.53,70.47,70.47,70.53,70.58,70.55,70.53,70.47,70.46,70.52,70.58,70.56,70.52,70.47,70.41,70.38,70.36,70.35,70.37,70.37,70.32,70.27,70.23,70.21,70.05,69.94,69.89,69.87,69.82,69.74,69.65,69.59,69.65,69.74,69.75
67.90,67.88,67.87,67.79,67.73,67.71,67.72,67.72,67.62,67.52,67.44,67.40,67.43,67.50,67.57,67.58,67.53,67.35,66.98,66.58,66.73,66.86,66.93,67.00,67.14,67.27,67.35,67.39,67.38,67.33,67.30,67.29,67.27,67.23,67.20,67.19,67.17,67.14,67.10,67.08,67.09,67.13,67.14,67.10,67.03,66.90,66.68,66.37,66.03,65.68,65.32,64.99,64.67,64.39,64.13,63.83,63.60,63.39,63.19,62.96,62.65,62.39,62.22,62.15,62.19,62.22,62.22,62.19,62.19,62.18,61.99,61.69,61.37,61.21,61.05,60.97,60.95,60.96,60.92,60.87,60.76,60.55,60.28,60.13,60.09,60.14,60.19,60.21,60.20,60.21,60.32,60.58,60.73,60.78,60.74,60.70,60.72,60.77,60.82,60.84,60.61,60.42,60.39,60.62,60.80,60.88,60.93,60.99,61.05,61.13,61.19,61.23,61.25,61.28,61.41,61.76,62.38,63.13,63.90,64.53,65.07,65.76,66.67,67.65,68.52,69.08,69.39,69.64,69.85,70.06,70.25,70.36,70.28,70.08,69.92,69.94,69.97,70.03,70.11,69.99,69.94,69.96,70.04,70.11,70.20,70.29,70.37,70.43,70.50,70.64,70.86,71.18,71.54,71.66,71.72,71.76,71.77,71.81,71.82,71.79,71.74,71.71,71.67,71.64,71.65,71.72,71.67,71.60,71.52,71.44,71.41,71.37,71.36,71.37,71.34,71.39,71.40,71.35,71.30,71.37,71.36,71.31,71.27,71.21,71.18,71.17,71.19,71.20,71.17,71.17,71.15,71.07,70.91,70.82,70.80,70.84,70.83,70.77,70.75,70.77,70.82,70.85,70.88,70.87,70.81,70.74,70.76,70.77,70.78,70.87,70.85,70.81,70.78,70.80,70.80,70.83,70.84,70.83,70.81,70.74,70.68,70.60,70.52,70.46,70.48,70.52,70.54,70.55,70.49,70.44,70.45,70.54,70.54,70.54,70.53,70.49,70.43,70.36,70.33,70.34,70.35,70.32,70.30,70.29,70.31,70.20,70.08,69.98,69.91,69.81,69.71,69.65,69.65,69.69,69.73,69.75
67.86,67.83,67.80,67.77,67.74,67.75,67.80,67.77,67.68,67.58,67.48,67.41,67.42,67.49,67.56,67.59,67.55,67.37,66.99,66.55,66.67,66.79,66.89,66.98,67.09,67.18,67.29,67.37,67.38,67.35,67.30,67.28,67.28,67.24,67.18,67.18,67.20,67.19,67.13,67.06,67.04,67.07,67.06,66.98,66.86,66.68,66.47,66.22,65.94,65.62,65.26,64.90,64.58,64.27,63.99,63.73,63.48,63.23,63.00,62.79,62.51,62.27,62.12,62.07,62.13,62.13,62.11,62.07,62.04,62.00,61.79,61.49,61.17,61.00,60.84,60.73,60.68,60.66,60.59,60.51,60.40,60.28,60.17,60.14,60.16,60.20,60.21,60.23,60.22,60.23,60.34,60.57,60.70,60.73,60.68,60.65,60.68,60.72,60.74,60.72,60.48,60.41,60.52,60.75,60.84,60.85,60.87,60.92,60.97,61.02,61.05,61.05,61.01,61.04,61.22,61.61,62.21,62.65,63.03,63.36,63.72,64.30,65.48,66.89,68.17,68.89,69.20,69.47,69.74,69.99,70.17,70.32,70.33,70.25,70.14,70.22,70.32,70.42,70.50,70.29,70.11,70.05,70.10,70.15,70.23,70.30,70.37,70.44,70.53,70.66,70.93,71.32,71.56,71.61,71.65,71.70,71.74,71.80,71.81,71.80,71.77,71.72,71.70,71.71,71.74,71.82,71.77,71.67,71.56,71.49,71.45,71.43,71.42,71.40,71.38,71.40,71.41,71.39,71.35,71.39,71.35,71.30,71.29,71.22,71.18,71.19,71.22,71.19,71.18,71.17,71.14,71.03,70.88,70.86,70.86,70.83,70.83,70.81,70.78,70.75,70.74,70.78,70.84,70.84,70.73,70.71,70.75,70.76,70.75,70.86,70.85,70.81,70.77,70.76,70.79,70.83,70.86,70.85,70.81,70.77,70.72,70.65,70.59,70.49,70.45,70.47,70.51,70.54,70.49,70.43,70.40,70.49,70.52,70.55,70.58,70.55,70.47,70.38,70.32,70.32,70.31,70.30,70.31,70.33,70.39,70.35,70.24,70.10,69.97,69.82,69.71,69.67,69.70,69.75,69.74,69.76
67.81,67.78,67.79,67.76,67.75,67.77,67.81,67.72,67.63,67.56,67.51,67.43,67.43,67.49,67.55,67.54,67.42,67.19,66.85,66.51,66.54,66.69,66.84,66.96,67.01,67.10,67.21,67.30,67.36,67.33,67.29,67.27,67.26,67.18,67.12,67.14,67.18,67.17,67.10,67.05,67.04,67.06,66.97,66.83,66.68,66.52,66.37,66.14,65.84,65.50,65.14,64.80,64.50,64.19,63.87,63.57,63.30,63.04,62.81,62.62,62.34,62.11,61.97,61.93,62.02,62.06,62.00,61.89,61.81,61.65,61.39,61.13,60.94,60.82,60.68,60.57,60.51,60.48,60.39,60.28,60.19,60.12,60.08,60.07,60.08,60.09,60.13,60.22,60.25,60.25,60.29,60.48,60.58,60.62,60.61,60.59,60.59,60.62,60.62,60.56,60.37,60.41,60.58,60.76,60.77,60.77,60.80,60.86,60.91,60.91,60.88,60.83,60.75,60.86,61.01,61.25,61.59,61.79,62.01,62.21,62.38,62.56,63.87,65.80,67.64,68.63,69.03,69.34,69.64,69.94,70.17,70.29,70.32,70.31,70.30,70.42,70.52,70.58,70.60,70.47,70.28,70.18,70.19,70.24,70.31,70.38,70.45,70.52,70.57,70.65,70.89,71.28,71.44,71.47,71.51,71.60,71.74,71.79,71.80,71.80,71.79,71.72,71.70,71.70,71.74,71.85,71.82,71.71,71.60,71.56,71.55,71.54,71.50,71.41,71.40,71.44,71.49,71.53,71.52,71.44,71.35,71.30,71.29,71.22,71.20,71.20,71.20,71.14,71.17,71.13,71.02,70.93,70.90,70.93,70.91,70.81,70.87,70.88,70.86,70.83,70.72,70.67,70.74,70.79,70.71,70.70,70.71,70.72,70.71,70.74,70.74,70.73,70.74,70.78,70.74,70.78,70.82,70.81,70.79,70.74,70.67,70.63,70.67,70.63,70.55,70.47,70.44,70.44,70.43,70.43,70.45,70.44,70.50,70.55,70.56,70.51,70.48,70.43,70.38,70.37,70.32,70.31,70.31,70.34,70.41,70.42,70.36,70.25,70.13,69.92,69.79,69.69,69.64,69.73,69.76,69.75
67.80,67.78,67.79,67.77,67.77,67.79,67.80,67.67,67.57,67.52,67.49,67.45,67.43,67.48,67.52,67.48,67.36,67.14,66.83,66.51,66.43,66.61,66.79,66.91,66.95,67.02,67.11,67.20,67.28,67.32,67.31,67.29,67.25,67.15,67.06,67.06,67.10,67.12,67.08,67.06,67.05,67.04,66.94,66.80,66.65,66.51,66.39,66.17,65.85,65.49,65.12,64.77,64.47,64.15,63.81,63.44,63.13,62.90,62.68,62.45,62.13,61.93,61.81,61.75,61.79,61.81,61.74,61.59,61.44,61.22,61.01,60.85,60.78,60.71,60.59,60.49,60.42,60.38,60.26,60.13,60.03,60.00,60.01,60.01,60.01,60.00,60.06,60.18,60.22,60.22,60.25,60.40,60.49,60.54,60.55,60.52,60.55,60.60,60.61,60.49,60.31,60.37,60.57,60.71,60.71,60.72,60.75,60.79,60.82,60.80,60.75,60.68,60.62,60.80,60.94,61.08,61.26,61.37,61.55,61.71,61.81,61.80,63.20,65.21,67.15,68.32,68.82,69.24,69.61,69.93,70.12,70.24,70.31,70.35,70.37,70.48,70.55,70.58,70.58,70.52,70.39,70.31,70.33,70.33,70.39,70.44,70.50,70.57,70.61,70.69,70.84,71.09,71.24,71.32,71.39,71.48,71.66,71.73,71.77,71.78,71.76,71.71,71.72,71.73,71.73,71.83,71.79,71.72,71.65,71.63,71.62,71.60,71.53,71.41,71.40,71.43,71.49,71.55,71.58,71.51,71.43,71.35,71.30,71.26,71.23,71.21,71.19,71.15,71.18,71.13,71.02,70.94,70.99,71.00,70.95,70.86,70.93,70.91,70.90,70.87,70.75,70.67,70.70,70.73,70.66,70.68,70.68,70.68,70.71,70.73,70.72,70.71,70.72,70.74,70.70,70.72,70.76,70.78,70.75,70.70,70.64,70.61,70.67,70.69,70.63,70.54,70.45,70.41,70.40,70.42,70.46,70.42,70.48,70.52,70.52,70.49,70.48,70.46,70.43,70.41,70.36,70.34,70.33,70.33,70.39,70.39,70.33,70.25,70.17,70.01,69.91,69.81,69.73,69.74,69.74,69.71
67.82,67.80,67.80,67.80,67.81,67.81,67.78,67.61,67.53,67.48,67.46,67.48,67.44,67.45,67.47,67.42,67.34,67.17,66.89,66.54,66.32,66.55,66.73,66.83,66.90,66.94,67.00,67.07,67.16,67.30,67.33,67.30,67.23,67.12,66.99,66.97,67.01,67.06,67.07,67.07,67.06,67.03,66.94,66.83,66.71,66.59,66.49,66.25,65.91,65.53,65.15,64.78,64.45,64.14,63.79,63.34,62.97,62.76,62.58,62.27,61.90,61.73,61.64,61.54,61.50,61.47,61.38,61.22,61.00,60.77,60.65,60.62,60.64,60.64,60.56,60.45,60.36,60.32,60.17,60.02,59.91,59.91,59.95,59.96,59.94,59.92,60.00,60.11,60.16,60.17,60.22,60.32,60.41,60.47,60.50,60.45,60.52,60.61,60.65,60.48,60.27,60.32,60.52,60.65,60.66,60.68,60.70,60.71,60.71,60.71,60.65,60.58,60.57,60.79,60.93,61.02,61.08,61.20,61.39,61.56,61.64,61.56,63.00,64.87,66.68,67.98,68.58,69.14,69.60,69.92,70.04,70.18,70.29,70.37,70.40,70.45,70.48,70.49,70.49,70.50,70.45,70.44,70.47,70.43,70.47,70.50,70.53,70.60,70.66,70.74,70.79,70.84,71.01,71.17,71.27,71.35,71.54,71.64,71.72,71.74,71.69,71.69,71.74,71.76,71.73,71.79,71.74,71.71,71.70,71.67,71.67,71.62,71.52,71.40,71.40,71.41,71.45,71.51,71.59,71.60,71.53,71.42,71.31,71.32,71.28,71.23,71.20,71.20,71.20,71.14,71.06,71.00,71.12,71.07,70.97,70.93,70.99,70.94,70.90,70.88,70.80,70.73,70.69,70.66,70.61,70.66,70.65,70.66,70.72,70.78,70.74,70.72,70.71,70.67,70.67,70.67,70.70,70.75,70.71,70.67,70.63,70.59,70.64,70.70,70.70,70.63,70.50,70.41,70.39,70.41,70.45,70.42,70.47,70.48,70.47,70.47,70.48,70.48,70.46,70.44,70.41,70.39,70.35,70.32,70.35,70.30,70.22,70.16,70.15,70.09,70.04,69.97,69.88,69.78,69.72,69.66
67.81,67.80,67.80,67.80,67.80,67.80,67.77,67.66,67.58,67.52,67.48,67.48,67.43,67.42,67.43,67.42,67.43,67.33,67.03,66.57,66.16,66.37,66.59,66.72,66.78,66.79,66.78,66.81,66.90,67.08,67.10,67.08,67.05,66.97,66.97,67.00,67.06,67.12,67.10,67.09,67.08,67.05,66.97,66.89,66.83,66.76,66.64,66.32,65.98,65.62,65.23,64.85,64.50,64.14,63.72,63.15,62.67,62.39,62.15,61.77,61.50,61.51,61.49,61.34,61.20,61.10,60.99,60.87,60.74,60.68,60.63,60.58,60.54,60.54,60.48,60.38,60.28,60.24,60.12,59.98,59.87,59.87,59.91,59.92,59.91,59.92,59.99,60.06,60.11,60.15,60.24,60.28,60.31,60.34,60.37,60.38,60.47,60.57,60.63,60.53,60.25,60.29,60.49,60.66,60.66,60.67,60.69,60.69,60.70,60.69,60.64,60.56,60.54,60.74,60.86,60.96,61.08,61.20,61.32,61.41,61.45,61.43,62.42,64.09,65.96,67.46,68.12,68.69,69.21,69.66,69.86,70.01,70.10,70.18,70.35,70.37,70.37,70.37,70.37,70.45,70.44,70.44,70.48,70.49,70.56,70.60,70.62,70.67,70.71,70.76,70.83,70.92,71.01,71.11,71.20,71.31,71.49,71.59,71.64,71.64,71.60,71.62,71.68,71.74,71.77,71.79,71.75,71.74,71.70,71.58,71.55,71.52,71.46,71.37,71.41,71.45,71.48,71.51,71.59,71.56,71.46,71.35,71.33,71.37,71.34,71.27,71.18,71.17,71.19,71.14,71.06,71.00,71.02,71.01,70.99,70.98,71.00,70.95,70.92,70.88,70.77,70.72,70.68,70.66,70.63,70.65,70.65,70.65,70.67,70.76,70.77,70.77,70.73,70.62,70.64,70.63,70.64,70.72,70.70,70.67,70.66,70.66,70.69,70.72,70.70,70.62,70.49,70.42,70.46,70.51,70.51,70.42,70.44,70.44,70.42,70.42,70.42,70.42,70.42,70.42,70.40,70.38,70.33,70.26,70.27,70.21,70.15,70.12,70.12,70.12,70.06,69.99,69.90,69.76,69.73,69.71
67.78,67.77,67.77,67.77,67.77,67.76,67.75,67.69,67.63,67.58,67.52,67.46,67.41,67.39,67.39,67.41,67.45,67.42,67.17,66.67,66.00,66.14,66.37,66.55,66.62,66.64,66.58,66.57,66.67,66.85,66.87,66.89,66.92,66.93,67.01,67.05,67.09,67.16,67.11,67.09,67.07,67.04,66.98,66.94,66.91,66.87,66.76,66.36,65.87,65.36,64.89,64.51,64.17,63.77,63.27,62.62,62.10,61.76,61.47,61.10,61.02,61.16,61.21,61.06,60.93,60.82,60.72,60.64,60.58,60.59,60.57,60.51,60.44,60.43,60.37,60.29,60.22,60.20,60.08,59.93,59.83,59.84,59.88,59.90,59.89,59.90,59.96,60.02,60.08,60.15,60.25,60.25,60.26,60.27,60.30,60.32,60.40,60.49,60.56,60.52,60.21,60.21,60.43,60.65,60.64,60.64,60.65,60.65,60.66,60.65,60.60,60.53,60.47,60.67,60.83,60.95,61.06,61.17,61.24,61.28,61.30,61.31,61.93,63.39,65.28,67.02,67.82,68.37,68.86,69.33,69.57,69.79,69.93,70.05,70.21,70.21,70.20,70.20,70.23,70.37,70.41,70.45,70.52,70.58,70.67,70.71,70.72,70.76,70.80,70.82,70.88,70.99,71.02,71.09,71.18,71.28,71.41,71.51,71.56,71.57,71.56,71.60,71.66,71.73,71.79,71.80,71.77,71.75,71.69,71.54,71.50,71.47,71.44,71.40,71.44,71.48,71.50,71.51,71.56,71.51,71.41,71.33,71.36,71.39,71.37,71.28,71.17,71.16,71.19,71.15,71.07,71.00,70.97,70.98,71.00,71.00,70.98,70.95,70.91,70.85,70.74,70.71,70.67,70.64,70.66,70.65,70.65,70.64,70.62,70.71,70.76,70.79,70.77,70.66,70.67,70.63,70.64,70.72,70.70,70.68,70.68,70.70,70.69,70.70,70.65,70.56,70.45,70.46,70.52,70.56,70.53,70.42,70.42,70.42,70.40,70.40,70.39,70.38,70.38,70.38,70.37,70.35,70.30,70.24,70.22,70.18,70.14,70.12,70.12,70.10,70.05,69.99,69.89,69.73,69.72,69.75
67.75,67.71,67.71,67.70,67.70,67.70,67.71,67.70,67.69,67.66,67.59,67.41,67.38,67.35,67.34,67.38,67.40,67.45,67.32,66.86,65.83,65.85,66.08,66.30,66.40,66.50,66.42,66.37,66.48,66.60,66.65,66.72,66.84,67.03,67.10,67.10,67.10,67.16,67.10,67.07,67.03,67.00,66.99,66.97,66.94,66.91,66.84,66.34,65.55,64.72,64.06,63.71,63.41,62.98,62.39,61.69,61.24,60.85,60.52,60.25,60.47,60.67,60.76,60.71,60.69,60.64,60.57,60.53,60.53,60.51,60.45,60.38,60.35,60.30,60.22,60.17,60.17,60.20,60.06,59.90,59.80,59.82,59.87,59.89,59.88,59.86,59.89,59.99,60.09,60.17,60.24,60.25,60.26,60.27,60.28,60.27,60.31,60.37,60.44,60.44,60.13,60.10,60.30,60.60,60.60,60.58,60.57,60.57,60.60,60.57,60.53,60.47,60.35,60.60,60.84,61.00,61.03,61.11,61.16,61.18,61.20,61.21,61.55,62.77,64.63,66.68,67.71,68.21,68.54,68.90,69.18,69.52,69.81,69.98,69.97,69.97,69.96,69.99,70.08,70.27,70.36,70.46,70.60,70.70,70.81,70.83,70.82,70.87,70.91,70.91,70.94,71.03,71.04,71.12,71.20,71.25,71.30,71.39,71.48,71.55,71.59,71.64,71.67,71.73,71.79,71.80,71.80,71.74,71.64,71.57,71.53,71.49,71.48,71.50,71.49,71.50,71.50,71.50,71.49,71.43,71.38,71.37,71.40,71.40,71.34,71.25,71.17,71.16,71.19,71.17,71.10,71.00,70.98,70.99,71.00,70.99,70.94,70.93,70.89,70.81,70.71,70.70,70.65,70.63,70.69,70.64,70.65,70.63,70.58,70.64,70.71,70.80,70.85,70.79,70.76,70.70,70.69,70.76,70.71,70.70,70.69,70.68,70.64,70.62,70.54,70.44,70.38,70.52,70.57,70.56,70.49,70.41,70.40,70.40,70.40,70.40,70.38,70.35,70.33,70.32,70.31,70.28,70.26,70.25,70.21,70.23,70.21,70.17,70.14,70.06,70.02,69.97,69.87,69.67,69.70,69.76
67.74,67.70,67.69,67.67,67.66,67.68,67.71,67.69,67.66,67.63,67.56,67.37,67.34,67.30,67.28,67.29,67.32,67.38,67.29,66.89,65.92,65.69,65.74,65.90,65.99,66.18,66.25,66.33,66.47,66.60,66.67,66.73,66.83,67.03,67.10,67.11,67.10,67.12,67.06,67.00,66.96,66.96,67.00,66.97,66.93,66.84,66.65,66.15,65.29,64.26,63.27,62.69,62.31,61.91,61.45,61.01,60.73,60.50,60.32,60.20,60.35,60.47,60.52,60.51,60.48,60.45,60.41,60.39,60.39,60.37,60.30,60.23,60.19,60.12,60.04,60.00,60.02,60.12,60.05,59.89,59.76,59.77,59.82,59.86,59.87,59.83,59.83,59.92,60.03,60.10,60.14,60.15,60.16,60.18,60.20,60.19,60.22,60.25,60.29,60.30,60.06,60.01,60.16,60.47,60.54,60.53,60.50,60.50,60.51,60.49,60.48,60.45,60.36,60.56,60.80,61.00,61.08,61.15,61.16,61.16,61.15,61.16,61.31,62.25,63.87,65.89,67.20,67.87,68.30,68.71,69.06,69.46,69.77,69.91,69.81,69.71,69.70,69.78,69.93,70.12,70.30,70.49,70.68,70.80,70.89,70.91,70.92,70.97,71.03,71.04,71.09,71.17,71.16,71.20,71.23,71.25,71.29,71.36,71.43,71.48,71.51,71.60,71.64,71.69,71.75,71.79,71.77,71.72,71.66,71.59,71.54,71.53,71.54,71.55,71.51,71.53,71.54,71.52,71.45,71.41,71.41,71.42,71.39,71.29,71.26,71.23,71.18,71.14,71.15,71.11,71.04,70.95,70.98,70.99,70.98,70.95,70.92,70.91,70.87,70.81,70.80,70.80,70.75,70.70,70.70,70.67,70.64,70.63,70.63,70.62,70.65,70.70,70.74,70.76,70.73,70.70,70.70,70.74,70.75,70.72,70.69,70.66,70.56,70.50,70.43,70.38,70.39,70.50,70.53,70.50,70.44,70.41,70.43,70.42,70.40,70.41,70.42,70.36,70.31,70.31,70.30,70.29,70.28,70.28,70.26,70.26,70.23,70.19,70.17,70.12,70.02,69.91,69.78,69.69,69.71,69.74
67.72,67.69,67.69,67.65,67.65,67.68,67.72,67.68,67.63,67.59,67.52,67.34,67.30,67.27,67.24,67.22,67.25,67.30,67.24,66.93,66.13,65.58,65.42,65.53,65.64,65.94,66.17,66.36,66.53,66.65,66.72,66.77,66.83,67.00,67.06,67.09,67.09,67.08,67.01,66.92,66.89,66.93,67.01,66.99,66.92,66.73,66.36,65.83,64.91,63.74,62.50,61.80,61.39,61.04,60.72,60.51,60.35,60.26,60.22,60.22,60.27,60.32,60.35,60.35,60.30,60.28,60.26,60.24,60.24,60.23,60.16,60.09,60.04,59.96,59.89,59.86,59.89,60.05,60.05,59.90,59.74,59.71,59.76,59.82,59.84,59.80,59.76,59.85,59.95,60.02,60.03,60.02,60.04,60.08,60.13,60.14,60.16,60.17,60.17,60.18,60.02,59.97,60.07,60.36,60.48,60.48,60.44,60.43,60.43,60.43,60.43,60.42,60.39,60.51,60.75,60.99,61.13,61.19,61.17,61.14,61.11,61.11,61.11,61.80,63.18,65.12,66.67,67.52,68.06,68.52,68.94,69.37,69.67,69.77,69.58,69.44,69.46,69.60,69.80,70.02,70.28,70.54,70.76,70.88,70.95,70.98,71.01,71.08,71.13,71.16,71.21,71.29,71.26,71.28,71.28,71.27,71.29,71.35,71.39,71.42,71.44,71.54,71.58,71.63,71.70,71.76,71.74,71.71,71.67,71.61,71.55,71.56,71.59,71.59,71.52,71.55,71.57,71.54,71.43,71.42,71.45,71.45,71.36,71.18,71.16,71.18,71.17,71.12,71.10,71.05,70.99,70.93,70.98,70.99,70.96,70.92,70.91,70.89,70.85,70.82,70.88,70.89,70.85,70.78,70.73,70.71,70.66,70.66,70.69,70.63,70.63,70.63,70.65,70.69,70.69,70.70,70.71,70.71,70.77,70.74,70.69,70.63,70.49,70.41,70.35,70.36,70.44,70.48,70.48,70.44,70.40,70.41,70.46,70.44,70.40,70.42,70.44,70.36,70.28,70.29,70.29,70.28,70.28,70.28,70.28,70.27,70.23,70.20,70.20,70.19,70.06,69.88,69.72,69.72,69.72,69.73
67.67,67.67,67.69,67.66,67.67,67.71,67.72,67.66,67.61,67.55,67.46,67.32,67.29,67.25,67.22,67.24,67.24,67.23,67.20,67.06,66.55,65.55,65.18,65.31,65.54,65.97,66.31,66.54,66.68,66.74,66.80,66.83,66.85,66.92,66.97,67.00,67.02,67.05,66.94,66.83,66.82,66.92,67.06,67.06,66.91,66.56,65.90,65.22,64.18,62.95,61.77,61.30,61.06,60.83,60.59,60.35,60.19,60.10,60.08,60.12,60.17,60.21,60.25,60.26,60.19,60.17,60.13,60.09,60.06,60.08,60.06,60.01,59.94,59.86,59.82,59.81,59.85,60.03,60.07,59.92,59.73,59.67,59.72,59.76,59.78,59.76,59.72,59.79,59.88,59.93,59.91,59.89,59.93,60.01,60.11,60.16,60.17,60.17,60.17,60.14,60.05,60.03,60.13,60.33,60.41,60.43,60.42,60.41,60.41,60.41,60.41,60.41,60.40,60.44,60.70,61.00,61.18,61.20,61.14,61.07,61.03,61.03,61.00,61.52,62.71,64.58,66.23,67.21,67.81,68.24,68.67,69.12,69.39,69.41,69.18,69.15,69.26,69.48,69.74,70.03,70.33,70.60,70.83,70.94,70.98,71.05,71.13,71.17,71.18,71.23,71.27,71.30,71.29,71.33,71.36,71.36,71.32,71.37,71.39,71.40,71.41,71.43,71.49,71.55,71.62,71.69,71.70,71.70,71.68,71.61,71.54,71.55,71.58,71.58,71.52,71.52,71.52,71.52,71.48,71.48,71.49,71.43,71.26,71.15,71.08,71.08,71.12,71.11,71.04,71.01,71.00,70.98,70.99,70.95,70.94,70.97,70.96,70.87,70.82,70.83,70.89,70.94,70.92,70.87,70.85,70.76,70.72,70.71,70.72,70.70,70.70,70.69,70.67,70.64,70.63,70.69,70.72,70.69,70.73,70.75,70.68,70.57,70.46,70.37,70.37,70.43,70.51,70.49,70.43,70.39,70.39,70.39,70.44,70.43,70.39,70.41,70.41,70.31,70.23,70.24,70.24,70.22,70.21,70.21,70.23,70.23,70.22,70.20,70.22,70.25,70.16,69.97,69.76,69.75,69.74,69.77
67.64,67.64,67.67,67.69,67.70,67.71,67.70,67.63,67.58,67.52,67.46,67.37,67.29,67.25,67.23,67.23,67.19,67.18,67.17,67.09,66.73,65.66,65.11,65.12,65.49,65.99,66.40,66.65,66.74,66.72,66.77,66.82,66.83,66.84,66.83,66.85,66.90,66.99,66.87,66.74,66.72,66.82,66.94,66.80,66.39,65.71,64.77,63.86,62.88,61.93,61.15,60.89,60.76,60.62,60.43,60.23,60.11,60.04,60.01,60.04,60.05,60.10,60.13,60.13,60.09,60.06,60.02,59.95,59.90,59.90,59.89,59.86,59.80,59.75,59.74,59.75,59.79,59.95,59.97,59.83,59.67,59.61,59.65,59.70,59.72,59.73,59.68,59.75,59.83,59.87,59.82,59.79,59.85,59.97,60.13,60.21,60.23,60.22,60.19,60.14,60.11,60.14,60.21,60.31,60.31,60.29,60.28,60.30,60.33,60.35,60.35,60.36,60.35,60.33,60.60,60.95,61.17,61.16,61.11,61.06,61.02,61.01,60.96,61.34,62.35,64.11,65.79,66.86,67.51,67.91,68.39,68.77,68.96,68.96,68.83,68.94,69.16,69.45,69.78,70.16,70.43,70.67,70.86,70.96,71.00,71.07,71.16,71.20,71.23,71.28,71.33,71.35,71.35,71.40,71.43,71.42,71.40,71.46,71.45,71.43,71.41,71.40,71.45,71.49,71.53,71.61,71.65,71.67,71.66,71.61,71.57,71.56,71.56,71.55,71.52,71.53,71.54,71.53,71.51,71.50,71.50,71.45,71.30,71.19,71.10,71.08,71.10,71.10,71.01,70.99,71.01,71.00,70.96,70.92,70.92,70.95,70.90,70.85,70.83,70.86,70.87,70.91,70.91,70.90,70.91,70.85,70.82,70.80,70.80,70.76,70.74,70.72,70.68,70.65,70.62,70.64,70.66,70.63,70.68,70.69,70.61,70.48,70.39,70.37,70.40,70.48,70.57,70.49,70.40,70.35,70.36,70.36,70.39,70.37,70.34,70.36,70.34,70.27,70.23,70.28,70.27,70.21,70.17,70.16,70.19,70.21,70.22,70.22,70.21,70.23,70.14,69.95,69.72,69.72,69.70,69.74
67.64,67.61,67.64,67.72,67.72,67.69,67.67,67.60,67.55,67.51,67.48,67.43,67.28,67.25,67.24,67.19,67.14,67.14,67.14,67.05,66.79,65.80,65.10,64.94,65.44,65.99,66.45,66.72,66.74,66.64,66.69,66.75,66.78,66.73,66.65,66.66,66.76,66.89,66.78,66.60,66.53,66.59,66.59,66.25,65.52,64.49,63.31,62.20,61.39,60.86,60.60,60.53,60.49,60.41,60.27,60.12,60.07,60.02,59.99,59.97,59.95,59.98,60.00,60.00,59.99,59.96,59.91,59.83,59.75,59.71,59.70,59.68,59.65,59.65,59.65,59.67,59.71,59.82,59.79,59.69,59.58,59.55,59.58,59.62,59.66,59.69,59.65,59.71,59.79,59.83,59.76,59.73,59.80,59.96,60.16,60.26,60.28,60.26,60.22,60.14,60.18,60.24,60.29,60.29,60.20,60.13,60.12,60.16,60.22,60.27,60.29,60.30,60.29,60.21,60.49,60.88,61.12,61.10,61.10,61.07,61.02,61.00,60.95,61.21,62.05,63.67,65.32,66.49,67.20,67.57,68.11,68.37,68.47,68.49,68.53,68.78,69.11,69.48,69.86,70.33,70.56,70.72,70.86,70.97,71.01,71.08,71.15,71.20,71.26,71.34,71.39,71.42,71.42,71.47,71.48,71.48,71.52,71.57,71.54,71.47,71.44,71.41,71.44,71.45,71.44,71.52,71.59,71.62,71.62,71.61,71.60,71.57,71.53,71.50,71.53,71.55,71.57,71.56,71.54,71.51,71.50,71.47,71.40,71.25,71.17,71.13,71.10,71.10,70.99,70.99,71.03,71.00,70.92,70.90,70.90,70.89,70.82,70.83,70.87,70.89,70.85,70.85,70.88,70.91,70.94,70.95,70.92,70.90,70.88,70.80,70.77,70.73,70.70,70.69,70.62,70.58,70.56,70.56,70.60,70.59,70.50,70.38,70.31,70.38,70.44,70.51,70.61,70.49,70.37,70.32,70.34,70.31,70.33,70.30,70.27,70.29,70.25,70.23,70.27,70.35,70.32,70.23,70.15,70.12,70.16,70.19,70.22,70.23,70.19,70.18,70.08,69.89,69.66,69.66,69.62,69.67
67.68,67.67,67.67,67.65,67.64,67.63,67.62,67.60,67.57,67.50,67.42,67.40,67.29,67.21,67.17,67.16,67.06,67.04,67.01,66.92,66.66,65.65,64.93,64.76,65.24,65.81,66.33,66.64,66.69,66.49,66.46,66.47,66.49,66.43,66.41,66.47,66.56,66.63,66.38,66.11,65.76,65.29,64.60,64.14,63.50,62.68,61.77,61.03,60.64,60.43,60.30,60.26,60.29,60.29,60.23,60.10,59.98,59.95,59.96,59.96,59.92,59.91,59.90,59.90,59.92,59.87,59.80,59.72,59.66,59.59,59.55,59.55,59.57,59.63,59.64,59.62,59.60,59.60,59.57,59.53,59.50,59.49,59.52,59.56,59.59,59.60,59.60,59.67,59.74,59.80,59.80,59.82,59.87,59.96,60.08,60.16,60.18,60.16,60.12,60.09,60.07,60.10,60.18,60.26,60.19,60.14,60.12,60.13,60.15,60.18,60.23,60.26,60.26,60.21,60.42,60.74,61.03,61.09,61.09,61.06,61.02,61.00,60.95,61.10,61.72,63.03,64.65,65.92,66.78,67.29,67.76,67.97,68.08,68.18,68.31,68.67,69.14,69.61,70.01,70.40,70.66,70.81,70.90,70.97,71.04,71.10,71.14,71.17,71.25,71.33,71.41,71.46,71.45,71.49,71.54,71.59,71.63,71.64,71.62,71.58,71.52,71.48,71.45,71.43,71.44,71.47,71.50,71.49,71.49,71.56,71.56,71.56,71.53,71.51,71.53,71.51,71.52,71.55,71.58,71.53,71.49,71.44,71.36,71.27,71.21,71.17,71.13,71.07,71.01,71.03,71.06,71.00,70.95,70.92,70.90,70.89,70.85,70.89,70.93,70.93,70.88,70.84,70.86,70.91,70.94,70.92,70.91,70.88,70.84,70.76,70.73,70.71,70.70,70.69,70.62,70.58,70.56,70.55,70.48,70.45,70.39,70.33,70.31,70.38,70.42,70.46,70.51,70.44,70.35,70.31,70.33,70.31,70.31,70.29,70.27,70.26,70.20,70.23,70.31,70.37,70.33,70.26,70.18,70.12,70.16,70.16,70.18,70.19,70.14,70.11,70.00,69.85,69.71,69.67,69.63,69.66
67.68,67.69,67.68,67.62,67.60,67.61,67.62,67.59,67.55,67.46,67.36,67.34,67.24,67.16,67.10,67.08,66.96,66.93,66.92,66.85,66.60,65.67,64.90,64.60,65.02,65.70,66.27,66.59,66.60,66.39,66.32,66.30,66.27,66.15,66.16,66.20,66.23,66.19,65.81,65.32,64.66,63.82,62.90,62.39,61.86,61.30,60.75,60.35,60.21,60.16,60.11,60.10,60.14,60.16,60.13,60.06,59.92,59.87,59.89,59.91,59.87,59.83,59.80,59.78,59.80,59.74,59.67,59.62,59.59,59.51,59.44,59.42,59.47,59.57,59.58,59.54,59.46,59.40,59.38,59.40,59.41,59.42,59.45,59.48,59.51,59.53,59.54,59.60,59.67,59.73,59.78,59.83,59.87,59.91,59.99,60.07,60.09,60.08,60.04,59.99,59.87,59.88,60.00,60.18,60.17,60.14,60.12,60.11,60.12,60.13,60.18,60.23,60.23,60.19,60.32,60.59,60.93,61.06,61.07,61.04,61.01,61.00,60.95,61.01,61.44,62.49,64.07,65.38,66.36,67.02,67.45,67.65,67.78,67.93,68.14,68.61,69.17,69.71,70.14,70.50,70.74,70.87,70.91,70.97,71.04,71.09,71.13,71.16,71.26,71.33,71.39,71.44,71.45,71.52,71.60,71.66,71.72,71.70,71.68,71.64,71.56,71.54,71.48,71.44,71.45,71.43,71.43,71.41,71.41,71.47,71.48,71.51,71.52,71.51,71.52,71.49,71.50,71.56,71.58,71.51,71.45,71.38,71.29,71.26,71.22,71.18,71.13,71.07,71.04,71.07,71.11,71.05,71.01,70.94,70.91,70.92,70.90,70.95,70.97,70.96,70.90,70.83,70.85,70.91,70.93,70.90,70.90,70.86,70.78,70.70,70.66,70.65,70.66,70.69,70.64,70.60,70.57,70.56,70.47,70.42,70.37,70.32,70.32,70.41,70.43,70.42,70.41,70.36,70.32,70.30,70.29,70.28,70.29,70.29,70.26,70.21,70.15,70.19,70.26,70.31,70.31,70.27,70.19,70.11,70.14,70.13,70.14,70.15,70.11,70.06,69.91,69.76,69.68,69.68,69.66,69.69
67.65,67.68,67.67,67.62,67.61,67.62,67.65,67.57,67.48,67.38,67.30,67.26,67.15,67.09,67.03,66.95,66.84,66.83,66.85,66.84,66.63,65.86,65.01,64.48,64.76,65.66,66.28,66.55,66.49,66.33,66.29,66.23,66.11,65.91,65.90,65.85,65.75,65.57,65.06,64.24,63.22,62.16,61.48,60.99,60.61,60.36,60.26,60.17,60.10,60.06,60.05,60.04,60.04,60.02,59.99,60.00,59.86,59.79,59.78,59.82,59.78,59.73,59.69,59.66,59.66,59.59,59.54,59.51,59.52,59.46,59.35,59.29,59.35,59.47,59.48,59.40,59.27,59.20,59.23,59.28,59.32,59.34,59.36,59.39,59.43,59.46,59.48,59.52,59.57,59.63,59.69,59.76,59.79,59.83,59.90,59.97,60.00,60.00,59.95,59.83,59.59,59.58,59.77,60.06,60.13,60.15,60.14,60.12,60.13,60.12,60.15,60.20,60.22,60.16,60.19,60.41,60.83,61.02,61.03,61.01,61.00,61.00,60.95,60.94,61.22,62.07,63.58,64.87,65.93,66.75,67.18,67.41,67.57,67.75,68.03,68.58,69.19,69.78,70.24,70.63,70.82,70.89,70.91,70.97,71.01,71.07,71.12,71.16,71.28,71.33,71.35,71.37,71.44,71.56,71.65,71.70,71.77,71.77,71.74,71.66,71.56,71.58,71.52,71.48,71.45,71.38,71.39,71.39,71.38,71.36,71.36,71.43,71.49,71.50,71.50,71.49,71.52,71.58,71.54,71.46,71.39,71.29,71.17,71.21,71.21,71.17,71.12,71.08,71.08,71.12,71.17,71.15,71.09,70.98,70.92,70.97,70.97,70.99,71.00,70.98,70.90,70.83,70.85,70.90,70.90,70.90,70.89,70.83,70.70,70.63,70.56,70.54,70.58,70.70,70.68,70.63,70.60,70.59,70.56,70.50,70.43,70.37,70.33,70.49,70.47,70.37,70.31,70.25,70.27,70.26,70.22,70.22,70.28,70.29,70.24,70.12,70.11,70.11,70.13,70.17,70.28,70.27,70.19,70.10,70.10,70.10,70.10,70.10,70.10,70.03,69.81,69.63,69.58,69.68,69.71,69.75
67.62,67.63,67.63,67.60,67.58,67.58,67.58,67.50,67.40,67.32,67.26,67.21,67.10,67.02,66.96,66.88,66.80,66.76,66.78,66.81,66.68,66.22,65.50,64.79,64.47,65.60,66.22,66.45,66.41,66.30,66.27,66.16,65.94,65.60,65.45,65.16,64.83,64.54,64.06,63.35,62.47,61.58,61.06,60.69,60.42,60.24,60.14,60.03,59.95,59.90,59.89,59.90,59.88,59.86,59.87,59.92,59.79,59.71,59.68,59.69,59.67,59.62,59.55,59.49,59.47,59.45,59.44,59.43,59.42,59.37,59.28,59.22,59.23,59.29,59.32,59.25,59.13,59.09,59.16,59.21,59.24,59.25,59.30,59.34,59.38,59.42,59.46,59.49,59.53,59.58,59.63,59.76,59.87,59.97,60.02,60.05,60.05,60.04,60.00,59.87,59.61,59.59,59.77,60.04,60.07,60.07,60.08,60.12,60.13,60.12,60.12,60.15,60.16,60.10,60.08,60.19,60.47,60.81,60.95,60.99,60.97,60.96,60.93,60.92,61.10,61.69,63.19,64.57,65.74,66.61,67.04,67.25,67.41,67.62,67.97,68.45,69.05,69.69,70.27,70.65,70.82,70.89,70.91,70.97,71.00,71.05,71.11,71.17,71.21,71.22,71.24,71.32,71.44,71.55,71.62,71.65,71.68,71.72,71.69,71.64,71.58,71.59,71.54,71.50,71.48,71.45,71.45,71.41,71.36,71.37,71.34,71.33,71.33,71.34,71.37,71.41,71.45,71.48,71.46,71.42,71.36,71.31,71.29,71.23,71.18,71.12,71.06,71.09,71.09,71.11,71.13,71.13,71.05,70.99,70.99,71.04,71.00,70.97,70.95,70.94,70.90,70.87,70.88,70.90,70.90,70.90,70.86,70.79,70.70,70.66,70.60,70.54,70.51,70.50,70.57,70.59,70.60,70.60,70.59,70.55,70.48,70.40,70.38,70.43,70.40,70.34,70.33,70.25,70.27,70.27,70.23,70.31,70.35,70.35,70.31,70.21,70.13,70.09,70.08,70.09,70.15,70.16,70.13,70.08,70.08,70.05,70.05,70.06,70.07,69.98,69.79,69.69,69.71,69.75,69.75,69.78
67.61,67.61,67.60,67.58,67.56,67.53,67.50,67.43,67.34,67.27,67.22,67.17,67.05,66.96,66.89,66.83,66.77,66.71,66.71,66.76,66.71,66.50,65.98,65.21,64.38,65.34,66.03,66.36,66.34,66.26,66.24,66.09,65.76,65.26,64.96,64.44,63.90,63.53,63.02,62.46,61.81,61.14,60.76,60.50,60.32,60.17,60.01,59.86,59.78,59.72,59.70,59.72,59.69,59.68,59.73,59.83,59.71,59.63,59.58,59.58,59.58,59.52,59.44,59.35,59.33,59.34,59.36,59.36,59.33,59.29,59.23,59.17,59.12,59.11,59.14,59.10,59.01,59.00,59.09,59.15,59.17,59.19,59.26,59.31,59.35,59.39,59.44,59.48,59.52,59.56,59.58,59.75,59.95,60.09,60.14,60.13,60.11,60.10,60.08,59.95,59.71,59.68,59.83,60.04,60.04,60.03,60.05,60.12,60.14,60.13,60.12,60.11,60.09,60.04,59.99,60.00,60.14,60.57,60.85,60.95,60.92,60.90,60.90,60.90,61.02,61.41,62.85,64.25,65.48,66.43,66.89,67.07,67.22,67.44,67.82,68.31,68.93,69.61,70.27,70.62,70.80,70.88,70.90,70.93,70.95,70.98,71.02,71.06,71.02,71.03,71.11,71.25,71.41,71.51,71.57,71.59,71.61,71.67,71.66,71.62,71.60,71.59,71.54,71.51,71.50,71.50,71.51,71.44,71.37,71.37,71.33,71.26,71.21,71.20,71.24,71.32,71.37,71.39,71.41,71.40,71.35,71.32,71.34,71.21,71.14,71.09,71.06,71.11,71.11,71.10,71.10,71.09,71.01,71.01,71.06,71.10,71.04,70.98,70.94,70.92,70.90,70.90,70.90,70.90,70.89,70.87,70.81,70.74,70.70,70.70,70.64,70.57,70.50,70.40,70.51,70.56,70.59,70.60,70.60,70.57,70.52,70.45,70.43,70.37,70.32,70.30,70.34,70.26,70.27,70.27,70.25,70.36,70.39,70.39,70.36,70.29,70.19,70.12,70.08,70.04,70.05,70.06,70.06,70.04,70.04,70.01,70.00,70.02,70.02,69.92,69.80,69.77,69.83,69.81,69.78,69.81
67.63,67.64,67.59,67.55,67.51,67.46,67.39,67.40,67.33,67.25,67.18,67.12,66.98,66.88,66.83,66.79,66.73,66.68,66.67,66.71,66.69,66.59,66.34,65.77,64.74,64.64,65.52,66.28,66.29,66.23,66.20,66.01,65.59,64.87,64.43,63.76,63.09,62.64,61.98,61.56,61.18,60.77,60.49,60.31,60.17,60.00,59.78,59.64,59.56,59.50,59.45,59.48,59.44,59.46,59.56,59.71,59.63,59.56,59.53,59.53,59.52,59.48,59.40,59.32,59.31,59.31,59.30,59.29,59.27,59.26,59.21,59.13,59.03,58.97,58.97,58.96,58.94,58.96,59.04,59.09,59.13,59.16,59.24,59.31,59.36,59.40,59.44,59.51,59.56,59.57,59.52,59.71,59.96,60.15,60.19,60.18,60.18,60.18,60.16,60.06,59.92,59.89,59.95,60.06,60.08,60.08,60.11,60.16,60.18,60.18,60.15,60.10,60.00,59.94,59.92,59.91,59.93,60.34,60.69,60.86,60.85,60.82,60.85,60.88,61.00,61.34,62.60,63.82,65.03,66.14,66.68,66.84,66.95,67.14,67.49,68.17,68.89,69.59,70.24,70.56,70.74,70.84,70.86,70.82,70.81,70.80,70.76,70.68,70.60,70.72,70.93,71.16,71.33,71.44,71.50,71.54,71.61,71.67,71.68,71.66,71.60,71.54,71.50,71.49,71.50,71.50,71.54,71.52,71.45,71.35,71.33,71.28,71.23,71.18,71.10,71.19,71.28,71.35,71.43,71.38,71.33,71.28,71.22,71.12,71.11,71.14,71.17,71.18,71.14,71.11,71.09,71.07,70.97,71.03,71.11,71.12,71.09,71.07,71.03,70.96,70.88,70.89,70.90,70.89,70.87,70.81,70.73,70.69,70.70,70.70,70.65,70.64,70.62,70.56,70.60,70.58,70.57,70.60,70.59,70.55,70.54,70.54,70.47,70.35,70.27,70.25,70.31,70.29,70.29,70.26,70.23,70.30,70.33,70.34,70.31,70.28,70.30,70.26,70.18,70.07,70.02,70.03,70.01,69.97,69.98,69.97,69.98,69.97,69.92,69.86,69.86,69.87,69.87,69.84,69.81,69.82
67.64,67.63,67.59,67.53,67.50,67.45,67.37,67.35,67.28,67.21,67.14,67.09,66.98,66.87,66.80,66.78,66.71,66.63,66.61,66.65,66.65,66.60,66.48,66.10,65.22,64.16,64.83,65.78,66.03,65.61,65.13,64.66,64.23,63.85,63.65,63.08,62.40,61.89,61.32,60.96,60.71,60.52,60.28,60.10,59.94,59.75,59.50,59.36,59.30,59.26,59.24,59.23,59.20,59.18,59.21,59.29,59.33,59.37,59.41,59.43,59.41,59.35,59.30,59.26,59.28,59.29,59.28,59.27,59.25,59.25,59.19,59.09,58.97,58.88,58.88,58.89,58.91,58.93,58.98,59.02,59.08,59.20,59.31,59.37,59.41,59.44,59.46,59.50,59.52,59.51,59.44,59.67,59.95,60.14,60.16,60.17,60.17,60.14,60.06,59.90,59.85,59.88,59.95,60.02,60.05,60.07,60.10,60.14,60.12,60.09,60.06,59.99,59.85,59.82,59.83,59.83,59.83,60.17,60.56,60.79,60.83,60.79,60.82,60.85,60.94,61.16,62.18,63.35,64.60,65.79,66.32,66.42,66.51,66.70,67.09,67.78,68.52,69.26,69.92,70.26,70.49,70.53,70.40,70.21,70.21,70.25,70.27,70.21,70.21,70.46,70.77,71.02,71.15,71.32,71.45,71.56,71.66,71.68,71.67,71.62,71.54,71.51,71.48,71.48,71.51,71.52,71.54,71.53,71.48,71.39,71.38,71.31,71.23,71.15,71.08,71.10,71.15,71.22,71.28,71.27,71.28,71.26,71.15,71.10,71.12,71.15,71.18,71.18,71.15,71.12,71.09,71.06,71.00,71.04,71.10,71.11,71.10,71.09,71.04,70.95,70.84,70.87,70.88,70.86,70.83,70.76,70.70,70.68,70.70,70.68,70.69,70.70,70.68,70.63,70.65,70.61,70.57,70.57,70.57,70.53,70.53,70.53,70.42,70.33,70.27,70.25,70.29,70.27,70.25,70.21,70.18,70.21,70.25,70.27,70.26,70.21,70.29,70.30,70.24,70.11,70.05,70.04,70.02,70.00,69.98,69.94,69.92,69.89,69.82,69.82,69.88,69.91,69.89,69.86,69.85,69.86
67.65,67.61,67.59,67.52,67.50,67.45,67.37,67.30,67.22,67.15,67.10,67.08,67.00,66.88,66.79,66.77,66.69,66.58,66.55,66.59,66.59,66.58,66.53,66.30,65.71,63.89,64.11,65.00,65.48,64.69,63.74,63.00,62.60,62.69,62.80,62.43,61.82,61.27,60.88,60.51,60.34,60.32,60.09,59.89,59.70,59.48,59.22,59.09,59.04,59.04,59.05,59.01,58.97,58.91,58.84,58.80,58.97,59.12,59.23,59.28,59.25,59.18,59.15,59.18,59.23,59.26,59.26,59.25,59.24,59.22,59.15,59.05,58.92,58.84,58.84,58.87,58.89,58.91,58.92,58.95,59.05,59.24,59.40,59.45,59.46,59.47,59.48,59.46,59.45,59.42,59.37,59.63,59.92,60.11,60.11,60.13,60.14,60.07,59.91,59.66,59.69,59.80,59.91,59.96,59.99,60.04,60.07,60.09,60.01,59.96,59.91,59.84,59.70,59.71,59.75,59.76,59.77,60.04,60.45,60.73,60.82,60.78,60.78,60.81,60.86,60.95,61.71,62.85,64.15,65.37,65.87,65.91,65.98,66.21,66.67,67.26,67.98,68.74,69.43,69.83,70.13,70.12,69.79,69.44,69.45,69.56,69.68,69.71,69.85,70.24,70.61,70.84,70.94,71.17,71.39,71.58,71.72,71.69,71.64,71.57,71.48,71.48,71.47,71.48,71.53,71.54,71.52,71.50,71.48,71.45,71.46,71.36,71.23,71.14,71.12,71.05,71.03,71.06,71.09,71.13,71.21,71.23,71.11,71.10,71.13,71.15,71.15,71.14,71.14,71.12,71.09,71.05,71.05,71.05,71.06,71.09,71.09,71.06,71.00,70.92,70.81,70.83,70.84,70.82,70.79,70.71,70.67,70.67,70.69,70.65,70.72,70.75,70.72,70.66,70.68,70.64,70.58,70.54,70.54,70.51,70.50,70.47,70.33,70.31,70.29,70.28,70.28,70.24,70.19,70.16,70.13,70.12,70.16,70.21,70.21,70.12,70.23,70.29,70.27,70.16,70.10,70.06,70.05,70.05,70.02,69.93,69.87,69.81,69.74,69.80,69.89,69.93,69.89,69.87,69.88,69.89
67.68,67.64,67.60,67.56,67.52,67.46,67.37,67.26,67.21,67.15,67.09,67.04,66.99,66.88,66.79,66.76,66.68,66.57,66.52,66.53,66.52,66.51,66.47,66.32,65.99,64.57,63.63,63.28,63.42,63.18,62.88,62.61,62.45,62.39,62.17,61.93,61.64,61.28,60.79,60.39,60.15,60.03,59.85,59.72,59.56,59.35,59.12,59.04,59.01,59.01,59.01,58.99,58.97,58.93,58.88,58.79,58.78,58.80,58.85,58.92,58.96,58.95,58.94,58.97,59.03,59.11,59.13,59.10,59.07,59.06,59.05,59.01,58.95,58.89,58.88,58.87,58.86,58.82,58.83,58.89,59.02,59.22,59.37,59.44,59.45,59.43,59.39,59.36,59.33,59.33,59.36,59.63,59.91,60.09,60.12,60.13,60.11,60.03,59.90,59.73,59.76,59.83,59.90,59.96,60.01,60.05,60.05,59.99,59.87,59.83,59.78,59.73,59.65,59.69,59.70,59.71,59.75,59.94,60.32,60.61,60.75,60.75,60.76,60.78,60.80,60.83,61.30,62.33,63.58,64.72,65.13,65.21,65.40,65.73,66.17,66.59,67.17,67.84,68.51,69.05,69.55,69.68,69.38,68.90,68.82,68.88,69.01,69.18,69.63,70.05,70.38,70.57,70.69,70.95,71.20,71.43,71.65,71.64,71.62,71.56,71.45,71.45,71.47,71.48,71.49,71.52,71.49,71.46,71.46,71.48,71.52,71.44,71.35,71.29,71.22,71.09,71.02,71.02,71.06,71.06,71.10,71.12,71.06,71.10,71.14,71.15,71.11,71.07,71.10,71.11,71.10,71.09,71.09,71.06,71.05,71.07,71.05,71.00,70.94,70.89,70.80,70.77,70.76,70.75,70.74,70.66,70.64,70.64,70.64,70.62,70.69,70.72,70.71,70.69,70.70,70.64,70.57,70.51,70.51,70.50,70.45,70.37,70.30,70.34,70.35,70.31,70.23,70.21,70.19,70.15,70.12,70.17,70.23,70.23,70.19,70.11,70.15,70.18,70.19,70.17,70.11,70.08,70.08,70.09,70.07,70.02,69.93,69.81,69.73,69.81,69.91,69.94,69.90,69.89,69.89,69.90
67.66,67.63,67.58,67.55,67.52,67.47,67.40,67.27,67.21,67.17,67.11,67.05,66.99,66.88,66.78,66.73,66.65,66.55,66.49,66.50,66.46,66.46,66.43,66.30,66.02,64.78,63.33,62.41,62.35,62.38,62.41,62.40,62.34,62.19,61.84,61.67,61.53,61.23,60.70,60.27,60.00,59.86,59.68,59.59,59.45,59.27,59.06,59.01,58.99,58.99,59.00,58.98,58.96,58.94,58.90,58.77,58.69,58.65,58.66,58.73,58.76,58.80,58.83,58.88,58.95,59.02,59.05,59.05,59.03,59.02,59.03,59.03,59.01,58.94,58.89,58.86,58.85,58.78,58.81,58.89,59.02,59.20,59.36,59.42,59.41,59.34,59.27,59.24,59.24,59.28,59.40,59.65,59.87,60.02,60.08,60.10,60.08,60.01,59.91,59.80,59.80,59.83,59.88,59.95,60.02,60.07,60.03,59.91,59.77,59.72,59.68,59.64,59.60,59.65,59.65,59.65,59.70,59.79,60.10,60.39,60.56,60.58,60.66,60.73,60.77,60.78,61.01,61.82,62.88,63.87,64.31,64.54,64.85,65.24,65.60,65.88,66.36,66.95,67.59,68.23,68.86,69.12,68.91,68.41,68.25,68.29,68.47,68.75,69.38,69.84,70.14,70.32,70.49,70.76,71.02,71.24,71.44,71.53,71.56,71.53,71.43,71.44,71.46,71.46,71.45,71.48,71.47,71.47,71.48,71.50,71.53,71.47,71.40,71.35,71.28,71.17,71.08,71.03,71.00,71.01,71.04,71.04,71.02,71.07,71.12,71.13,71.10,71.06,71.09,71.09,71.08,71.10,71.10,71.09,71.07,71.04,71.00,70.97,70.93,70.89,70.84,70.75,70.70,70.68,70.68,70.63,70.61,70.61,70.61,70.60,70.63,70.66,70.67,70.67,70.71,70.63,70.54,70.50,70.53,70.50,70.44,70.36,70.35,70.37,70.36,70.30,70.21,70.20,70.17,70.15,70.15,70.19,70.24,70.24,70.21,70.14,70.14,70.13,70.14,70.15,70.08,70.07,70.07,70.07,70.09,70.05,69.93,69.80,69.74,69.84,69.92,69.94,69.91,69.91,69.91,69.91
67.60,67.56,67.55,67.51,67.50,67.49,67.46,67.31,67.23,67.19,67.17,67.09,67.00,66.87,66.76,66.69,66.63,66.52,66.47,66.48,66.42,66.43,66.40,66.23,65.84,64.57,63.19,62.29,62.17,62.20,62.30,62.34,62.28,62.09,61.78,61.63,61.48,61.11,60.59,60.15,59.89,59.77,59.56,59.48,59.37,59.21,59.03,58.99,58.97,58.97,59.00,58.98,58.97,58.94,58.89,58.74,58.69,58.65,58.64,58.68,58.67,58.72,58.81,58.91,58.96,58.99,59.04,59.08,59.10,59.08,59.09,59.10,59.08,58.97,58.88,58.85,58.85,58.78,58.83,58.93,59.05,59.18,59.35,59.40,59.34,59.19,59.12,59.11,59.15,59.27,59.49,59.69,59.81,59.89,59.98,60.07,60.06,60.01,59.93,59.86,59.82,59.82,59.85,59.93,60.03,60.08,60.03,59.87,59.70,59.65,59.61,59.57,59.57,59.61,59.61,59.60,59.62,59.61,59.82,60.07,60.26,60.29,60.51,60.67,60.75,60.77,60.84,61.33,62.06,62.85,63.43,63.88,64.32,64.73,64.97,65.13,65.55,66.09,66.65,67.37,68.07,68.45,68.40,67.96,67.71,67.78,68.06,68.41,69.12,69.61,69.91,70.07,70.31,70.61,70.85,71.01,71.09,71.34,71.47,71.49,71.42,71.46,71.45,71.42,71.40,71.41,71.46,71.52,71.55,71.51,71.51,71.46,71.39,71.33,71.30,71.28,71.20,71.08,70.94,70.98,71.00,71.00,71.00,71.00,71.06,71.10,71.10,71.10,71.10,71.06,71.03,71.09,71.10,71.15,71.13,71.00,70.92,70.96,70.96,70.90,70.90,70.76,70.66,70.60,70.60,70.60,70.60,70.60,70.60,70.60,70.54,70.56,70.60,70.60,70.74,70.62,70.50,70.51,70.57,70.52,70.46,70.42,70.47,70.41,70.33,70.26,70.21,70.19,70.14,70.14,70.20,70.19,70.21,70.25,70.27,70.21,70.19,70.14,70.10,70.10,70.03,70.01,70.01,70.03,70.08,70.04,69.90,69.77,69.76,69.87,69.91,69.92,69.92,69.92,69.92,69.91
67.57,67.55,67.52,67.50,67.48,67.47,67.46,67.31,67.23,67.18,67.14,67.10,67.03,66.90,66.78,66.76,66.68,66.48,66.37,66.40,66.40,66.38,66.23,65.72,64.56,63.65,62.80,62.22,62.02,62.01,62.10,62.12,62.01,61.72,61.39,61.20,61.02,60.69,60.30,59.96,59.74,59.62,59.47,59.39,59.29,59.16,59.01,58.99,58.98,58.98,59.00,58.99,58.97,58.93,58.85,58.70,58.65,58.63,58.62,58.64,58.65,58.72,58.82,58.93,58.99,59.01,59.06,59.10,59.11,59.11,59.11,59.11,59.09,58.97,58.85,58.81,58.83,58.82,58.89,59.01,59.14,59.24,59.30,59.32,59.27,59.16,59.08,59.07,59.10,59.20,59.39,59.56,59.67,59.73,59.78,59.83,59.89,59.90,59.86,59.81,59.78,59.78,59.80,59.86,59.95,60.03,60.02,59.89,59.73,59.64,59.56,59.49,59.44,59.49,59.52,59.54,59.55,59.57,59.72,59.83,59.88,59.89,60.22,60.51,60.70,60.77,60.83,61.19,61.77,62.53,63.27,63.86,64.29,64.57,64.68,64.74,65.01,65.43,65.94,66.53,67.15,67.51,67.55,67.32,67.26,67.37,67.65,68.08,68.60,69.09,69.46,69.70,69.93,70.26,70.59,70.85,71.00,71.13,71.24,71.31,71.34,71.40,71.38,71.35,71.34,71.39,71.45,71.50,71.52,71.50,71.46,71.40,71.35,71.31,71.30,71.29,71.26,71.20,71.10,71.04,71.00,70.96,70.94,70.94,70.97,71.00,71.02,71.06,71.05,71.02,71.01,71.04,71.08,71.11,71.09,71.00,70.96,70.95,70.92,70.91,70.96,70.86,70.75,70.66,70.60,70.60,70.60,70.61,70.62,70.60,70.57,70.58,70.58,70.51,70.65,70.57,70.47,70.46,70.51,70.50,70.47,70.43,70.41,70.34,70.26,70.22,70.22,70.18,70.14,70.14,70.19,70.15,70.20,70.26,70.29,70.26,70.21,70.17,70.15,70.15,70.10,70.08,70.05,70.02,70.02,69.95,69.84,69.77,69.83,69.91,69.95,69.97,69.97,69.96,69.95,69.94
67.55,67.54,67.52,67.51,67.46,67.44,67.43,67.33,67.23,67.16,67.12,67.10,67.03,66.91,66.82,66.81,66.70,66.35,66.18,66.27,66.36,66.27,65.81,64.90,63.48,62.94,62.53,62.18,61.88,61.79,61.83,61.80,61.63,61.29,60.99,60.78,60.59,60.32,60.03,59.78,59.60,59.48,59.38,59.30,59.21,59.11,59.00,58.99,58.99,58.99,59.00,58.99,58.96,58.89,58.79,58.66,58.61,58.59,58.58,58.58,58.58,58.65,58.75,58.85,58.91,58.94,58.97,58.99,58.99,59.00,59.00,59.00,58.99,58.89,58.79,58.77,58.81,58.85,58.94,59.07,59.20,59.29,59.28,59.28,59.25,59.17,59.09,59.06,59.07,59.13,59.29,59.45,59.56,59.62,59.64,59.67,59.74,59.78,59.76,59.73,59.74,59.74,59.76,59.79,59.85,59.92,59.93,59.84,59.69,59.56,59.46,59.37,59.32,59.36,59.42,59.47,59.49,59.52,59.62,59.65,59.60,59.61,59.97,60.34,60.62,60.75,60.82,61.09,61.60,62.35,63.22,63.89,64.30,64.49,64.51,64.49,64.62,64.89,65.28,65.76,66.33,66.69,66.80,66.75,66.80,66.95,67.24,67.70,68.12,68.56,68.96,69.28,69.55,69.89,70.25,70.59,70.84,70.96,71.07,71.17,71.26,71.35,71.32,71.29,71.29,71.37,71.45,71.49,71.49,71.48,71.42,71.37,71.33,71.30,71.30,71.29,71.28,71.26,71.21,71.11,71.03,70.97,70.93,70.91,70.90,70.91,70.94,70.98,70.98,70.98,70.98,71.00,71.06,71.06,71.04,71.00,70.99,70.93,70.90,70.92,70.99,70.92,70.84,70.73,70.61,70.60,70.61,70.62,70.62,70.59,70.60,70.60,70.57,70.45,70.57,70.54,70.48,70.46,70.46,70.48,70.48,70.43,70.36,70.28,70.21,70.18,70.20,70.17,70.14,70.16,70.21,70.16,70.23,70.28,70.30,70.29,70.23,70.21,70.20,70.20,70.17,70.15,70.10,70.04,70.01,69.92,69.81,69.78,69.88,69.94,69.97,69.99,70.00,69.98,69.96,69.95
67.52,67.54,67.58,67.56,67.47,67.38,67.35,67.36,67.25,67.15,67.10,67.08,66.98,66.90,66.85,66.80,66.66,66.08,65.82,66.03,66.29,66.02,64.89,63.53,62.93,62.75,62.54,62.20,61.74,61.53,61.46,61.31,61.06,60.80,60.57,60.43,60.30,60.11,59.81,59.64,59.51,59.39,59.30,59.22,59.14,59.07,59.00,59.00,59.00,59.00,59.00,58.98,58.91,58.82,58.72,58.61,58.58,58.54,58.50,58.48,58.44,58.46,58.51,58.57,58.62,58.68,58.67,58.64,58.62,58.66,58.67,58.67,58.67,58.68,58.69,58.73,58.80,58.88,58.96,59.08,59.21,59.28,59.31,59.32,59.31,59.26,59.19,59.10,59.05,59.08,59.21,59.40,59.53,59.61,59.64,59.65,59.67,59.66,59.64,59.64,59.69,59.71,59.72,59.72,59.70,59.69,59.68,59.63,59.48,59.33,59.25,59.21,59.21,59.25,59.31,59.38,59.44,59.43,59.52,59.56,59.54,59.54,59.77,60.13,60.49,60.70,60.78,61.06,61.58,62.35,63.25,63.91,64.32,64.51,64.55,64.50,64.49,64.55,64.71,65.16,65.73,66.14,66.32,66.33,66.33,66.51,66.85,67.25,67.73,68.05,68.38,68.80,69.17,69.48,69.79,70.11,70.52,70.84,71.02,71.13,71.23,71.30,71.27,71.24,71.26,71.36,71.45,71.48,71.47,71.45,71.42,71.40,71.36,71.31,71.31,71.29,71.25,71.22,71.20,71.16,71.13,71.08,71.01,70.96,70.90,70.87,70.86,70.84,70.89,70.92,70.94,70.99,71.02,71.00,70.99,71.00,70.97,70.92,70.90,70.91,70.96,70.92,70.89,70.81,70.64,70.61,70.63,70.63,70.60,70.56,70.59,70.60,70.57,70.49,70.48,70.53,70.56,70.52,70.43,70.47,70.46,70.40,70.35,70.25,70.18,70.14,70.12,70.15,70.16,70.21,70.29,70.26,70.31,70.32,70.30,70.29,70.26,70.26,70.27,70.25,70.24,70.23,70.17,70.09,70.09,70.00,69.87,69.80,69.88,69.93,69.95,69.97,69.98,69.94,69.93,69.93
67.46,67.49,67.54,67.52,67.36,67.27,67.32,67.33,67.22,67.15,67.12,67.05,66.97,66.91,66.86,66.79,66.61,65.86,65.49,65.65,65.58,64.85,63.88,63.05,62.83,62.76,62.57,62.14,61.49,61.30,61.19,61.03,60.81,60.69,60.57,60.46,60.32,60.10,59.79,59.65,59.53,59.38,59.24,59.18,59.12,59.04,58.99,58.97,58.95,58.93,58.91,58.88,58.79,58.69,58.57,58.47,58.44,58.41,58.37,58.34,58.33,58.37,58.42,58.46,58.47,58.51,58.52,58.50,58.48,58.50,58.50,58.51,58.51,58.57,58.64,58.72,58.80,58.90,58.98,59.09,59.18,59.23,59.26,59.28,59.28,59.24,59.21,59.13,59.07,59.08,59.18,59.37,59.50,59.57,59.59,59.61,59.63,59.64,59.64,59.65,59.69,59.70,59.70,59.68,59.62,59.58,59.53,59.46,59.33,59.20,59.13,59.11,59.12,59.14,59.19,59.26,59.33,59.35,59.43,59.47,59.45,59.43,59.50,59.81,60.22,60.52,60.70,60.99,61.50,62.26,63.21,63.89,64.32,64.54,64.62,64.62,64.62,64.64,64.70,64.96,65.40,65.78,66.00,66.06,66.05,66.17,66.42,66.79,67.30,67.67,67.98,68.31,68.60,68.95,69.29,69.64,70.05,70.50,70.80,70.99,71.11,71.18,71.23,71.27,71.32,71.40,71.46,71.47,71.44,71.43,71.42,71.40,71.38,71.34,71.34,71.30,71.24,71.18,71.17,71.16,71.16,71.14,71.06,71.02,70.96,70.90,70.84,70.80,70.84,70.84,70.85,70.92,70.95,70.94,70.94,70.96,70.94,70.91,70.90,70.90,70.93,70.91,70.88,70.81,70.67,70.64,70.66,70.64,70.58,70.53,70.55,70.53,70.49,70.47,70.46,70.52,70.54,70.50,70.45,70.47,70.45,70.38,70.30,70.25,70.17,70.10,70.11,70.17,70.21,70.26,70.31,70.29,70.28,70.30,70.32,70.29,70.28,70.26,70.25,70.24,70.24,70.23,70.17,70.10,70.11,70.01,69.89,69.82,69.89,69.92,69.92,69.94,69.95,69.91,69.89,69.92
67.38,67.42,67.47,67.45,67.26,67.18,67.30,67.29,67.20,67.15,67.13,67.00,66.97,66.91,66.84,66.78,66.58,65.70,65.15,65.10,64.63,63.54,62.99,62.91,62.88,62.84,62.61,62.05,61.23,61.08,60.97,60.83,60.69,60.70,60.68,60.61,60.44,60.15,59.84,59.71,59.59,59.39,59.20,59.15,59.09,59.02,58.95,58.92,58.88,58.84,58.81,58.76,58.67,58.55,58.43,58.33,58.30,58.27,58.23,58.20,58.24,58.32,58.39,58.42,58.39,58.40,58.44,58.46,58.44,58.43,58.43,58.44,58.45,58.53,58.62,58.70,58.79,58.90,59.00,59.09,59.15,59.18,59.19,59.22,59.22,59.20,59.20,59.15,59.11,59.11,59.19,59.35,59.46,59.52,59.53,59.57,59.61,59.64,59.66,59.67,59.69,59.69,59.67,59.63,59.56,59.50,59.42,59.32,59.21,59.10,59.04,59.03,59.05,59.05,59.08,59.13,59.21,59.26,59.34,59.37,59.34,59.33,59.24,59.49,59.93,60.29,60.59,60.90,61.38,62.12,63.10,63.83,64.30,64.57,64.70,64.77,64.82,64.85,64.87,64.92,65.19,65.49,65.74,65.84,65.85,65.89,66.03,66.35,66.86,67.29,67.61,67.84,68.04,68.40,68.77,69.15,69.57,70.09,70.49,70.76,70.92,71.02,71.17,71.31,71.41,71.46,71.49,71.47,71.43,71.43,71.42,71.41,71.39,71.38,71.37,71.31,71.23,71.15,71.14,71.16,71.19,71.17,71.08,71.06,71.03,70.95,70.86,70.81,70.80,70.77,70.77,70.84,70.88,70.89,70.90,70.92,70.91,70.90,70.90,70.90,70.90,70.89,70.85,70.79,70.70,70.68,70.68,70.64,70.55,70.50,70.50,70.45,70.39,70.44,70.47,70.50,70.49,70.44,70.46,70.47,70.44,70.35,70.24,70.24,70.15,70.07,70.11,70.19,70.25,70.29,70.32,70.31,70.23,70.27,70.35,70.30,70.29,70.25,70.21,70.21,70.21,70.20,70.16,70.10,70.10,70.01,69.90,69.85,69.90,69.90,69.90,69.91,69.91,69.89,69.87,69.91
67.28,67.34,67.36,67.41,67.38,67.35,67.35,67.35,67.29,67.17,67.04,66.97,66.93,66.87,66.80,66.75,66.57,65.71,64.74,63.95,63.60,63.20,63.01,62.96,62.93,62.95,62.66,61.96,61.00,60.91,60.82,60.73,60.66,60.69,60.67,60.61,60.48,60.24,59.85,59.74,59.63,59.42,59.17,59.08,59.00,58.91,58.84,58.81,58.80,58.80,58.79,58.73,58.64,58.55,58.45,58.33,58.29,58.24,58.19,58.17,58.22,58.32,58.42,58.46,58.45,58.47,58.50,58.52,58.52,58.51,58.53,58.56,58.59,58.64,58.68,58.70,58.74,58.85,58.98,59.11,59.19,59.21,59.20,59.21,59.21,59.20,59.20,59.19,59.19,59.22,59.25,59.32,59.40,59.46,59.49,59.55,59.60,59.63,59.64,59.64,59.65,59.63,59.58,59.54,59.47,59.41,59.35,59.26,59.12,59.02,58.97,58.96,58.97,58.97,58.97,59.03,59.13,59.22,59.27,59.28,59.28,59.29,59.23,59.43,59.76,60.03,60.39,60.75,61.19,61.79,62.76,63.63,64.26,64.63,64.76,64.84,64.88,64.91,64.94,65.00,65.16,65.34,65.53,65.68,65.74,65.79,65.89,66.06,66.46,66.71,67.08,67.61,67.82,68.02,68.22,68.55,69.25,69.66,69.97,70.24,70.51,70.77,71.04,71.28,71.45,71.53,71.55,71.52,71.48,71.47,71.46,71.43,71.42,71.44,71.40,71.33,71.23,71.14,71.17,71.22,71.22,71.18,71.09,71.00,71.03,71.02,70.94,70.88,70.83,70.79,70.77,70.76,70.81,70.80,70.81,70.91,70.96,70.92,70.90,70.90,70.90,70.85,70.79,70.73,70.70,70.69,70.61,70.55,70.51,70.44,70.43,70.42,70.41,70.48,70.49,70.50,70.45,70.34,70.35,70.40,70.38,70.29,70.15,70.14,70.12,70.09,70.11,70.19,70.22,70.26,70.32,70.35,70.30,70.29,70.31,70.29,70.24,70.21,70.18,70.14,70.14,70.16,70.14,70.09,70.07,69.96,69.90,69.88,69.90,69.91,69.92,69.94,69.97,69.95,69.91,69.90
67.15,67.25,67.26,67.34,67.40,67.41,67.38,67.37,67.32,67.17,67.00,66.94,66.89,66.82,66.76,66.70,66.52,65.54,64.33,63.31,63.10,63.05,63.03,63.02,63.02,63.02,62.62,61.82,60.80,60.70,60.62,60.57,60.55,60.60,60.57,60.52,60.41,60.17,59.73,59.61,59.53,59.36,59.09,58.97,58.88,58.80,58.73,58.71,58.71,58.73,58.74,58.70,58.63,58.55,58.47,58.33,58.29,58.24,58.19,58.16,58.23,58.38,58.49,58.53,58.50,58.50,58.51,58.52,58.53,58.54,58.57,58.61,58.65,58.69,58.70,58.68,58.68,58.79,58.95,59.10,59.20,59.22,59.19,59.18,59.19,59.20,59.20,59.21,59.23,59.25,59.24,59.27,59.35,59.43,59.50,59.54,59.58,59.61,59.62,59.60,59.57,59.52,59.47,59.45,59.40,59.34,59.26,59.16,59.03,58.96,58.93,58.92,58.92,58.91,58.90,58.95,59.07,59.18,59.21,59.21,59.21,59.23,59.29,59.48,59.72,59.88,60.20,60.53,60.92,61.45,62.48,63.53,64.28,64.69,64.81,64.88,64.92,64.95,64.99,65.04,65.14,65.26,65.41,65.54,65.61,65.68,65.77,65.88,66.13,66.29,66.57,67.04,67.40,67.67,67.87,68.14,68.73,69.12,69.46,69.77,70.05,70.36,70.83,71.24,71.49,71.55,71.57,71.55,71.50,71.49,71.49,71.46,71.45,71.47,71.39,71.35,71.25,71.15,71.21,71.24,71.23,71.18,71.10,71.02,71.05,71.07,71.02,70.95,70.88,70.83,70.79,70.75,70.81,70.78,70.78,70.84,70.88,70.85,70.84,70.86,70.86,70.79,70.74,70.71,70.71,70.70,70.61,70.53,70.49,70.41,70.38,70.40,70.44,70.47,70.49,70.50,70.44,70.32,70.33,70.37,70.33,70.24,70.11,70.09,70.10,70.12,70.14,70.19,70.23,70.27,70.32,70.33,70.30,70.28,70.27,70.29,70.22,70.20,70.17,70.12,70.10,70.10,70.08,70.03,69.99,69.93,69.91,69.91,69.92,69.94,69.95,69.97,70.00,69.98,69.93,69.90
67.00,67.17,67.17,67.27,67.33,67.36,67.39,67.37,67.30,67.15,66.98,66.90,66.85,66.78,66.71,66.64,66.45,65.22,63.92,63.07,63.02,63.03,63.06,63.10,63.15,63.04,62.51,61.63,60.62,60.46,60.38,60.36,60.39,60.43,60.41,60.36,60.24,59.97,59.50,59.36,59.32,59.23,58.97,58.84,58.75,58.69,58.63,58.63,58.63,58.64,58.65,58.67,58.63,58.56,58.47,58.31,58.29,58.26,58.22,58.18,58.28,58.48,58.60,58.61,58.55,58.50,58.46,58.46,58.50,58.53,58.58,58.62,58.65,58.70,58.69,58.65,58.63,58.73,58.92,59.07,59.17,59.21,59.17,59.16,59.17,59.20,59.20,59.21,59.21,59.21,59.18,59.21,59.31,59.43,59.53,59.55,59.56,59.58,59.60,59.56,59.46,59.38,59.34,59.37,59.36,59.27,59.15,59.01,58.93,58.91,58.90,58.90,58.90,58.86,58.86,58.91,59.03,59.14,59.16,59.16,59.16,59.15,59.40,59.64,59.79,59.81,60.01,60.27,60.59,61.09,62.24,63.50,64.35,64.75,64.86,64.89,64.94,64.98,65.00,65.06,65.13,65.24,65.35,65.40,65.45,65.55,65.68,65.78,65.86,65.98,66.08,66.21,66.82,67.33,67.67,67.87,68.06,68.48,68.94,69.33,69.57,69.81,70.55,71.21,71.54,71.52,71.56,71.55,71.52,71.51,71.50,71.50,71.50,71.47,71.35,71.36,71.28,71.17,71.25,71.22,71.20,71.17,71.12,71.11,71.10,71.10,71.08,71.02,70.95,70.87,70.82,70.81,70.86,70.84,70.78,70.72,70.71,70.69,70.73,70.79,70.78,70.72,70.71,70.72,70.72,70.70,70.64,70.56,70.49,70.41,70.35,70.39,70.47,70.42,70.48,70.50,70.45,70.35,70.37,70.36,70.30,70.20,70.12,70.07,70.09,70.15,70.20,70.21,70.28,70.32,70.31,70.24,70.26,70.24,70.23,70.29,70.22,70.20,70.19,70.15,70.07,70.01,69.97,69.94,69.88,69.91,69.92,69.92,69.94,69.99,70.00,70.00,70.00,69.98,69.93,69.90
67.00,67.19,67.19,67.23,67.26,67.28,67.29,67.27,67.21,67.10,66.98,66.89,66.82,66.70,66.58,66.47,65.93,64.45,63.33,62.98,62.96,63.01,63.06,63.10,63.13,62.95,62.20,61.28,60.53,60.41,60.30,60.23,60.21,60.20,60.21,60.15,59.99,59.68,59.27,59.18,59.16,59.04,58.73,58.53,58.46,58.50,58.60,58.57,58.55,58.51,58.45,58.43,58.53,58.54,58.44,58.33,58.33,58.31,58.26,58.21,58.21,58.33,58.48,58.56,58.52,58.42,58.37,58.40,58.44,58.47,58.51,58.56,58.59,58.61,58.59,58.57,58.59,58.67,58.81,58.93,59.02,59.07,59.11,59.13,59.16,59.19,59.17,59.15,59.14,59.13,59.10,59.13,59.25,59.41,59.53,59.56,59.57,59.57,59.56,59.50,59.41,59.33,59.27,59.26,59.25,59.22,59.14,59.03,58.91,58.82,58.78,58.80,58.83,58.80,58.79,58.83,58.93,59.02,59.09,59.14,59.17,59.16,59.43,59.68,59.82,59.82,60.00,60.18,60.45,60.96,62.33,63.58,64.36,64.71,64.85,64.93,64.98,65.01,65.05,65.12,65.20,65.28,65.36,65.39,65.41,65.49,65.60,65.69,65.77,65.85,65.91,66.00,66.28,66.67,67.05,67.39,67.68,68.03,68.42,68.82,69.20,69.77,70.54,71.16,71.51,71.53,71.57,71.58,71.57,71.55,71.51,71.49,71.48,71.44,71.35,71.38,71.33,71.22,71.21,71.19,71.18,71.18,71.17,71.17,71.14,71.12,71.09,71.06,71.02,70.98,70.93,70.89,70.84,70.80,70.77,70.74,70.71,70.69,70.71,70.74,70.71,70.70,70.71,70.72,70.72,70.68,70.60,70.53,70.49,70.41,70.36,70.40,70.46,70.47,70.51,70.49,70.45,70.40,70.34,70.29,70.26,70.26,70.20,70.18,70.19,70.20,70.20,70.21,70.31,70.36,70.32,70.25,70.23,70.23,70.25,70.29,70.22,70.20,70.17,70.10,70.01,69.97,69.96,69.97,69.98,70.01,69.96,69.91,69.92,69.95,69.97,69.98,69.99,69.96,69.91,69.88
66.96,67.15,67.15,67.17,67.18,67.19,67.18,67.16,67.11,67.04,66.95,66.84,66.74,66.60,66.45,66.21,65.10,63.68,62.88,62.86,62.90,62.98,63.04,63.07,63.06,62.80,61.84,60.91,60.44,60.38,60.29,60.20,60.13,60.05,60.04,59.95,59.72,59.33,59.00,58.95,58.93,58.81,58.54,58.31,58.23,58.31,58.44,58.38,58.37,58.35,58.28,58.23,58.39,58.45,58.39,58.32,58.30,58.27,58.23,58.20,58.12,58.20,58.36,58.50,58.47,58.34,58.30,58.33,58.36,58.40,58.44,58.48,58.52,58.53,58.50,58.51,58.55,58.61,58.71,58.80,58.87,58.94,59.01,59.05,59.09,59.13,59.12,59.07,59.06,59.06,59.06,59.09,59.21,59.36,59.48,59.52,59.54,59.54,59.50,59.44,59.37,59.29,59.21,59.17,59.17,59.18,59.12,58.99,58.87,58.77,58.72,58.72,58.76,58.73,58.72,58.72,58.76,58.88,59.01,59.10,59.14,59.12,59.35,59.58,59.72,59.74,59.93,60.09,60.34,60.87,62.33,63.57,64.34,64.69,64.86,64.97,65.00,65.03,65.08,65.17,65.25,65.31,65.36,65.36,65.38,65.45,65.53,65.60,65.67,65.73,65.79,65.86,65.93,66.20,66.54,66.89,67.20,67.56,67.92,68.31,68.76,69.60,70.43,71.08,71.46,71.53,71.55,71.56,71.55,71.52,71.47,71.46,71.45,71.41,71.36,71.40,71.37,71.27,71.21,71.19,71.19,71.20,71.21,71.20,71.17,71.13,71.11,71.11,71.09,71.07,71.03,70.97,70.86,70.80,70.77,70.76,70.70,70.68,70.69,70.70,70.66,70.68,70.69,70.70,70.70,70.65,70.56,70.51,70.50,70.42,70.39,70.41,70.47,70.52,70.55,70.50,70.45,70.44,70.32,70.26,70.26,70.29,70.26,70.25,70.26,70.26,70.20,70.22,70.32,70.36,70.30,70.25,70.21,70.22,70.24,70.26,70.22,70.20,70.17,70.07,69.98,69.98,70.00,70.03,70.08,70.08,69.99,69.90,69.89,69.91,69.91,69.93,69.97,69.93,69.90,69.87
66.86,67.02,67.03,67.09,67.11,67.11,67.09,67.04,67.01,66.95,66.85,66.71,66.57,66.49,66.30,65.78,63.77,62.92,62.65,62.69,62.82,62.94,63.00,62.98,62.91,62.56,61.41,60.49,60.36,60.39,60.38,60.34,60.24,60.04,59.93,59.76,59.44,58.90,58.67,58.61,58.58,58.51,58.47,58.23,58.11,58.09,58.08,58.00,58.03,58.11,58.17,58.10,58.19,58.27,58.30,58.28,58.15,58.09,58.09,58.11,58.01,58.11,58.27,58.41,58.37,58.29,58.25,58.26,58.27,58.30,58.35,58.40,58.45,58.46,58.46,58.48,58.51,58.54,58.61,58.70,58.77,58.82,58.86,58.89,58.93,58.99,59.02,58.97,58.96,59.01,59.08,59.12,59.20,59.28,59.35,59.36,59.41,59.44,59.43,59.38,59.34,59.26,59.17,59.11,59.13,59.14,59.04,58.85,58.79,58.79,58.75,58.70,58.68,58.69,58.66,58.59,58.51,58.70,58.91,59.02,59.03,58.99,59.09,59.24,59.40,59.52,59.74,59.96,60.28,60.85,62.16,63.41,64.26,64.71,64.91,65.00,65.01,65.02,65.09,65.19,65.26,65.30,65.32,65.31,65.37,65.44,65.49,65.52,65.56,65.63,65.73,65.83,65.89,66.05,66.23,66.39,66.52,67.06,67.45,67.79,68.20,69.16,70.15,70.92,71.38,71.52,71.49,71.44,71.38,71.36,71.36,71.38,71.40,71.40,71.39,71.42,71.40,71.34,71.29,71.24,71.25,71.27,71.25,71.22,71.17,71.15,71.16,71.18,71.15,71.13,71.11,71.05,70.97,70.88,70.80,70.76,70.67,70.67,70.67,70.67,70.66,70.65,70.63,70.63,70.66,70.58,70.51,70.50,70.54,70.47,70.43,70.45,70.51,70.56,70.58,70.52,70.47,70.45,70.32,70.31,70.31,70.30,70.29,70.26,70.29,70.31,70.20,70.26,70.31,70.30,70.23,70.21,70.20,70.18,70.17,70.18,70.20,70.23,70.20,70.08,70.01,70.07,70.13,70.14,70.15,70.11,70.00,69.89,69.87,69.84,69.81,69.84,69.93,69.91,69.89,69.86
66.53,66.79,66.84,66.94,66.96,66.96,66.95,66.91,66.85,66.77,66.67,66.52,66.27,65.99,65.43,64.37,62.91,62.50,62.48,62.58,62.73,62.81,62.78,62.69,62.61,62.27,61.13,60.29,60.32,60.36,60.37,60.29,60.10,59.78,59.43,59.13,58.85,58.56,58.45,58.44,58.44,58.41,58.38,58.27,58.19,58.16,58.13,58.08,58.09,58.14,58.16,58.11,58.14,58.14,58.11,58.03,57.93,57.90,57.93,57.96,57.88,57.96,58.11,58.25,58.30,58.31,58.32,58.34,58.35,58.36,58.38,58.43,58.50,58.52,58.50,58.49,58.50,58.51,58.57,58.64,58.69,58.70,58.74,58.79,58.83,58.87,58.90,58.88,58.91,59.00,59.11,59.16,59.21,59.25,59.29,59.31,59.35,59.37,59.37,59.34,59.30,59.23,59.14,59.09,59.09,59.09,59.00,58.80,58.68,58.68,58.66,58.61,58.59,58.61,58.55,58.45,58.38,58.64,58.87,58.95,58.92,58.88,58.92,59.00,59.09,59.14,59.31,59.61,60.06,60.74,62.05,63.34,64.21,64.67,64.88,64.98,65.00,65.01,65.09,65.18,65.22,65.24,65.26,65.32,65.41,65.47,65.52,65.53,65.52,65.56,65.62,65.70,65.77,65.86,65.94,66.01,66.07,66.46,66.73,66.97,67.28,68.19,69.18,70.04,70.69,71.07,70.95,70.94,71.03,71.14,71.23,71.28,71.32,71.36,71.39,71.41,71.41,71.37,71.32,71.28,71.28,71.30,71.31,71.23,71.16,71.16,71.21,71.24,71.19,71.15,71.11,71.05,71.00,70.92,70.86,70.82,70.73,70.69,70.66,70.64,70.64,70.65,70.63,70.60,70.59,70.53,70.50,70.50,70.53,70.53,70.54,70.55,70.55,70.58,70.60,70.56,70.49,70.39,70.35,70.33,70.31,70.31,70.34,70.25,70.28,70.31,70.25,70.28,70.30,70.31,70.30,70.25,70.25,70.26,70.23,70.14,70.19,70.24,70.20,70.04,70.01,70.11,70.15,70.13,70.13,70.07,70.00,69.93,69.88,69.82,69.77,69.79,69.86,69.85,69.84,69.83
66.08,66.49,66.63,66.79,66.81,66.80,66.80,66.78,66.68,66.58,66.45,66.26,65.84,65.28,64.34,62.87,62.27,62.20,62.31,62.42,62.53,62.49,62.33,62.14,62.07,61.85,60.85,60.13,60.25,60.28,60.29,60.16,59.88,59.48,58.89,58.51,58.33,58.32,58.30,58.34,58.37,58.37,58.32,58.33,58.31,58.28,58.26,58.25,58.24,58.21,58.18,58.15,58.13,58.06,57.94,57.79,57.76,57.77,57.81,57.84,57.78,57.84,57.95,58.07,58.19,58.29,58.36,58.40,58.45,58.43,58.44,58.49,58.58,58.61,58.56,58.52,58.50,58.50,58.54,58.59,58.63,58.61,58.65,58.71,58.75,58.76,58.78,58.81,58.88,58.99,59.12,59.18,59.20,59.21,59.24,59.28,59.30,59.31,59.30,59.28,59.25,59.19,59.12,59.06,59.03,59.02,58.94,58.75,58.56,58.53,58.50,58.46,58.45,58.48,58.39,58.28,58.27,58.59,58.82,58.88,58.82,58.78,58.79,58.83,58.84,58.80,58.88,59.25,59.81,60.59,61.95,63.29,64.18,64.61,64.81,64.93,64.98,65.01,65.09,65.16,65.16,65.16,65.20,65.34,65.45,65.53,65.57,65.58,65.54,65.54,65.56,65.60,65.65,65.70,65.71,65.72,65.77,65.92,66.05,66.18,66.38,67.18,68.05,68.92,69.71,70.30,70.20,70.33,70.64,70.90,71.10,71.18,71.23,71.29,71.37,71.38,71.39,71.38,71.34,71.31,71.30,71.31,71.34,71.24,71.16,71.17,71.26,71.27,71.22,71.15,71.09,71.03,71.01,70.96,70.91,70.89,70.82,70.74,70.67,70.63,70.61,70.65,70.63,70.58,70.54,70.51,70.50,70.50,70.52,70.56,70.63,70.63,70.59,70.60,70.60,70.59,70.50,70.34,70.39,70.34,70.31,70.31,70.38,70.26,70.26,70.30,70.30,70.31,70.31,70.34,70.38,70.31,70.32,70.35,70.33,70.13,70.18,70.22,70.17,70.01,70.04,70.13,70.15,70.10,70.09,70.03,70.00,69.97,69.90,69.83,69.76,69.75,69.79,69.79,69.80,69.80
65.42,65.99,66.48,66.68,66.71,66.69,66.69,66.66,66.59,66.47,66.24,65.78,64.95,64.11,63.21,62.23,62.01,61.99,62.02,62.01,61.88,61.52,61.07,60.70,60.63,60.89,60.40,59.94,59.95,59.98,60.00,59.88,59.62,59.29,58.70,58.48,58.47,58.42,58.34,58.32,58.33,58.35,58.35,58.34,58.31,58.28,58.27,58.27,58.25,58.22,58.19,58.19,58.17,58.10,57.99,57.87,57.87,57.90,57.92,57.90,57.88,57.87,57.88,57.90,57.93,57.98,58.11,58.29,58.44,58.43,58.42,58.46,58.58,58.61,58.58,58.53,58.50,58.48,58.52,58.59,58.64,58.62,58.66,58.71,58.73,58.70,58.70,58.77,58.86,58.96,59.05,59.08,59.11,59.13,59.16,59.20,59.23,59.23,59.21,59.18,59.15,59.11,59.07,59.02,58.92,58.81,58.69,58.57,58.44,58.32,58.21,58.14,58.12,58.14,58.06,58.01,58.08,58.46,58.69,58.77,58.74,58.73,58.76,58.81,58.85,58.81,58.82,59.10,59.64,60.45,61.76,63.22,64.14,64.55,64.71,64.85,64.96,65.04,65.10,65.12,65.09,65.09,65.14,65.31,65.50,65.61,65.66,65.66,65.69,65.70,65.70,65.68,65.68,65.70,65.70,65.72,65.77,65.79,65.84,65.92,66.05,66.64,67.08,67.60,68.20,68.65,69.12,69.68,70.25,70.73,71.00,71.07,71.11,71.21,71.29,71.32,71.33,71.34,71.42,71.35,71.31,71.29,71.25,71.21,71.19,71.19,71.22,71.22,71.20,71.16,71.10,71.08,71.02,70.99,70.98,70.97,70.94,70.84,70.74,70.67,70.62,70.62,70.61,70.59,70.58,70.53,70.47,70.46,70.49,70.45,70.51,70.57,70.59,70.58,70.59,70.55,70.48,70.39,70.44,70.36,70.30,70.30,70.32,70.30,70.29,70.30,70.32,70.35,70.33,70.33,70.37,70.31,70.39,70.44,70.40,70.23,70.17,70.11,70.06,70.05,70.14,70.15,70.13,70.11,70.09,70.04,70.00,69.98,69.97,69.93,69.84,69.77,69.72,69.72,69.77,69.82
64.50,65.32,66.26,66.58,66.67,66.66,66.63,66.57,66.46,66.23,65.81,65.04,64.04,63.19,62.47,61.86,61.81,61.78,61.57,61.15,60.77,60.32,59.90,59.62,59.59,60.04,59.96,59.72,59.59,59.62,59.63,59.57,59.41,59.15,58.62,58.49,58.53,58.48,58.35,58.31,58.31,58.33,58.35,58.35,58.34,58.32,58.30,58.28,58.25,58.21,58.20,58.20,58.18,58.12,58.02,57.91,57.92,57.95,57.96,57.92,57.91,57.89,57.87,57.84,57.82,57.84,57.92,58.05,58.17,58.17,58.23,58.34,58.51,58.57,58.55,58.52,58.50,58.48,58.49,58.54,58.59,58.60,58.62,58.65,58.66,58.64,58.64,58.72,58.82,58.91,58.97,59.00,59.04,59.08,59.12,59.13,59.14,59.13,59.11,59.09,59.05,59.01,58.96,58.89,58.78,58.65,58.51,58.38,58.29,58.19,58.13,58.12,58.13,58.06,57.92,57.87,58.02,58.42,58.62,58.69,58.70,58.73,58.78,58.83,58.86,58.83,58.81,58.98,59.46,60.32,61.60,63.04,64.02,64.51,64.72,64.85,64.96,65.04,65.08,65.06,65.04,65.06,65.11,65.25,65.44,65.59,65.70,65.75,65.80,65.82,65.81,65.78,65.72,65.71,65.70,65.70,65.73,65.72,65.74,65.81,65.92,66.22,66.39,66.68,67.18,67.78,68.54,69.25,69.87,70.39,70.72,70.87,70.97,71.11,71.22,71.25,71.27,71.31,71.43,71.37,71.33,71.28,71.22,71.23,71.22,71.21,71.20,71.21,71.21,71.16,71.11,71.09,71.04,71.02,71.01,71.00,70.97,70.85,70.76,70.70,70.65,70.62,70.60,70.60,70.60,70.54,70.48,70.46,70.47,70.41,70.44,70.51,70.56,70.54,70.56,70.52,70.46,70.40,70.41,70.35,70.31,70.31,70.31,70.33,70.31,70.30,70.35,70.35,70.32,70.32,70.34,70.33,70.41,70.47,70.43,70.24,70.11,70.03,70.03,70.13,70.21,70.19,70.16,70.14,70.09,70.04,70.00,69.97,69.98,69.96,69.89,69.80,69.72,69.66,69.70,69.76
63.40,64.53,65.98,66.49,66.67,66.67,66.61,66.52,66.29,65.90,65.23,64.11,63.11,62.45,62.01,61.67,61.65,61.58,61.01,59.98,59.34,58.96,58.80,58.79,58.83,59.26,59.52,59.50,59.20,59.20,59.21,59.25,59.25,59.04,58.64,58.51,58.53,58.52,58.34,58.30,58.30,58.30,58.33,58.37,58.39,58.38,58.36,58.29,58.23,58.20,58.20,58.20,58.18,58.12,58.02,57.91,57.92,57.95,57.95,57.90,57.90,57.91,57.90,57.86,57.82,57.82,57.78,57.73,57.72,57.74,57.92,58.16,58.39,58.49,58.50,58.50,58.50,58.50,58.47,58.46,58.47,58.54,58.56,58.55,58.57,58.60,58.60,58.66,58.76,58.85,58.90,58.93,58.99,59.06,59.10,59.06,59.02,59.00,59.00,58.99,58.95,58.89,58.80,58.69,58.62,58.51,58.37,58.20,58.12,58.11,58.18,58.29,58.36,58.16,57.91,57.82,58.04,58.45,58.60,58.65,58.68,58.75,58.83,58.87,58.88,58.84,58.84,58.88,59.29,60.19,61.44,62.79,63.84,64.50,64.80,64.91,64.97,65.01,65.04,64.97,65.00,65.06,65.11,65.17,65.31,65.51,65.70,65.84,65.88,65.90,65.90,65.88,65.78,65.73,65.71,65.69,65.67,65.68,65.73,65.80,65.91,65.90,65.89,66.04,66.50,67.44,68.30,68.97,69.49,69.95,70.33,70.60,70.82,71.02,71.13,71.18,71.23,71.28,71.38,71.38,71.34,71.29,71.24,71.28,71.26,71.23,71.20,71.23,71.23,71.17,71.10,71.07,71.05,71.03,71.02,70.99,70.92,70.81,70.74,70.72,70.70,70.66,70.62,70.60,70.60,70.54,70.51,70.49,70.46,70.41,70.40,70.45,70.51,70.48,70.53,70.50,70.44,70.39,70.31,70.33,70.34,70.34,70.34,70.35,70.31,70.30,70.40,70.32,70.30,70.30,70.31,70.35,70.39,70.44,70.41,70.18,70.01,69.99,70.07,70.21,70.24,70.24,70.22,70.17,70.10,70.05,70.00,69.95,69.95,69.94,69.90,69.84,69.75,69.62,69.61,69.66
62.83,63.82,65.31,66.14,66.45,66.48,66.40,66.27,66.08,65.36,64.22,63.06,62.38,61.97,61.69,61.44,61.42,60.96,60.10,59.13,58.93,58.80,58.74,58.73,58.75,58.91,59.01,59.00,58.89,58.88,58.86,58.87,58.88,58.77,58.60,58.53,58.51,58.50,58.38,58.32,58.31,58.32,58.35,58.34,58.33,58.33,58.32,58.29,58.24,58.20,58.20,58.19,58.15,58.11,58.05,57.97,57.96,57.94,57.92,57.90,57.90,57.90,57.90,57.89,57.87,57.87,57.87,57.86,57.86,57.76,57.74,57.82,58.00,58.12,58.25,58.37,58.46,58.45,58.43,58.42,58.44,58.53,58.55,58.52,58.50,58.51,58.58,58.65,58.70,58.74,58.80,58.84,58.88,58.90,58.89,58.90,58.90,58.88,58.83,58.78,58.77,58.73,58.68,58.59,58.54,58.49,58.42,58.32,58.25,58.21,58.25,58.33,58.41,58.28,58.02,57.90,58.12,58.51,58.62,58.64,58.67,58.75,58.82,58.85,58.84,58.80,58.76,58.71,58.93,59.58,60.71,62.13,63.36,64.27,64.79,65.02,65.09,65.04,64.92,64.91,65.00,65.08,65.12,65.15,65.21,65.33,65.50,65.67,65.76,65.83,65.85,65.84,65.81,65.80,65.75,65.65,65.57,65.51,65.55,65.64,65.74,65.77,65.79,65.91,66.21,66.83,67.60,68.32,68.95,69.45,69.80,70.13,70.46,70.78,70.99,71.12,71.21,71.27,71.37,71.35,71.34,71.32,71.28,71.27,71.27,71.26,71.24,71.27,71.25,71.18,71.10,71.06,71.07,71.06,71.01,70.93,70.91,70.83,70.77,70.74,70.74,70.74,70.75,70.74,70.67,70.56,70.49,70.47,70.47,70.44,70.41,70.42,70.45,70.48,70.53,70.48,70.40,70.36,70.34,70.34,70.36,70.38,70.38,70.34,70.29,70.29,70.35,70.31,70.33,70.34,70.35,70.38,70.40,70.46,70.43,70.14,70.01,70.03,70.12,70.21,70.26,70.24,70.22,70.18,70.13,70.01,69.95,69.92,69.87,69.87,69.86,69.83,69.77,69.66,69.64,69.63
62.34,63.14,64.60,65.75,66.12,66.12,66.02,65.84,65.42,64.41,63.06,62.03,61.59,61.34,61.24,61.26,61.23,60.58,59.59,58.64,58.69,58.70,58.70,58.70,58.70,58.70,58.70,58.70,58.70,58.69,58.65,58.65,58.66,58.61,58.58,58.54,58.51,58.50,58.41,58.35,58.33,58.33,58.36,58.33,58.31,58.31,58.31,58.30,58.26,58.22,58.21,58.20,58.16,58.12,58.08,58.00,57.98,57.94,57.91,57.91,57.90,57.90,57.90,57.90,57.90,57.91,57.93,57.95,57.95,57.81,57.70,57.68,57.78,57.88,58.06,58.22,58.32,58.35,58.37,58.37,58.41,58.50,58.53,58.49,58.45,58.46,58.57,58.64,58.67,58.67,58.72,58.76,58.74,58.70,58.66,58.69,58.73,58.73,58.67,58.61,58.62,58.61,58.59,58.54,58.49,58.46,58.42,58.36,58.30,58.26,58.27,58.31,58.38,58.31,58.07,57.96,58.19,58.56,58.62,58.61,58.64,58.74,58.80,58.82,58.80,58.76,58.71,58.62,58.68,59.05,59.94,61.34,62.70,63.81,64.57,64.94,65.04,64.96,64.82,64.88,65.00,65.09,65.13,65.14,65.15,65.21,65.34,65.53,65.67,65.76,65.80,65.81,65.84,65.85,65.76,65.60,65.47,65.39,65.41,65.49,65.57,65.62,65.67,65.77,65.96,66.30,66.91,67.62,68.32,68.91,69.27,69.67,70.07,70.48,70.83,71.06,71.19,71.27,71.35,71.31,71.32,71.33,71.31,71.28,71.28,71.27,71.27,71.29,71.26,71.19,71.12,71.09,71.10,71.06,70.98,70.88,70.88,70.83,70.78,70.74,70.75,70.81,70.84,70.81,70.71,70.60,70.51,70.48,70.49,70.44,70.42,70.41,70.41,70.44,70.48,70.44,70.38,70.35,70.37,70.36,70.38,70.42,70.40,70.31,70.27,70.28,70.32,70.30,70.33,70.36,70.38,70.42,70.43,70.48,70.44,70.10,70.05,70.07,70.14,70.21,70.25,70.23,70.21,70.19,70.13,69.99,69.90,69.85,69.81,69.84,69.83,69.81,69.78,69.69,69.68,69.65
61.95,62.54,63.83,65.30,65.62,65.50,65.37,65.14,64.10,62.85,61.71,61.05,60.72,60.51,60.62,61.15,61.10,60.59,59.67,58.69,58.70,58.70,58.69,58.69,58.70,58.71,58.70,58.69,58.70,58.70,58.69,58.66,58.63,58.61,58.56,58.54,58.54,58.55,58.44,58.39,58.36,58.34,58.36,58.36,58.34,58.33,58.33,58.32,58.30,58.26,58.25,58.26,58.21,58.17,58.12,58.01,57.98,57.96,57.93,57.93,57.90,57.90,57.90,57.90,57.89,57.90,57.94,57.98,57.97,57.94,57.88,57.83,57.80,57.83,57.96,58.04,58.06,58.19,58.26,58.32,58.38,58.44,58.49,58.46,58.44,58.48,58.59,58.65,58.67,58.66,58.69,58.67,58.58,58.47,58.38,58.40,58.48,58.54,58.54,58.50,58.52,58.55,58.55,58.53,58.47,58.40,58.35,58.30,58.26,58.23,58.22,58.21,58.25,58.21,58.03,57.98,58.24,58.58,58.58,58.55,58.60,58.72,58.77,58.77,58.74,58.73,58.70,58.63,58.58,58.65,59.10,60.38,61.77,63.04,64.01,64.60,64.76,64.73,64.72,64.88,65.00,65.09,65.13,65.12,65.13,65.17,65.26,65.44,65.59,65.68,65.74,65.79,65.86,65.88,65.75,65.52,65.37,65.34,65.34,65.36,65.40,65.46,65.53,65.62,65.75,65.88,66.26,66.86,67.58,68.31,68.75,69.21,69.67,70.11,70.63,70.99,71.19,71.29,71.32,71.27,71.28,71.31,71.30,71.33,71.28,71.26,71.29,71.30,71.24,71.20,71.17,71.17,71.12,71.02,70.91,70.82,70.83,70.81,70.77,70.72,70.72,70.84,70.85,70.80,70.72,70.67,70.60,70.56,70.53,70.37,70.43,70.44,70.39,70.34,70.35,70.38,70.39,70.39,70.39,70.39,70.42,70.46,70.40,70.27,70.22,70.25,70.30,70.30,70.32,70.35,70.41,70.47,70.49,70.52,70.44,70.03,70.13,70.13,70.14,70.20,70.21,70.21,70.20,70.17,70.10,70.00,69.85,69.74,69.75,69.85,69.83,69.80,69.77,69.72,69.75,69.71
61.86,62.07,63.02,64.47,64.81,64.56,64.07,63.51,62.46,61.41,60.59,60.21,59.94,59.78,60.08,61.01,60.93,60.38,59.54,58.72,58.70,58.70,58.68,58.68,58.71,58.72,58.68,58.66,58.70,58.70,58.69,58.67,58.64,58.63,58.59,58.58,58.60,58.60,58.52,58.46,58.43,58.43,58.45,58.45,58.42,58.40,58.40,58.38,58.33,58.29,58.28,58.28,58.24,58.19,58.13,58.02,58.01,57.99,57.97,57.95,57.92,57.92,57.93,57.92,57.89,57.90,57.95,57.99,57.98,57.98,57.96,57.93,57.90,57.88,57.89,57.86,57.81,57.91,58.05,58.23,58.37,58.40,58.42,58.40,58.40,58.47,58.61,58.66,58.66,58.64,58.64,58.59,58.50,58.39,58.30,58.30,58.38,58.44,58.46,58.42,58.47,58.51,58.53,58.54,58.48,58.39,58.29,58.22,58.16,58.14,58.12,58.12,58.15,58.13,58.01,57.97,58.14,58.42,58.48,58.49,58.53,58.63,58.67,58.69,58.71,58.71,58.70,58.63,58.55,58.49,58.59,59.41,60.54,61.78,62.98,63.91,64.34,64.48,64.54,64.72,64.88,64.99,65.03,65.05,65.07,65.11,65.19,65.35,65.45,65.49,65.54,65.63,65.75,65.69,65.54,65.36,65.28,65.30,65.31,65.31,65.30,65.35,65.42,65.51,65.60,65.69,66.03,66.48,67.04,67.72,68.29,68.79,69.29,69.82,70.42,70.89,71.18,71.26,71.19,71.11,71.14,71.22,71.28,71.28,71.27,71.29,71.33,71.31,71.24,71.20,71.20,71.23,71.11,70.96,70.87,70.85,70.82,70.81,70.80,70.79,70.77,70.82,70.83,70.80,70.76,70.78,70.73,70.67,70.61,70.44,70.44,70.40,70.35,70.36,70.36,70.36,70.34,70.31,70.38,70.39,70.39,70.38,70.31,70.23,70.23,70.27,70.31,70.31,70.31,70.32,70.34,70.34,70.39,70.36,70.24,70.08,70.19,70.19,70.15,70.16,70.20,70.20,70.20,70.18,70.09,69.91,69.75,69.67,69.71,69.84,69.85,69.80,69.75,69.72,69.76,69.74
61.84,61.70,62.29,63.52,63.85,63.50,62.68,61.88,60.95,60.17,59.66,59.51,59.31,59.25,59.72,60.87,60.77,60.17,59.40,58.73,58.70,58.69,58.68,58.68,58.71,58.73,58.67,58.65,58.72,58.72,58.71,58.68,58.66,58.64,58.62,58.63,58.65,58.65,58.60,58.52,58.49,58.53,58.55,58.54,58.50,58.47,58.47,58.44,58.36,58.31,58.30,58.29,58.26,58.21,58.13,58.03,58.04,58.02,57.99,57.97,57.94,57.95,57.95,57.93,57.90,57.92,57.96,57.99,57.98,58.00,58.00,58.00,57.99,57.95,57.87,57.76,57.67,57.70,57.87,58.12,58.34,58.39,58.37,58.33,58.35,58.46,58.62,58.65,58.64,58.62,58.61,58.54,58.46,58.37,58.28,58.27,58.32,58.37,58.39,58.38,58.43,58.47,58.50,58.54,58.49,58.37,58.25,58.15,58.08,58.05,58.03,58.04,58.08,58.07,58.00,57.94,57.98,58.18,58.31,58.41,58.47,58.52,58.56,58.62,58.67,58.70,58.70,58.63,58.53,58.41,58.25,58.56,59.29,60.38,61.75,63.09,63.88,64.24,64.34,64.52,64.71,64.83,64.90,64.97,65.00,65.04,65.11,65.23,65.28,65.27,65.30,65.42,65.59,65.46,65.31,65.21,65.20,65.24,65.27,65.26,65.22,65.25,65.31,65.39,65.47,65.54,65.84,66.15,66.54,67.14,67.81,68.35,68.91,69.54,70.15,70.71,71.05,71.14,70.98,70.90,70.95,71.10,71.25,71.24,71.27,71.32,71.36,71.31,71.25,71.22,71.22,71.26,71.06,70.90,70.83,70.87,70.83,70.81,70.84,70.87,70.81,70.80,70.80,70.80,70.81,70.87,70.82,70.76,70.67,70.53,70.44,70.37,70.33,70.38,70.38,70.34,70.28,70.23,70.34,70.36,70.34,70.29,70.22,70.21,70.25,70.30,70.32,70.32,70.31,70.30,70.28,70.19,70.25,70.18,70.06,70.14,70.24,70.23,70.18,70.14,70.19,70.21,70.21,70.20,70.10,69.86,69.70,69.65,69.70,69.82,69.85,69.80,69.73,69.72,69.76,69.75
61.84,61.58,61.83,62.41,62.59,62.29,61.57,61.03,60.19,59.54,59.22,59.21,59.17,59.34,59.88,60.79,60.70,60.20,59.45,58.73,58.70,58.70,58.69,58.70,58.71,58.74,58.71,58.72,58.81,58.81,58.77,58.74,58.71,58.66,58.63,58.65,58.69,58.68,58.66,58.59,58.54,58.54,58.57,58.54,58.51,58.49,58.49,58.47,58.40,58.33,58.30,58.28,58.25,58.22,58.17,58.04,58.05,58.03,58.00,57.99,57.98,57.97,57.95,57.92,57.93,57.99,58.01,58.00,58.00,58.00,58.00,58.00,58.00,57.99,57.96,57.91,57.85,57.82,57.82,57.95,58.17,58.44,58.33,58.24,58.26,58.42,58.61,58.65,58.64,58.61,58.60,58.53,58.45,58.38,58.33,58.30,58.31,58.33,58.37,58.42,58.40,58.39,58.42,58.51,58.45,58.33,58.22,58.14,58.07,58.02,58.01,58.02,58.06,58.06,58.00,57.88,57.73,57.77,58.02,58.25,58.39,58.43,58.48,58.56,58.64,58.69,58.72,58.63,58.50,58.38,58.27,58.11,58.26,58.90,60.26,62.14,63.39,64.03,64.19,64.31,64.45,64.58,64.73,64.90,64.97,64.98,64.97,65.02,65.05,65.06,65.09,65.18,65.31,65.26,65.18,65.14,65.17,65.16,65.18,65.18,65.15,65.14,65.18,65.24,65.31,65.35,65.50,65.72,66.06,66.57,67.22,67.84,68.50,69.17,69.70,70.20,70.54,70.67,70.58,70.58,70.73,70.96,71.19,71.29,71.32,71.32,71.33,71.31,71.28,71.26,71.23,71.14,70.95,70.82,70.78,70.82,70.85,70.82,70.84,70.86,70.81,70.79,70.78,70.80,70.85,70.83,70.77,70.72,70.68,70.57,70.45,70.39,70.37,70.32,70.34,70.34,70.32,70.28,70.27,70.25,70.27,70.29,70.26,70.23,70.26,70.32,70.36,70.37,70.33,70.30,70.27,70.13,70.10,70.11,70.15,70.18,70.19,70.21,70.21,70.19,70.22,70.24,70.25,70.25,70.16,70.00,69.85,69.77,69.79,69.77,69.78,69.78,69.77,69.72,69.74,69.73
61.59,61.44,61.49,61.66,61.63,61.38,60.93,60.61,59.80,59.22,59.00,59.06,59.09,59.41,59.99,60.70,60.63,60.16,59.44,58.72,58.70,58.70,58.72,58.74,58.75,58.77,58.78,58.80,58.87,58.86,58.84,58.81,58.78,58.71,58.64,58.66,58.70,58.69,58.66,58.61,58.59,58.59,58.59,58.56,58.55,58.54,58.54,58.52,58.45,58.38,58.32,58.29,58.27,58.24,58.20,58.07,58.07,58.05,58.02,58.00,58.00,57.99,57.96,57.91,57.90,57.99,58.02,58.00,58.00,57.99,57.98,57.98,58.00,58.00,57.99,57.96,57.93,57.92,57.91,58.02,58.19,58.35,58.13,58.01,58.06,58.30,58.56,58.60,58.55,58.48,58.46,58.48,58.42,58.37,58.37,58.34,58.33,58.34,58.38,58.42,58.34,58.28,58.29,58.37,58.33,58.26,58.18,58.10,58.02,57.99,57.98,57.98,57.99,57.98,57.95,57.82,57.62,57.69,57.99,58.24,58.35,58.37,58.44,58.50,58.55,58.54,58.52,58.42,58.32,58.24,58.17,57.92,57.87,58.19,59.06,60.83,62.32,63.33,63.81,64.04,64.22,64.41,64.62,64.83,64.92,64.92,64.87,64.84,64.87,64.93,65.00,65.08,65.18,65.17,65.13,65.11,65.14,65.11,65.12,65.13,65.11,65.08,65.08,65.11,65.16,65.22,65.28,65.43,65.68,66.10,66.66,67.32,68.01,68.69,69.25,69.71,70.02,70.19,70.19,70.34,70.56,70.84,71.16,71.30,71.34,71.35,71.34,71.30,71.24,71.21,71.16,71.03,70.91,70.82,70.79,70.80,70.84,70.83,70.83,70.84,70.81,70.77,70.75,70.77,70.84,70.81,70.75,70.71,70.69,70.61,70.48,70.42,70.39,70.34,70.37,70.34,70.30,70.28,70.24,70.21,70.23,70.26,70.22,70.23,70.27,70.31,70.32,70.37,70.33,70.28,70.22,70.07,70.04,70.11,70.20,70.20,70.16,70.20,70.24,70.26,70.30,70.30,70.29,70.28,70.24,70.13,70.05,69.98,69.93,69.77,69.74,69.76,69.78,69.71,69.70,69.68
61.20,61.29,61.23,61.16,60.90,60.67,60.59,60.46,59.63,59.07,58.93,59.01,59.05,59.46,60.06,60.60,60.55,60.09,59.39,58.70,58.70,58.71,58.75,58.80,58.80,58.81,58.85,58.89,58.90,58.90,58.90,58.89,58.86,58.77,58.66,58.66,58.69,58.68,58.62,58.61,58.64,58.67,58.61,58.60,58.60,58.60,58.60,58.58,58.52,58.44,58.36,58.31,58.30,58.28,58.23,58.11,58.10,58.08,58.05,58.00,58.00,58.00,57.97,57.91,57.83,57.94,58.00,58.00,57.99,57.97,57.95,57.96,57.99,58.00,57.98,57.96,57.95,58.00,58.08,58.22,58.30,58.19,57.85,57.70,57.81,58.14,58.47,58.51,58.43,58.30,58.24,58.38,58.37,58.35,58.39,58.39,58.38,58.38,58.39,58.40,58.28,58.17,58.12,58.17,58.17,58.16,58.12,58.04,57.95,57.94,57.94,57.93,57.89,57.88,57.86,57.78,57.62,57.79,58.12,58.30,58.32,58.34,58.42,58.45,58.41,58.30,58.19,58.10,58.06,58.04,58.00,57.88,57.86,57.94,58.07,59.32,60.89,62.31,63.25,63.69,64.00,64.27,64.55,64.76,64.85,64.85,64.77,64.68,64.71,64.84,64.98,65.08,65.13,65.14,65.13,65.11,65.10,65.08,65.08,65.09,65.09,65.06,65.01,64.99,65.03,65.12,65.15,65.21,65.37,65.69,66.14,66.78,67.47,68.13,68.80,69.23,69.52,69.70,69.80,70.14,70.42,70.73,71.14,71.26,71.34,71.39,71.38,71.29,71.17,71.10,71.03,70.93,70.91,70.87,70.84,70.81,70.80,70.83,70.82,70.80,70.80,70.73,70.71,70.73,70.79,70.80,70.75,70.71,70.69,70.65,70.52,70.43,70.40,70.41,70.44,70.35,70.26,70.25,70.24,70.21,70.20,70.20,70.14,70.21,70.27,70.28,70.24,70.32,70.32,70.25,70.14,70.00,70.04,70.15,70.23,70.19,70.13,70.18,70.27,70.34,70.41,70.38,70.34,70.31,70.32,70.26,70.26,70.24,70.10,69.80,69.72,69.74,69.78,69.70,69.65,69.61
61.06,61.16,61.18,61.15,60.90,60.67,60.55,60.30,59.60,59.13,58.98,59.01,59.08,59.37,59.88,60.52,60.43,59.98,59.36,58.78,58.81,58.83,58.84,58.84,58.80,58.82,58.85,58.86,58.84,58.85,58.85,58.86,58.85,58.77,58.67,58.66,58.69,58.69,58.69,58.70,58.71,58.69,58.72,58.74,58.71,58.67,58.67,58.66,58.59,58.47,58.36,58.38,58.36,58.37,58.36,58.22,58.13,58.07,58.04,58.02,58.01,58.01,58.01,58.01,58.02,58.05,58.03,57.98,57.96,57.98,57.98,57.97,57.97,58.00,57.99,57.98,57.97,57.99,58.08,58.22,58.34,58.34,58.24,58.06,57.91,57.86,58.10,58.21,58.20,58.11,57.99,58.09,58.11,58.13,58.22,58.27,58.28,58.31,58.36,58.37,58.30,58.20,58.11,58.07,58.06,58.03,57.97,57.91,57.90,57.89,57.88,57.88,57.85,57.83,57.83,57.79,57.68,57.74,57.99,58.18,58.24,58.22,58.23,58.25,58.25,58.22,58.15,58.11,58.08,58.05,57.96,57.89,57.86,57.87,57.88,58.36,59.22,60.25,61.27,62.24,63.10,63.78,64.26,64.49,64.67,64.70,64.64,64.59,64.68,64.81,64.94,65.04,65.07,65.06,65.06,65.05,65.04,65.02,65.02,65.02,65.02,65.01,64.95,64.92,64.94,65.01,65.05,65.12,65.22,65.39,65.68,66.21,66.88,67.63,68.34,68.89,69.28,69.52,69.68,70.00,70.23,70.52,70.96,71.20,71.33,71.39,71.37,71.22,71.08,70.99,70.94,70.89,70.90,70.87,70.83,70.81,70.83,70.84,70.82,70.79,70.76,70.72,70.72,70.76,70.79,70.76,70.70,70.67,70.69,70.63,70.50,70.42,70.40,70.42,70.43,70.38,70.33,70.32,70.27,70.19,70.18,70.21,70.17,70.20,70.21,70.20,70.22,70.30,70.30,70.21,70.06,69.99,70.06,70.15,70.21,70.19,70.13,70.20,70.29,70.33,70.36,70.34,70.34,70.36,70.37,70.34,70.31,70.25,70.14,69.88,69.79,69.77,69.76,69.65,69.62,69.57
60.89,60.98,61.01,61.01,60.83,60.62,60.43,60.10,59.51,59.13,59.03,59.04,59.09,59.29,59.74,60.44,60.33,59.90,59.34,58.83,58.86,58.88,58.89,58.87,58.80,58.83,58.85,58.84,58.82,58.83,58.83,58.83,58.81,58.79,58.79,58.82,58.86,58.89,58.95,59.00,58.99,58.94,59.01,59.04,59.01,58.96,58.97,58.98,58.89,58.72,58.55,58.58,58.54,58.57,58.59,58.38,58.21,58.11,58.08,58.07,58.06,58.05,58.06,58.11,58.19,58.20,58.13,58.04,58.01,58.03,58.01,57.98,57.97,58.00,58.00,58.00,57.99,57.98,58.09,58.24,58.38,58.45,58.50,58.35,58.09,57.85,57.97,58.09,58.12,58.07,57.95,58.01,58.00,58.00,58.06,58.08,58.07,58.08,58.14,58.19,58.20,58.12,58.00,57.88,57.89,57.85,57.79,57.76,57.84,57.84,57.82,57.81,57.80,57.79,57.80,57.79,57.73,57.71,57.87,58.03,58.14,58.15,58.15,58.17,58.19,58.19,58.13,58.10,58.07,58.05,57.95,57.90,57.87,57.84,57.79,57.82,58.13,58.71,59.51,60.55,61.65,62.70,63.61,64.15,64.45,64.52,64.50,64.52,64.69,64.82,64.92,64.99,65.00,64.99,64.98,64.98,64.97,64.97,64.95,64.94,64.94,64.92,64.86,64.83,64.85,64.91,64.95,65.00,65.06,65.14,65.28,65.68,66.32,67.13,67.87,68.51,68.98,69.28,69.51,69.83,70.04,70.28,70.65,70.96,71.18,71.32,71.34,71.11,70.98,70.92,70.89,70.88,70.90,70.88,70.84,70.81,70.84,70.82,70.80,70.78,70.73,70.69,70.70,70.74,70.77,70.73,70.68,70.65,70.63,70.52,70.43,70.39,70.40,70.41,70.41,70.40,70.37,70.34,70.32,70.22,70.19,70.21,70.19,70.19,70.16,70.14,70.18,70.23,70.22,70.14,70.02,70.04,70.10,70.16,70.20,70.22,70.17,70.23,70.28,70.27,70.29,70.30,70.32,70.37,70.37,70.35,70.29,70.21,70.11,69.93,69.84,69.80,69.75,69.62,69.59,69.55
60.70,60.71,60.67,60.70,60.67,60.52,60.22,59.87,59.34,59.06,59.06,59.09,59.08,59.21,59.63,60.37,60.28,59.87,59.33,58.84,58.82,58.85,58.88,58.87,58.81,58.84,58.83,58.83,58.85,58.85,58.84,58.78,58.72,58.81,59.06,59.20,59.26,59.32,59.47,59.56,59.55,59.48,59.54,59.53,59.54,59.56,59.57,59.61,59.49,59.25,58.96,58.98,58.89,58.91,58.93,58.62,58.36,58.23,58.19,58.17,58.14,58.12,58.14,58.22,58.35,58.39,58.32,58.20,58.15,58.12,58.05,58.00,58.00,58.00,58.00,58.00,57.99,57.99,58.11,58.28,58.42,58.51,58.59,58.54,58.38,58.19,58.15,58.19,58.22,58.22,58.20,58.19,58.09,57.98,57.90,57.82,57.72,57.66,57.68,57.81,57.94,57.91,57.76,57.60,57.64,57.61,57.57,57.57,57.76,57.78,57.75,57.72,57.74,57.74,57.76,57.78,57.78,57.72,57.74,57.86,58.03,58.14,58.21,58.25,58.27,58.23,58.13,58.06,58.04,58.02,57.96,57.92,57.89,57.87,57.83,57.81,57.80,57.85,58.01,58.55,59.47,60.85,62.49,63.73,64.16,64.29,64.33,64.48,64.75,64.88,64.92,64.92,64.93,64.93,64.91,64.88,64.89,64.91,64.88,64.85,64.83,64.78,64.75,64.74,64.75,64.80,64.83,64.85,64.88,64.94,64.94,65.21,65.78,66.61,67.40,68.08,68.60,68.98,69.28,69.64,69.85,69.99,70.15,70.48,70.86,71.17,71.29,70.91,70.88,70.89,70.90,70.90,70.90,70.90,70.87,70.81,70.81,70.76,70.76,70.78,70.72,70.64,70.62,70.65,70.70,70.70,70.70,70.64,70.50,70.28,70.29,70.34,70.39,70.40,70.40,70.40,70.37,70.31,70.38,70.32,70.25,70.20,70.20,70.19,70.15,70.11,70.11,70.11,70.06,70.02,70.03,70.16,70.19,70.19,70.22,70.28,70.28,70.28,70.23,70.14,70.20,70.23,70.27,70.31,70.30,70.25,70.18,70.09,70.00,69.93,69.89,69.84,69.75,69.61,69.58,69.54
60.50,60.49,60.45,60.46,60.43,60.28,59.94,59.55,59.18,59.01,59.02,59.10,59.16,59.39,59.79,60.29,60.21,59.81,59.28,58.82,58.81,58.82,58.84,58.85,58.80,58.82,58.81,58.82,58.86,58.91,58.98,58.96,58.92,59.09,59.44,59.61,59.67,59.73,59.84,59.88,59.87,59.81,59.81,59.76,59.72,59.71,59.70,59.74,59.68,59.54,59.36,59.33,59.25,59.22,59.19,58.93,58.71,58.58,58.48,58.38,58.27,58.30,58.36,58.41,58.45,58.46,58.40,58.32,58.28,58.25,58.20,58.14,58.11,58.07,58.02,57.99,57.98,57.97,58.11,58.30,58.47,58.55,58.56,58.51,58.44,58.38,58.35,58.35,58.35,58.34,58.32,58.29,58.27,58.28,58.29,58.13,57.82,57.56,57.44,57.52,57.70,57.74,57.65,57.44,57.43,57.44,57.44,57.44,57.53,57.56,57.54,57.52,57.59,57.65,57.69,57.72,57.75,57.73,57.73,57.75,57.79,57.95,58.15,58.27,58.31,58.26,58.15,58.09,58.06,58.02,57.96,57.89,57.87,57.87,57.84,57.81,57.76,57.64,57.47,57.67,58.07,58.99,60.40,61.90,62.93,63.63,64.09,64.36,64.65,64.82,64.88,64.86,64.83,64.81,64.79,64.78,64.78,64.79,64.76,64.72,64.69,64.64,64.63,64.64,64.66,64.68,64.72,64.77,64.82,64.89,64.86,64.97,65.34,66.03,66.86,67.52,68.07,68.51,68.85,69.32,69.64,69.83,69.96,70.16,70.41,70.65,70.80,70.70,70.78,70.87,70.94,70.95,70.95,70.92,70.89,70.86,70.85,70.80,70.76,70.74,70.71,70.66,70.63,70.62,70.63,70.59,70.55,70.43,70.24,70.21,70.26,70.31,70.34,70.35,70.38,70.34,70.32,70.35,70.38,70.37,70.32,70.26,70.22,70.15,70.12,70.11,70.13,70.08,70.01,69.99,70.05,70.17,70.18,70.19,70.21,70.24,70.26,70.24,70.18,70.12,70.21,70.27,70.30,70.30,70.30,70.30,70.22,70.10,69.98,69.96,69.93,69.87,69.77,69.63,69.58,69.54
60.29,60.27,60.26,60.26,60.19,60.01,59.69,59.29,59.08,58.98,59.01,59.23,59.34,59.65,59.99,60.21,60.14,59.81,59.34,58.89,58.83,58.81,58.81,58.82,58.80,58.80,58.81,58.85,58.94,59.06,59.20,59.23,59.21,59.40,59.74,59.91,59.96,60.01,60.05,60.06,60.04,59.99,59.96,59.88,59.81,59.75,59.72,59.76,59.75,59.70,59.63,59.57,59.51,59.45,59.36,59.17,59.04,58.92,58.79,58.63,58.45,58.46,58.51,58.53,58.52,58.50,58.46,58.40,58.38,58.37,58.33,58.29,58.24,58.17,58.09,58.02,57.98,57.97,58.10,58.30,58.47,58.54,58.46,58.40,58.40,58.47,58.47,58.45,58.40,58.36,58.31,58.26,58.33,58.48,58.63,58.42,57.96,57.55,57.31,57.33,57.50,57.59,57.56,57.36,57.30,57.33,57.36,57.36,57.34,57.38,57.40,57.42,57.51,57.60,57.65,57.68,57.68,57.71,57.73,57.69,57.63,57.77,58.02,58.19,58.26,58.24,58.13,58.06,58.01,57.95,57.89,57.81,57.79,57.81,57.81,57.77,57.70,57.51,57.17,57.15,57.12,57.50,58.42,59.87,61.35,62.59,63.52,64.09,64.48,64.72,64.82,64.80,64.73,64.70,64.69,64.69,64.68,64.67,64.63,64.59,64.56,64.51,64.52,64.55,64.57,64.57,64.62,64.69,64.78,64.85,64.84,64.82,64.99,65.48,66.27,66.92,67.50,68.02,68.39,68.91,69.32,69.61,69.79,69.89,70.01,70.16,70.35,70.52,70.70,70.86,70.97,70.99,70.98,70.94,70.90,70.89,70.89,70.83,70.76,70.71,70.70,70.68,70.64,70.59,70.56,70.44,70.33,70.18,70.04,70.18,70.26,70.30,70.30,70.31,70.35,70.30,70.29,70.39,70.37,70.39,70.38,70.33,70.25,70.15,70.11,70.12,70.15,70.08,69.99,69.98,70.06,70.15,70.15,70.17,70.20,70.19,70.21,70.18,70.14,70.13,70.24,70.32,70.33,70.29,70.31,70.34,70.26,70.11,69.97,69.99,69.96,69.89,69.80,69.68,69.62,69.57
60.12,60.06,60.10,60.14,59.99,59.78,59.55,59.26,59.12,59.05,59.15,59.74,59.78,59.98,60.15,60.13,60.12,60.05,59.75,59.25,58.96,58.84,58.80,58.81,58.80,58.80,58.83,58.98,59.28,59.47,59.58,59.59,59.57,59.68,59.79,59.83,59.85,59.87,59.89,59.92,59.91,59.86,59.85,59.82,59.79,59.76,59.70,59.72,59.70,59.64,59.54,59.51,59.45,59.40,59.33,59.20,59.16,59.11,59.03,58.90,58.75,58.50,58.36,58.40,58.48,58.55,58.50,58.40,58.40,58.39,58.38,58.37,58.36,58.34,58.28,58.17,58.06,58.03,58.13,58.26,58.36,58.36,58.22,58.15,58.21,58.34,58.35,58.30,58.23,58.13,58.00,57.90,57.98,58.21,58.47,58.34,57.96,57.60,57.38,57.39,57.43,57.45,57.44,57.39,57.38,57.38,57.39,57.38,57.38,57.46,57.56,57.65,57.66,57.67,57.72,57.69,57.55,57.59,57.70,57.76,57.75,57.74,57.76,57.85,57.97,58.04,57.97,57.84,57.71,57.64,57.64,57.54,57.54,57.62,57.68,57.59,57.41,57.20,57.04,57.09,57.08,57.12,57.33,58.01,59.28,60.63,62.01,63.44,64.22,64.58,64.71,64.72,64.68,64.65,64.64,64.65,64.62,64.56,64.51,64.48,64.47,64.43,64.45,64.48,64.50,64.50,64.54,64.62,64.71,64.78,64.84,64.83,64.84,65.01,65.62,66.28,66.93,67.52,67.95,68.28,68.71,69.14,69.49,69.69,69.82,70.00,70.24,70.48,70.68,70.84,70.95,70.97,70.94,70.90,70.87,70.87,70.84,70.79,70.75,70.71,70.70,70.65,70.60,70.55,70.48,70.22,70.00,69.94,70.07,70.21,70.27,70.30,70.31,70.33,70.35,70.34,70.35,70.39,70.33,70.37,70.41,70.41,70.33,70.27,70.20,70.13,70.11,70.09,70.03,70.00,70.03,70.11,70.09,70.13,70.19,70.16,70.17,70.14,70.13,70.17,70.30,70.32,70.29,70.27,70.29,70.25,70.16,70.06,69.96,69.99,69.98,69.94,69.86,69.80,69.76,69.70
60.01,59.94,59.98,59.95,59.80,59.64,59.47,59.17,59.10,59.18,59.48,60.10,60.10,60.16,60.19,60.11,60.11,60.16,59.96,59.50,59.18,59.00,58.90,58.85,58.82,58.83,58.93,59.16,59.48,59.67,59.71,59.67,59.63,59.70,59.71,59.72,59.73,59.74,59.78,59.81,59.83,59.82,59.82,59.84,59.93,60.10,60.35,60.38,60.41,60.43,60.42,60.31,60.29,60.34,60.39,60.31,60.28,60.03,59.58,58.99,58.86,58.53,58.32,58.32,58.39,58.46,58.43,58.37,58.39,58.43,58.45,58.44,58.42,58.41,58.38,58.32,58.24,58.20,58.22,58.24,58.24,58.22,58.11,58.04,58.04,58.10,58.06,58.06,58.01,57.91,57.77,57.67,57.70,57.84,58.02,57.97,57.76,57.55,57.41,57.43,57.43,57.42,57.42,57.42,57.40,57.39,57.38,57.38,57.41,57.53,57.68,57.81,57.82,57.81,57.82,57.77,57.63,57.66,57.76,57.82,57.79,57.70,57.59,57.58,57.63,57.69,57.69,57.63,57.57,57.54,57.58,57.50,57.46,57.46,57.46,57.35,57.20,57.07,57.03,57.10,57.10,57.03,56.98,57.20,57.95,58.97,60.34,62.19,63.51,64.22,64.54,64.63,64.60,64.58,64.59,64.60,64.56,64.47,64.41,64.37,64.36,64.35,64.37,64.39,64.41,64.42,64.46,64.53,64.62,64.68,64.80,64.81,64.77,64.77,65.12,65.63,66.26,66.95,67.63,67.94,68.30,68.68,69.04,69.35,69.59,69.83,70.11,70.42,70.64,70.80,70.89,70.91,70.87,70.83,70.81,70.81,70.78,70.75,70.72,70.70,70.68,70.62,70.56,70.45,70.24,69.86,69.82,69.95,70.16,70.25,70.27,70.29,70.31,70.36,70.39,70.38,70.38,70.39,70.34,70.37,70.43,70.46,70.40,70.35,70.26,70.18,70.13,70.10,70.04,70.01,70.02,70.06,70.02,70.05,70.11,70.13,70.14,70.12,70.14,70.23,70.32,70.30,70.27,70.27,70.29,70.19,70.10,70.02,69.98,69.99,69.98,69.94,69.88,69.84,69.86,69.82
